0.421638,-0.165869,0.134461,96
0.420812,-0.165426,0.135063,90
0.421791,-0.165956,0.136288,96
0.420771,-0.165409,0.13682,96
0.42136,-0.165728,0.137915,88
0.421023,-0.165549,0.138685,92
0.420687,-0.16537,0.139454,92
0.421864,-0.166007,0.140765,94
0.421039,-0.165565,0.14136,101
0.42173,-0.165939,0.142502,94
0.421688,-0.165919,0.14338,93
0.420474,-0.165267,0.143829,85
0.421164,-0.165641,0.144976,89
0.420928,-0.165516,0.145783,90
0.421817,-0.165998,0.147011,92
0.421238,-0.165688,0.14769,80
0.421198,-0.165669,0.148572,82
0.421894,-0.166046,0.149735,80
0.423236,-0.166772,0.15115,81
0.422752,-0.166513,0.151867,83
0.423705,-0.167029,0.15314,82
0.423865,-0.167118,0.154109,83
0.423381,-0.166859,0.154827,84
0.422799,-0.166548,0.155505,84
0.423159,-0.166744,0.156554,89
0.424017,-0.167209,0.157805,76
0.42423,-0.167326,0.158802,85
0.424644,-0.167552,0.159882,82
0.42521,-0.167859,0.161026,81
0.426332,-0.168466,0.162401,81
0.426651,-0.168641,0.163452,89
0.425458,-0.168,0.16388,87
0.425425,-0.167984,0.164786,90
0.425794,-0.168186,0.16586,85
0.426772,-0.168715,0.167193,89
0.426892,-0.168782,0.168168,90
0.427673,-0.169206,0.169426,87
0.427539,-0.169136,0.170298,85
0.427712,-0.169232,0.171301,90
0.429165,-0.170017,0.172859,82
0.428622,-0.169727,0.173558,77
0.428951,-0.169907,0.174636,75
0.428409,-0.169617,0.175334,80
0.428739,-0.169797,0.176415,74
0.428967,-0.169923,0.177453,79
0.429093,-0.169993,0.178448,69
0.430614,-0.170816,0.180069,74
0.429966,-0.170469,0.180721,65
0.431913,-0.171521,0.182546,69
0.432043,-0.171594,0.183555,64
0.43056,-0.170796,0.183826,53
0.43069,-0.170869,0.184834,51
0.430405,-0.170717,0.185651,54
0.431212,-0.171155,0.186975,53
0.430096,-0.170556,0.187406,57
0.432261,-0.171726,0.189371,54
0.431505,-0.17132,0.189971,59
0.431586,-0.171367,0.190965,60
0.432244,-0.171724,0.192234,66
0.431541,-0.171347,0.192857,61
0.432147,-0.171677,0.194107,65
0.43087,-0.17099,0.19445,70
0.431633,-0.171404,0.195779,67
0.430984,-0.171056,0.196423,66
0.430337,-0.17071,0.197067,72
0.429174,-0.170085,0.197454,74
0.428584,-0.16977,0.19812,75
0.43038,-0.170741,0.199972,68
0.428285,-0.169613,0.199888,68
0.427853,-0.169383,0.20063,68
0.427319,-0.169097,0.201319,70
0.426581,-0.168701,0.201904,92
0.428053,-0.169498,0.203612,73
0.426287,-0.168548,0.203671,69
0.426115,-0.168457,0.204541,79
0.801429,-0.376673,-0.421965,6
0.430024,-0.173585,-0.218549,8
0.423282,-0.169902,-0.213947,7
0.428614,-0.172819,-0.215845,11
0.146898,-0.0187595,-0.0675943,7
0.42425,-0.170438,-0.211591,9
0.430596,-0.173911,-0.213988,7
0.242342,-0.0709626,-0.114701,7
0.420142,-0.168199,-0.206572,8
0.422494,-0.169488,-0.206854,10
2.12247,-1.09916,-1.09384,8
0.421101,-0.168731,-0.204238,7
0.431441,-0.174388,-0.208611,9
0.424074,-0.170362,-0.203873,10
0.428476,-0.172772,-0.205167,8
0.347764,-0.128631,-0.163371,10
0.426684,-0.171796,-0.202347,11
0.243059,-0.0713677,-0.109854,7
0.430465,-0.173869,-0.202334,6
0.423001,-0.169789,-0.19766,12
0.431625,-0.174508,-0.20099,11
0.421815,-0.169146,-0.195196,11
0.428568,-0.172841,-0.197571,8
0.418963,-0.16759,-0.191932,10
0.416922,-0.166476,-0.190013,9
0.420758,-0.168577,-0.190945,11
0.419534,-0.16791,-0.189426,10
0.420926,-0.168674,-0.189166,14
0.420245,-0.168303,-0.187913,9
0.404944,-0.159936,-0.179739,10
0.417963,-0.16706,-0.184985,10
0.421466,-0.168978,-0.185709,11
0.418182,-0.167185,-0.183249,9
0.411441,-0.163499,-0.1792,9
0.418306,-0.167257,-0.181471,12
0.416717,-0.16639,-0.179824,14
0.419752,-0.168053,-0.1803,12
0.419864,-0.168116,-0.179432,15
0.420763,-0.168611,-0.178922,10
0.413709,-0.164754,-0.174824,12
0.249476,-0.0749091,-0.100862,10
0.419775,-0.168077,-0.175726,14
0.419839,-0.168114,-0.17484,14
0.421578,-0.169068,-0.174693,12
0.417194,-0.166672,-0.171852,16
0.422153,-0.169388,-0.173111,13
0.415976,-0.16601,-0.169512,15
0.42298,-0.169845,-0.171636,14
0.421461,-0.169016,-0.170066,16
0.417475,-0.166837,-0.167449,11
0.419729,-0.168073,-0.167505,18
0.423496,-0.170137,-0.168191,15
0.418791,-0.167565,-0.165297,17
0.420176,-0.168325,-0.164973,18
0.420538,-0.168525,-0.164217,20
0.417157,-0.166677,-0.161913,17
0.421412,-0.169008,-0.162766,22
0.420011,-0.168243,-0.161286,20
0.423928,-0.170389,-0.161977,24
0.42241,-0.169561,-0.160453,22
0.423174,-0.169981,-0.159854,26
0.422008,-0.169346,-0.15848,22
0.422919,-0.169847,-0.157938,21
0.420775,-0.168676,-0.156185,25
0.422963,-0.169875,-0.156146,23
0.421311,-0.168974,-0.154596,29
0.421973,-0.169338,-0.153954,25
0.425721,-0.171392,-0.154502,24
0.42148,-0.169073,-0.151965,25
0.423873,-0.170385,-0.151981,31
0.425843,-0.171465,-0.151827,26
0.42427,-0.170607,-0.150327,32
0.425291,-0.171168,-0.149809,32
0.426118,-0.171623,-0.149213,30
0.425843,-0.171474,-0.148207,31
0.427528,-0.172399,-0.147925,31
0.427908,-0.172609,-0.147158,31
0.427278,-0.172267,-0.146022,36
0.42928,-0.173365,-0.145842,33
0.428596,-0.172993,-0.144688,35
0.429946,-0.173734,-0.144265,36
0.429719,-0.173612,-0.143276,28
0.430104,-0.173825,-0.142505,27
0.430849,-0.174235,-0.141859,26
0.432679,-0.175239,-0.141588,21
0.431113,-0.174384,-0.140135,26
0.427385,-0.172346,-0.137947,29
0.432923,-0.17538,-0.138939,30
0.435346,-0.176708,-0.138851,38
0.436216,-0.177187,-0.13823,35
0.433482,-0.175693,-0.136399,36
0.432842,-0.175345,-0.135277,36
0.433081,-0.175478,-0.134449,41
0.434357,-0.176179,-0.133961,39
0.433768,-0.175858,-0.13286,40
0.434997,-0.176534,-0.13235,41
0.435814,-0.176984,-0.131704,46
0.436898,-0.177579,-0.13114,37
0.436303,-0.177256,-0.130039,35
0.435553,-0.176848,-0.128893,40
0.436847,-0.177558,-0.12839,39
0.437356,-0.177839,-0.127638,35
0.439351,-0.178934,-0.127342,36
0.440028,-0.179306,-0.126635,38
0.437205,-0.177763,-0.124863,39
0.437138,-0.177729,-0.123934,38
0.436024,-0.177121,-0.122693,39
0.43769,-0.178036,-0.122284,37
0.439688,-0.179132,-0.121966,43
0.43872,-0.178605,-0.120771,43
0.43945,-0.179007,-0.120075,50
0.441144,-0.179936,-0.119654,41
0.438897,-0.178708,-0.118098,55
0.439734,-0.179169,-0.117429,51
0.439087,-0.178817,-0.116339,53
0.439396,-0.178988,-0.115519,51
0.439864,-0.179247,-0.114742,49
0.43906,-0.178809,-0.113615,53
0.440006,-0.17933,-0.112968,54
0.439044,-0.178805,-0.111802,56
0.438984,-0.178775,-0.110883,57
0.438978,-0.178774,-0.109979,60
0.439236,-0.178917,-0.109145,59
0.438228,-0.178368,-0.107979,55
0.438118,-0.17831,-0.107052,59
0.438009,-0.178252,-0.106125,65
0.438215,-0.178368,-0.10528,61
0.438475,-0.178512,-0.104449,64
0.437894,-0.178197,-0.103406,61
0.437578,-0.178026,-0.102431,56
0.438259,-0.178401,-0.101705,65
0.439154,-0.178893,-0.101028,67
0.438047,-0.17829,-0.0998634,75
0.438679,-0.178638,-0.0991211,77
0.437786,-0.178151,-0.0980141,69
0.437683,-0.178097,-0.0970975,68
0.438052,-0.178301,-0.0962922,69
0.439159,-0.17891,-0.0956566,71
0.438267,-0.178424,-0.0945585,72
0.438376,-0.178486,-0.0936919,69
0.438643,-0.178634,-0.0928609,64
0.438175,-0.17838,-0.0918656,62
0.438232,-0.178414,-0.0909888,70
0.439079,-0.17888,-0.0902845,68
0.43835,-0.178483,-0.0892361,72
0.437206,-0.177858,-0.0881028,75
0.43784,-0.178208,-0.0873516,78
0.43743,-0.177986,-0.0863792,74
0.437335,-0.177936,-0.0854742,75
0.437553,-0.178058,-0.0846345,74
0.436833,-0.177666,-0.0836037,76
0.435961,-0.177191,-0.0825459,80
0.436076,-0.177256,-0.0816886,77
0.435829,-0.177123,-0.08076,80
0.436308,-0.177387,-0.0799741,83
0.435803,-0.177113,-0.0789973,77
0.435713,-0.177066,-0.0781021,79
0.436037,-0.177246,-0.0772856,80
0.436207,-0.177341,-0.0764395,78
0.437105,-0.177835,-0.0757268,81
0.436032,-0.177249,-0.0746524,81
0.436203,-0.177346,-0.0738067,79
0.435703,-0.177074,-0.0728414,77
0.435618,-0.177029,-0.0719514,76
0.43512,-0.176759,-0.0709908,76
0.436327,-0.177422,-0.0703239,75
0.435262,-0.176841,-0.0692689,79
0.435642,-0.177052,-0.0684597,80
0.435045,-0.176727,-0.0674884,87
0.435478,-0.176966,-0.0666873,84
0.435397,-0.176924,-0.0658023,85
0.434494,-0.176432,-0.0647881,87
0.434312,-0.176334,-0.0638906,89
0.43526,-0.176856,-0.0631679,87
0.434975,-0.176702,-0.0622546,94
0.434333,-0.176353,-0.0612895,98
0.434256,-0.176313,-0.0604106,99
0.434231,-0.176301,-0.05954,95
0.434104,-0.176234,-0.0586552,100
0.433773,-0.176055,-0.0577426,97
0.433954,-0.176156,-0.0569027,98
0.433829,-0.17609,-0.0560205,98
0.434625,-0.176528,-0.0552631,95
0.433429,-0.175875,-0.0542387,94
0.433765,-0.176061,-0.0534194,93
0.433693,-0.176024,-0.0525468,98
0.433827,-0.1761,-0.0517005,108
0.4334,-0.175868,-0.0507846,108
0.434453,-0.176447,-0.050051,111
0.434435,-0.17644,-0.049185,111
0.433092,-0.175706,-0.0481635,107
0.433431,-0.175894,-0.0473423,107
0.434589,-0.176531,-0.0466125,107
0.433909,-0.176161,-0.0456739,105
0.433997,-0.176211,-0.0448219,109
0.433982,-0.176205,-0.043959,117
0.43402,-0.176228,-0.0431019,124
0.433752,-0.176083,-0.0422134,122
0.433943,-0.17619,-0.0413725,120
0.43332,-0.175851,-0.0404509,125
0.433258,-0.175819,-0.0395861,124
0.433706,-0.176067,-0.0387698,124
0.432984,-0.175673,-0.0378441,127
0.434094,-0.176284,-0.0370865,121
0.434187,-0.176337,-0.0362351,118
0.43372,-0.176084,-0.0353354,122
0.434734,-0.176641,-0.0345617,124
0.434012,-0.176248,-0.0336425,115
0.433903,-0.17619,-0.0327752,116
0.434919,-0.176749,-0.0319953,113
0.435222,-0.176917,-0.0311578,122
0.434296,-0.176412,-0.0302295,125
0.434855,-0.176721,-0.0294104,130
0.43434,-0.176441,-0.0285154,128
0.435464,-0.177059,-0.0277318,128
0.435257,-0.176948,-0.0268578,126
0.434794,-0.176696,-0.0259689,133
0.43546,-0.177063,-0.02515,130
0.434998,-0.176813,-0.0242629,131
0.435768,-0.177237,-0.023447,132
0.434897,-0.176762,-0.0225393,132
0.435771,-0.177243,-0.0217259,130
0.435517,-0.177106,-0.0208529,130
0.435674,-0.177194,-0.0200005,135
0.436089,-0.177424,-0.0191594,132
0.436453,-0.177626,-0.0183145,140
0.436562,-0.177687,-0.0174574,145
0.436619,-0.177721,-0.0165981,146
0.436573,-0.177698,-0.0157347,148
0.437615,-0.178271,-0.0149096,145
0.437726,-0.178334,-0.0140497,152
0.437164,-0.178029,-0.0131686,144
0.438314,-0.178661,-0.012339,143
0.437908,-0.178441,-0.0114633,138
0.438438,-0.178733,-0.0106123,134
0.437825,-0.1784,-0.00973357,135
0.438616,-0.178836,-0.00888578,144
0.437744,-0.17836,-0.00800472,140
0.438069,-0.17854,-0.0071464,144
0.438654,-0.178863,-0.00629034,142
0.439295,-0.179217,-0.00543247,147
0.439938,-0.179571,-0.00457193,138
0.438907,-0.179008,-0.00369622,136
0.439969,-0.179593,-0.00283605,128
0.440039,-0.179633,-0.00196818,120
0.441003,-0.180164,-0.00110103,121
0.439236,-0.179198,-0.000232501,122
0.438941,-0.179038,0.000633143,122
0.43985,-0.179539,0.00150384,120
0.441185,-0.180273,0.00238152,119
0.440363,-0.179825,0.0032445,118
0.440753,-0.18004,0.00411805,119
0.440564,-0.179939,0.00498537,120
0.439852,-0.179551,0.00584367,118
0.439613,-0.179422,0.00670748,118
0.438696,-0.178922,0.00755678,121
0.439191,-0.179195,0.00843346,124
0.439268,-0.17924,0.0093022,119
0.438772,-0.17897,0.0101562,125
0.439792,-0.179531,0.0110514,118
0.439243,-0.179233,0.0119029,123
0.438644,-0.178907,0.0127506,126
0.437788,-0.17844,0.0135869,126
0.436937,-0.177975,0.0144198,128
0.436192,-0.177569,0.0152534,124
0.435553,-0.177221,0.0160884,123
0.435635,-0.177268,0.0169518,123
0.43505,-0.176949,0.0177856,123
0.43406,-0.176408,0.0185976,122
0.433481,-0.176093,0.0194261,124
0.433209,-0.175946,0.020268,127
0.432735,-0.175688,0.0210981,128
0.43206,-0.175321,0.0219151,131
0.431993,-0.175286,0.0227646,130
0.431423,-0.174976,0.0235838,125
0.431559,-0.175053,0.0244446,126
0.430289,-0.174358,0.0252157,132
0.430275,-0.174353,0.026065,138
0.430362,-0.174403,0.0269214,139
0.429201,-0.173768,0.02769,134
0.428742,-0.173518,0.028505,137
0.429128,-0.173732,0.0293817,135
0.428273,-0.173266,0.0301644,135
0.428015,-0.173126,0.0309911,133
0.427214,-0.17269,0.0317727,131
0.427057,-0.172606,0.0326048,130
0.42695,-0.172549,0.0334407,133
0.426942,-0.172547,0.0342851,136
0.426345,-0.172221,0.0350766,138
0.426436,-0.172274,0.0359292,135
0.427168,-0.172677,0.0368427,130
0.425737,-0.171895,0.0375515,122
0.424853,-0.171412,0.0383081,127
0.424751,-0.171358,0.0391398,124
0.425626,-0.17184,0.0400715,117
0.424792,-0.171385,0.0408282,119
0.424448,-0.171198,0.041634,123
0.424202,-0.171066,0.0424493,131
0.424006,-0.17096,0.0432693,123
0.424881,-0.171442,0.04421,132
0.42449,-0.17123,0.0450087,124
0.426153,-0.172144,0.0460472,126
0.42493,-0.171476,0.0467479,122
0.424882,-0.171452,0.0475867,125
0.424835,-0.171428,0.0484258,127
0.42469,-0.171351,0.0492527,130
0.426211,-0.172187,0.0502925,121
0.424745,-0.171385,0.0509502,116
0.427155,-0.172709,0.052115,116
0.427407,-0.17285,0.0530001,114
0.426032,-0.172098,0.0536642,116
0.42653,-0.172373,0.0545828,112
0.42698,-0.172622,0.0554971,112
0.427333,-0.172818,0.0563997,109
0.426452,-0.172337,0.057125,119
0.427151,-0.172723,0.0580797,115
0.428052,-0.173219,0.0590679,108
0.428012,-0.173199,0.0599176,107
0.42708,-0.17269,0.0606304,115
0.427289,-0.172807,0.0615173,117
0.428591,-0.173524,0.0625784,118
0.426866,-0.172579,0.0631604,125
0.427373,-0.17286,0.0640978,125
0.427832,-0.173114,0.0650299,124
0.427548,-0.17296,0.0658404,114
0.428158,-0.173297,0.066801,119
0.428073,-0.173253,0.0676459,117
0.428338,-0.1734,0.0685512,115
0.429102,-0.173822,0.0695458,114
0.429269,-0.173916,0.0704379,120
0.429938,-0.174285,0.0714215,116
0.43046,-0.174573,0.0723814,111
0.430176,-0.17442,0.0731961,111
0.429743,-0.174184,0.073982,108
0.430769,-0.17475,0.0750413,108
0.430336,-0.174514,0.0758275,109
0.430357,-0.174528,0.0766997,109
0.430933,-0.174847,0.0776807,117
0.431665,-0.17525,0.0786951,117
0.432043,-0.17546,0.0796429,125
0.431813,-0.175336,0.0804702,127
0.431939,-0.175407,0.0813694,131
0.433341,-0.176179,0.0825321,128
0.43388,-0.176477,0.0835219,139
0.432626,-0.175791,0.0841384,147
0.432806,-0.175892,0.0850538,141
0.434115,-0.176613,0.0862125,137
0.433066,-0.176039,0.0868669,134
0.432685,-0.175832,0.0876635,129
0.432612,-0.175795,0.0885267,139
0.432692,-0.175841,0.0894244,138
0.433542,-0.17631,0.0904962,145
0.433984,-0.176555,0.0914795,140
0.433348,-0.176207,0.0922177,136
0.433739,-0.176425,0.0931918,131
0.43439,-0.176784,0.0942288,127
0.43432,-0.176748,0.0950991,120
0.433736,-0.17643,0.095847,128
0.434958,-0.177102,0.0970271,125
0.433599,-0.176359,0.0975873,129
0.433686,-0.176409,0.0984957,126
0.432285,-0.175643,0.0990378,125
0.433398,-0.176256,0.1002,119
0.433847,-0.176504,0.101202,121
0.433267,-0.176188,0.101945,120
0.434543,-0.176891,0.10316,122
0.433961,-0.176574,0.103903,120
0.434052,-0.176626,0.104818,125
0.433473,-0.176311,0.105559,122
0.432896,-0.175996,0.106299,122
0.432628,-0.175852,0.107119,129
0.432105,-0.175567,0.10787,130
0.431482,-0.175227,0.108591,135
0.431268,-0.175112,0.109423,139
0.43177,-0.17539,0.110451,138
0.430945,-0.174939,0.111114,138
0.430937,-0.174937,0.112003,140
0.431184,-0.175075,0.112964,139
0.429804,-0.174319,0.113464,142
0.429291,-0.17404,0.114207,141
0.429082,-0.173928,0.115036,139
0.42837,-0.173539,0.115719,133
0.427109,-0.172849,0.116238,123
0.426404,-0.172464,0.116916,120
0.426548,-0.172546,0.117845,120
0.426394,-0.172464,0.118685,121
0.425792,-0.172135,0.119391,122
0.424646,-0.171509,0.119928,120
0.424989,-0.171699,0.120918,119
0.423455,-0.170859,0.12133,122
0.423747,-0.171022,0.122304,115
0.423154,-0.170698,0.123003,121
0.423398,-0.170835,0.123963,115
0.421973,-0.170055,0.124396,121
0.421288,-0.169681,0.125059,116
0.420995,-0.169522,0.125846,115
0.420945,-0.169497,0.126712,109
0.419441,-0.168674,0.127103,107
0.420847,-0.169448,0.128444,107
0.419537,-0.168731,0.128894,108
0.419973,-0.168973,0.12992,105
0.41978,-0.168869,0.130738,102
0.420413,-0.169218,0.131835,98
0.420658,-0.169355,0.132803,103
0.421001,-0.169546,0.133807,102
0.419691,-0.168829,0.134243,106
0.419403,-0.168673,0.135029,100
0.4196,-0.168784,0.135983,99
0.42043,-0.169242,0.137161,92
0.42024,-0.169139,0.137983,93
0.420293,-0.169171,0.138892,84
0.418988,-0.168456,0.139315,91
0.420255,-0.169155,0.14066,95
0.420651,-0.169374,0.141695,93
0.420267,-0.169166,0.142449,94
0.420665,-0.169386,0.143488,95
0.420428,-0.169259,0.144295,97
0.421414,-0.169803,0.145557,95
0.420443,-0.169272,0.146092,88
0.419915,-0.168984,0.146791,85
0.420021,-0.169045,0.147727,86
0.419397,-0.168704,0.148387,81
0.420675,-0.169408,0.149773,84
0.424792,-0.171672,0.152259,86
0.421186,-0.169694,0.151772,90
0.422577,-0.17046,0.153217,88
0.421898,-0.170089,0.153858,87
0.422107,-0.170206,0.154847,86
0.421725,-0.169999,0.155602,84
0.422826,-0.170606,0.156949,85
0.422146,-0.170235,0.157587,77
0.423799,-0.171145,0.159164,73
0.423913,-0.17121,0.160125,77
0.423928,-0.171221,0.161047,85
0.424094,-0.171314,0.162031,87
0.424861,-0.171738,0.163265,94
0.424527,-0.171556,0.164047,87
0.424193,-0.171375,0.164828,98
0.425819,-0.172271,0.166431,98
0.424679,-0.171647,0.166874,91
0.426768,-0.172797,0.168684,89
0.425925,-0.172337,0.169253,84
0.426756,-0.172795,0.170537,84
0.426116,-0.172446,0.171192,86
0.427,-0.172934,0.172505,84
0.427021,-0.172948,0.173447,82
0.428269,-0.173636,0.174927,83
0.427677,-0.173313,0.175604,80
0.427801,-0.173384,0.176596,71
0.428337,-0.173681,0.177773,74
0.427745,-0.173358,0.178448,71
0.428487,-0.173768,0.179722,75
0.429284,-0.174208,0.181024,70
0.428742,-0.173913,0.181723,68
0.429386,-0.174269,0.182962,62
0.430969,-0.175141,0.184636,60
0.430008,-0.174616,0.185144,53
0.429879,-0.174547,0.186035,52
0.428871,-0.173996,0.186516,49
0.430506,-0.174897,0.188232,58
0.430378,-0.174829,0.189126,59
0.429161,-0.174162,0.189504,63
0.430644,-0.17498,0.191163,64
0.430726,-0.175027,0.19216,66
0.430703,-0.175017,0.193107,62
0.430368,-0.174836,0.193905,70
0.42993,-0.174597,0.194652,69
0.431057,-0.175219,0.196161,73
0.430252,-0.174779,0.19673,73
0.428983,-0.174085,0.197067,75
0.42943,-0.174333,0.198248,72
0.42967,-0.174467,0.19933,67
0.429078,-0.174144,0.199998,60
0.429423,-0.174336,0.201134,66
0.42759,-0.173331,0.201175,67
0.426695,-0.172842,0.201683,66
0.426625,-0.172806,0.202608,85
0.426606,-0.172798,0.203559,69
0.425154,-0.172003,0.203775,73
0.425647,-0.172276,0.204989,68
0.804136,-0.386125,-0.425086,7
0.375785,-0.147509,-0.189886,8
0.434192,-0.180049,-0.220571,8
0.206683,-0.0533062,-0.0984251,6
0.421586,-0.173031,-0.211846,6
0.43666,-0.181431,-0.21893,10
0.427761,-0.176476,-0.213215,7
0.437359,-0.181826,-0.21732,9
0.472249,-0.201266,-0.234701,9
0.430683,-0.178112,-0.211845,9
0.29693,-0.103596,-0.141441,8
0.782052,-0.373875,-0.392902,8
0.393781,-0.15756,-0.18989,8
0.283476,-0.0961048,-0.132652,8
0.47923,-0.205173,-0.231861,9
0.427935,-0.176596,-0.204631,10
0.429964,-0.177729,-0.2047,10
0.421042,-0.17276,-0.199236,8
0.424519,-0.1747,-0.20004,10
0.420459,-0.17244,-0.197063,12
0.430241,-0.177893,-0.20099,8
0.423023,-0.173873,-0.196457,10
0.6165,-0.281681,-0.291074,8
0.42339,-0.174083,-0.194753,11
0.974868,-0.481374,-0.464133,9
0.427629,-0.17645,-0.19493,10
0.418693,-0.171473,-0.189663,10
0.419392,-0.171865,-0.189071,13
0.420687,-0.172589,-0.188763,11
0.422741,-0.173736,-0.18881,10
0.414562,-0.169181,-0.184002,11
0.423012,-0.173892,-0.187069,8
0.412346,-0.16795,-0.181135,9
0.41755,-0.170853,-0.182655,17
0.427196,-0.176231,-0.186214,12
0.418357,-0.171307,-0.18119,18
0.304494,-0.107855,-0.12815,11
0.416197,-0.170108,-0.178366,9
0.413812,-0.168781,-0.176368,13
0.417146,-0.170642,-0.176971,15
0.416001,-0.170006,-0.175542,9
0.416886,-0.170502,-0.175029,10
0.424503,-0.174749,-0.177512,10
0.416144,-0.170093,-0.172879,12
0.419368,-0.171892,-0.173393,10
0.419286,-0.171849,-0.172443,13
0.413753,-0.168768,-0.169117,11
0.417468,-0.17084,-0.169829,12
0.41623,-0.170152,-0.168387,13
0.417989,-0.171135,-0.168238,15
0.421832,-0.17328,-0.168972,14
0.419977,-0.172248,-0.167269,19
0.418287,-0.171308,-0.165645,14
0.423227,-0.174064,-0.166815,16
0.419935,-0.172232,-0.164524,17
0.419954,-0.172245,-0.163624,19
0.421103,-0.172888,-0.163192,17
0.421172,-0.172928,-0.162312,20
0.420996,-0.172832,-0.161331,19
0.420869,-0.172764,-0.160373,22
0.42232,-0.173575,-0.160053,21
0.422886,-0.173893,-0.159372,21
0.422858,-0.17388,-0.158452,21
0.421495,-0.173122,-0.157003,20
0.423696,-0.174352,-0.156967,22
0.424667,-0.174895,-0.15644,23
0.422056,-0.173442,-0.154511,23
0.429163,-0.177406,-0.156365,25
0.423986,-0.174523,-0.153449,27
0.426466,-0.175907,-0.153494,26
0.426439,-0.175895,-0.152573,30
0.426665,-0.176023,-0.151748,29
0.42674,-0.176067,-0.150866,31
0.42376,-0.174409,-0.14884,30
0.425633,-0.175455,-0.148635,30
0.426563,-0.175976,-0.148074,34
0.427295,-0.176386,-0.147436,34
0.428081,-0.176827,-0.146815,35
0.426642,-0.176027,-0.145383,28
0.428948,-0.177315,-0.14531,36
0.428975,-0.177332,-0.14441,32
0.427582,-0.176558,-0.143005,27
0.430205,-0.178023,-0.143029,32
0.428551,-0.177103,-0.141537,28
0.430468,-0.178174,-0.141301,28
0.43019,-0.178021,-0.140295,26
0.429402,-0.177585,-0.139115,32
0.431121,-0.178545,-0.138798,33
0.430485,-0.178193,-0.137672,38
0.433351,-0.179794,-0.137736,32
0.43458,-0.180481,-0.137237,37
0.431143,-0.178567,-0.135174,32
0.43298,-0.179593,-0.134877,45
0.433998,-0.180164,-0.134303,40
0.432786,-0.17949,-0.132995,41
0.434795,-0.180612,-0.13274,36
0.435142,-0.180809,-0.13194,37
0.436015,-0.181298,-0.131308,34
0.43448,-0.180444,-0.129906,36
0.43793,-0.182371,-0.130088,38
0.433979,-0.180169,-0.127931,38
0.435684,-0.181123,-0.127556,40
0.437932,-0.182379,-0.127342,37
0.43644,-0.181549,-0.125969,37
0.437584,-0.182189,-0.125408,38
0.43778,-0.182301,-0.124555,39
0.438401,-0.18265,-0.12383,41
0.437224,-0.181996,-0.122566,44
0.438162,-0.182521,-0.121934,43
0.437356,-0.182074,-0.120787,44
0.438878,-0.182925,-0.120322,46
0.439132,-0.183069,-0.119484,49
0.437479,-0.18215,-0.118098,52
0.437944,-0.182411,-0.117324,46
0.437828,-0.182349,-0.116384,49
0.438029,-0.182463,-0.115534,48
0.439291,-0.18317,-0.114979,53
0.438275,-0.182605,-0.113789,50
0.437897,-0.182397,-0.11278,55
0.438629,-0.182808,-0.112075,53
0.437724,-0.182305,-0.110926,58
0.438351,-0.182657,-0.11019,59
0.437028,-0.181922,-0.108936,56
0.437601,-0.182243,-0.108186,57
0.438546,-0.182772,-0.107532,59
0.437592,-0.182243,-0.106383,61
0.437115,-0.181979,-0.105361,62
0.439115,-0.183097,-0.104971,61
0.437635,-0.182274,-0.103696,68
0.437738,-0.182334,-0.102824,62
0.438791,-0.182923,-0.102187,62
0.438262,-0.18263,-0.101157,66
0.437577,-0.182251,-0.100093,69
0.436843,-0.181844,-0.0990201,70
0.437578,-0.182256,-0.0983018,70
0.437631,-0.182288,-0.0974196,66
0.438106,-0.182555,-0.0966365,70
0.43753,-0.182236,-0.0956078,69
0.438164,-0.182592,-0.0948603,75
0.439328,-0.183244,-0.0942317,64
0.439861,-0.183544,-0.093456,69
0.43744,-0.182195,-0.0920177,66
0.438286,-0.182669,-0.0913139,71
0.438554,-0.182822,-0.0904804,70
0.439829,-0.183535,-0.0898646,75
0.438094,-0.182569,-0.0885968,71
0.439155,-0.183163,-0.087932,68
0.439057,-0.183111,-0.087019,71
0.438802,-0.182971,-0.086074,75
0.436557,-0.181721,-0.0847204,75
0.437507,-0.182253,-0.0840289,80
0.437361,-0.182174,-0.0831122,78
0.437948,-0.182504,-0.0823433,74
0.437226,-0.182103,-0.0813136,73
0.438024,-0.182551,-0.0805843,80
0.437827,-0.182443,-0.0796599,87
0.437997,-0.18254,-0.0788069,88
0.437592,-0.182317,-0.0778449,82
0.437816,-0.182444,-0.0770025,85
0.43888,-0.18304,-0.0763149,83
0.438843,-0.183022,-0.0754219,90
0.438492,-0.182828,-0.0744728,78
0.437931,-0.182518,-0.0734885,80
0.438788,-0.182998,-0.0727564,77
0.438334,-0.182747,-0.071793,80
0.437515,-0.182292,-0.0707694,83
0.437848,-0.18248,-0.069945,83
0.43792,-0.182522,-0.0690759,85
0.437731,-0.182419,-0.0681637,86
0.437439,-0.182258,-0.0672358,87
0.436679,-0.181837,-0.0662344,89
0.437222,-0.182142,-0.0654433,92
0.43688,-0.181953,-0.0645118,92
0.43654,-0.181766,-0.0635822,90
0.436408,-0.181695,-0.0626863,94
0.437108,-0.182088,-0.0619162,103
0.435836,-0.18138,-0.0608515,100
0.435603,-0.181252,-0.0599441,97
0.435268,-0.181068,-0.0590235,96
0.435554,-0.181229,-0.0581923,95
0.435065,-0.180959,-0.0572524,90
0.434631,-0.180718,-0.0563223,87
0.435638,-0.181283,-0.0555893,95
0.434535,-0.180669,-0.0545714,90
0.435079,-0.180976,-0.0537742,92
0.434801,-0.180823,-0.0528691,94
0.435347,-0.18113,-0.0520698,107
0.434351,-0.180576,-0.0510765,103
0.435412,-0.18117,-0.0503394,110
0.435548,-0.181248,-0.0494869,105
0.434091,-0.180437,-0.048446,106
0.434125,-0.180459,-0.0475844,96
0.434365,-0.180595,-0.0467463,104
0.434555,-0.180703,-0.0459018,102
0.434078,-0.180439,-0.0449839,111
0.434115,-0.180462,-0.0441233,112
0.434203,-0.180514,-0.0432683,119
0.434395,-0.180623,-0.0424237,122
0.433819,-0.180304,-0.0415011,118
0.433859,-0.180328,-0.0406419,117
0.433643,-0.18021,-0.0397581,120
0.433377,-0.180064,-0.0388707,114
0.433929,-0.180374,-0.0380603,120
0.433766,-0.180285,-0.0371831,114
0.434422,-0.180653,-0.0363791,117
0.434311,-0.180594,-0.0355065,119
0.434457,-0.180678,-0.034656,122
0.434552,-0.180733,-0.033801,121
0.433779,-0.180303,-0.0328766,116
0.434182,-0.18053,-0.0320468,111
0.434228,-0.180558,-0.0311886,123
0.433559,-0.180187,-0.030278,121
0.433964,-0.180415,-0.0294467,120
0.434216,-0.180558,-0.0286034,124
0.434725,-0.180845,-0.0277764,127
0.435031,-0.181018,-0.0269341,126
0.434466,-0.180705,-0.0260361,129
0.434772,-0.180878,-0.0251934,132
0.434721,-0.180852,-0.0243286,132
0.435286,-0.181169,-0.0234989,125
0.435853,-0.181488,-0.0226671,130
0.435186,-0.181118,-0.0217686,129
0.435651,-0.18138,-0.0209297,133
0.436532,-0.181874,-0.0201087,134
0.436019,-0.18159,-0.0192205,142
0.436333,-0.181767,-0.0183705,138
0.435925,-0.181541,-0.0174894,142
0.436809,-0.182037,-0.0166609,140
0.436608,-0.181927,-0.0157884,150
0.436718,-0.181991,-0.0149277,147
0.437348,-0.182345,-0.0140838,147
0.43746,-0.18241,-0.0132213,146
0.437416,-0.182388,-0.0123539,136
0.437842,-0.182628,-0.0114992,132
0.43806,-0.182752,-0.0106377,135
0.438488,-0.182993,-0.00977999,137
0.438291,-0.182885,-0.00890787,140
0.43773,-0.182574,-0.00803005,142
0.438055,-0.182758,-0.00716879,148
0.438016,-0.182738,-0.00630114,149
0.437666,-0.182545,-0.00543003,147
0.438253,-0.182875,-0.00456943,141
0.439209,-0.183412,-0.00370911,135
0.439121,-0.183364,-0.00283913,133
0.439872,-0.183786,-0.00197226,136
0.440521,-0.184151,-0.00110209,130
0.43996,-0.18384,-0.000230361,124
0.438877,-0.183237,0.000637372,123
0.439106,-0.183367,0.0015074,122
0.440071,-0.183909,0.00238385,109
0.439042,-0.183336,0.0032455,114
0.439693,-0.183702,0.00412231,112
0.440135,-0.183951,0.00499907,113
0.44,-0.183878,0.00586859,115
0.440814,-0.184335,0.00675465,122
0.439942,-0.18385,0.00761033,119
0.440072,-0.183925,0.00848462,121
0.439257,-0.183472,0.00933653,116
0.439651,-0.183694,0.010217,120
0.439625,-0.183682,0.0110873,123
0.439705,-0.183729,0.0119607,120
0.438528,-0.183074,0.0127934,123
0.438504,-0.183062,0.0136614,127
0.437231,-0.182354,0.0144831,126
0.436328,-0.181852,0.015314,127
0.435894,-0.181611,0.0161605,122
0.435152,-0.181199,0.0169919,120
0.434926,-0.181075,0.0178438,122
0.434394,-0.18078,0.0186803,126
0.433915,-0.180515,0.0195172,130
0.433948,-0.180535,0.0203789,127
0.433471,-0.180271,0.0212132,116
0.43264,-0.179809,0.0220258,124
0.432116,-0.179519,0.0228529,125
0.431595,-0.17923,0.023678,125
0.431075,-0.178942,0.0245012,127
0.430809,-0.178795,0.0253387,130
0.430193,-0.178453,0.0261519,134
0.429678,-0.178168,0.0269696,136
0.429416,-0.178023,0.0278032,138
0.429354,-0.177991,0.0286506,140
0.429892,-0.178294,0.0295431,138
0.429231,-0.177927,0.0303451,137
0.428573,-0.177562,0.0311448,129
0.428912,-0.177753,0.0320233,127
0.427958,-0.177222,0.032795,132
0.427404,-0.176915,0.0335974,126
0.426952,-0.176664,0.0344064,130
0.425861,-0.176057,0.0351562,132
0.425756,-0.176001,0.0359926,127
0.424917,-0.175534,0.0367594,128
0.424374,-0.175233,0.0375515,121
0.424906,-0.175532,0.0384476,121
0.424413,-0.175259,0.0392428,114
0.424409,-0.175259,0.0400865,112
0.423287,-0.174634,0.0408129,115
0.42411,-0.175097,0.0417435,118
0.42484,-0.175507,0.0426675,117
0.42435,-0.175235,0.0434589,115
0.423862,-0.174964,0.0442487,120
0.424446,-0.175293,0.0451608,116
0.424886,-0.175541,0.0460587,119
0.424446,-0.175298,0.0468532,122
0.425476,-0.175875,0.0478255,115
0.424401,-0.175276,0.0485409,114
0.425186,-0.175717,0.0494872,117
0.425679,-0.175995,0.0503998,116
0.425437,-0.175862,0.0512185,116
0.424071,-0.175101,0.0518871,120
0.425544,-0.175926,0.0529336,115
0.426337,-0.176372,0.0538935,112
0.425801,-0.176074,0.0546718,111
0.426301,-0.176356,0.0555947,114
0.426258,-0.176334,0.0564422,114
0.426414,-0.176423,0.0573188,114
0.426225,-0.17632,0.0581453,117
0.426135,-0.176272,0.0589863,118
0.427282,-0.176915,0.0600157,112
0.426154,-0.176287,0.0606989,113
0.426264,-0.17635,0.0615714,118
0.426275,-0.176359,0.0624291,120
0.426632,-0.176561,0.063343,119
0.426546,-0.176515,0.0641864,115
0.426806,-0.176662,0.0650871,120
0.426522,-0.176506,0.0658983,117
0.427081,-0.176821,0.0668515,122
0.427245,-0.176914,0.0677396,116
0.42731,-0.176953,0.0686116,111
0.428622,-0.177689,0.0697039,111
0.428739,-0.177756,0.0705893,117
0.428306,-0.177517,0.0713764,114
0.428574,-0.177668,0.07229,113
0.427843,-0.177262,0.0730207,114
0.429263,-0.178058,0.0741506,108
0.431913,-0.179542,0.0755195,114
0.429354,-0.178113,0.0759043,108
0.431142,-0.179115,0.0771193,116
0.429799,-0.178366,0.07773,114
0.430174,-0.178579,0.0786751,117
0.430703,-0.178876,0.079653,128
0.429867,-0.178411,0.0803579,126
0.431309,-0.179219,0.0815248,127
0.43037,-0.178697,0.0822071,133
0.431206,-0.179167,0.0832561,134
0.432712,-0.180011,0.0844502,138
0.432585,-0.179942,0.0853038,138
0.431846,-0.179531,0.0860255,136
0.431721,-0.179463,0.086878,135
0.431902,-0.179567,0.0877977,143
0.432033,-0.179643,0.0887075,145
0.432114,-0.17969,0.0896071,143
0.431786,-0.179509,0.0904153,141
0.432277,-0.179786,0.0914093,138
0.43195,-0.179606,0.0922177,136
0.432033,-0.179654,0.0931204,135
0.432219,-0.17976,0.0940482,134
0.433279,-0.180355,0.0951844,130
0.433364,-0.180405,0.0960928,137
0.432833,-0.18011,0.0968532,132
0.432919,-0.180161,0.0977622,125
0.432543,-0.179953,0.0985587,123
0.432579,-0.179975,0.0994561,122
0.432513,-0.179941,0.100329,116
0.433322,-0.180395,0.101422,118
0.433205,-0.180332,0.102284,118
0.433243,-0.180356,0.103187,126
0.432818,-0.180121,0.103969,119
0.432292,-0.179829,0.104725,121
0.432332,-0.179853,0.105627,132
0.432423,-0.179907,0.106544,125
0.432207,-0.179788,0.107379,128
0.431479,-0.179383,0.108076,130
0.431112,-0.17918,0.108869,127
0.430898,-0.179063,0.109703,138
0.431093,-0.179175,0.110649,142
0.430625,-0.178915,0.111412,141
0.430414,-0.178799,0.112246,133
0.429238,-0.178144,0.112806,137
0.42918,-0.178114,0.11368,134
0.429325,-0.178197,0.114614,137
0.427652,-0.177264,0.115022,131
0.4281,-0.177517,0.116042,129
0.427892,-0.177403,0.116872,122
0.426732,-0.176756,0.117419,123
0.426477,-0.176616,0.118233,116
0.425076,-0.175835,0.1187,116
0.424724,-0.17564,0.119481,119
0.424869,-0.175724,0.120412,125
0.423727,-0.175087,0.120948,119
0.423575,-0.175005,0.121787,115
0.423326,-0.174868,0.122596,115
0.421458,-0.173825,0.122895,121
0.421847,-0.174045,0.123901,116
0.421161,-0.173663,0.124567,114
0.422236,-0.174267,0.125796,107
0.420281,-0.173176,0.12605,112
0.420572,-0.173341,0.127028,108
0.420231,-0.173153,0.1278,109
0.419552,-0.172775,0.12846,113
0.419213,-0.172588,0.129231,113
0.419262,-0.172617,0.130131,112
0.41936,-0.172674,0.131048,105
0.419798,-0.172922,0.132081,104
0.419363,-0.172681,0.132819,109
0.421266,-0.173748,0.13436,105
0.419417,-0.172715,0.134611,107
0.419517,-0.172774,0.135534,103
0.418939,-0.172453,0.13622,98
0.418604,-0.172268,0.136991,86
0.41885,-0.172408,0.137966,90
0.41968,-0.172874,0.139152,86
0.419151,-0.17258,0.139854,87
0.421354,-0.173815,0.141542,85
0.418774,-0.172374,0.141501,91
0.418829,-0.172407,0.142413,95
0.419127,-0.172576,0.143416,95
0.418649,-0.172311,0.144133,91
0.419044,-0.172535,0.145175,88
0.419052,-0.172541,0.146074,86
0.419694,-0.172903,0.147213,93
0.419215,-0.172637,0.14793,91
0.420544,-0.173383,0.149336,83
0.419185,-0.172625,0.149716,82
0.420417,-0.173317,0.151093,80
0.420134,-0.173161,0.151886,79
0.421078,-0.173691,0.153159,84
0.419716,-0.172931,0.15353,86
0.421053,-0.173682,0.154963,82
0.420229,-0.173223,0.155544,86
0.420832,-0.173563,0.156692,90
0.420402,-0.173325,0.157428,83
0.422243,-0.174357,0.159083,81
0.422357,-0.174423,0.160044,78
0.422521,-0.174517,0.161026,84
0.42194,-0.174195,0.161703,88
0.422253,-0.174372,0.162749,90
0.422269,-0.174384,0.163673,94
0.423633,-0.175149,0.165163,88
0.42325,-0.174937,0.165924,89
0.423418,-0.175033,0.166917,95
0.424188,-0.175467,0.168168,94
0.424508,-0.175648,0.169232,93
0.424578,-0.17569,0.170189,85
0.425001,-0.175929,0.171301,85
0.425984,-0.176481,0.17266,82
0.425447,-0.176183,0.173358,82
0.427147,-0.177137,0.17504,76
0.426608,-0.176838,0.175739,79
0.427397,-0.177282,0.177028,76
0.427522,-0.177354,0.178024,75
0.427239,-0.177198,0.178838,68
0.428857,-0.178106,0.180511,70
0.426928,-0.177029,0.180582,71
0.427106,-0.177131,0.181606,62
0.429295,-0.178359,0.183555,57
0.429892,-0.178695,0.18478,57
0.430596,-0.179092,0.186059,55
0.430937,-0.179285,0.187173,53
0.429143,-0.178283,0.18729,48
0.429638,-0.178563,0.188476,53
0.427855,-0.177567,0.188588,56
0.428657,-0.178019,0.189922,61
0.428582,-0.17798,0.190841,60
0.429026,-0.17823,0.19201,65
0.430305,-0.178949,0.193585,64
0.42945,-0.178472,0.194132,68
0.429324,-0.178405,0.195031,74
0.428939,-0.178191,0.195804,73
0.428762,-0.178095,0.196679,68
0.428586,-0.177999,0.197553,68
0.42945,-0.178485,0.198945,68
0.42865,-0.178039,0.199511,71
0.427594,-0.177451,0.199946,69
0.427213,-0.17724,0.200717,64
0.427142,-0.177203,0.201644,64
0.42702,-0.177137,0.202546,64
0.426692,-0.176956,0.203343,85
0.425236,-0.176144,0.203559,63
0.425115,-0.176078,0.204459,69
0.424026,-0.175471,0.204857,69
0.415215,-0.173491,-0.212937,8
0.321379,-0.120249,-0.160994,7
0.42278,-0.177788,-0.215151,8
0.418023,-0.175091,-0.211618,7
1.39237,-0.727958,-0.737843,7
0.419318,-0.175831,-0.210412,10
0.413249,-0.17239,-0.206226,12
0.452462,-0.194643,-0.226107,7
0.42183,-0.177264,-0.208887,13
0.338831,-0.130168,-0.16439,9
0.41628,-0.174119,-0.204074,7
0.430793,-0.182358,-0.210697,8
0.42844,-0.181025,-0.208503,9
0.419847,-0.176151,-0.2031,12
0.414022,-0.172848,-0.199162,11
0.347374,-0.135028,-0.164223,10
0.421813,-0.177274,-0.201267,12
0.428454,-0.181045,-0.203685,9
0.419927,-0.176209,-0.198423,9
0.426912,-0.180175,-0.200988,12
0.416837,-0.17446,-0.194999,14
0.418564,-0.175442,-0.194926,8
0.419016,-0.175701,-0.194215,10
0.427501,-0.180519,-0.197457,13
0.420371,-0.176475,-0.193009,12
0.418156,-0.175221,-0.190993,9
0.417676,-0.17495,-0.189829,11
0.421444,-0.177091,-0.19072,13
0.41672,-0.174413,-0.187514,8
0.410691,-0.170993,-0.183708,11
0.422072,-0.177456,-0.188213,8
0.417632,-0.174938,-0.185175,14
0.415892,-0.173952,-0.183432,13
0.413307,-0.172488,-0.181302,11
0.416402,-0.174247,-0.181832,12
0.415254,-0.173598,-0.180381,10
0.413875,-0.172817,-0.178829,12
0.424816,-0.17903,-0.182943,12
0.417965,-0.175144,-0.178877,14
0.419303,-0.175905,-0.178566,10
0.411227,-0.171323,-0.173993,11
0.595716,-0.276052,-0.256304,9
0.416564,-0.174358,-0.174579,13
0.416871,-0.174534,-0.173803,12
0.42041,-0.176546,-0.174458,10
0.423011,-0.178024,-0.174684,12
0.416774,-0.174486,-0.171026,14
0.417081,-0.174663,-0.17025,15
0.419686,-0.176144,-0.17047,10
0.417456,-0.17488,-0.168593,13
0.419917,-0.17628,-0.16874,15
0.420673,-0.176712,-0.168149,18
0.416928,-0.174588,-0.165645,14
0.418941,-0.175733,-0.165589,14
0.418862,-0.175691,-0.164647,19
0.417858,-0.175123,-0.16332,18
0.418559,-0.175523,-0.162705,18
0.422617,-0.17783,-0.163474,19
0.419821,-0.176245,-0.161412,26
0.424706,-0.17902,-0.162498,20
0.420304,-0.176523,-0.159794,21
0.423494,-0.178337,-0.160174,21
0.42242,-0.177729,-0.158829,26
0.422789,-0.177941,-0.158066,17
0.422661,-0.177871,-0.157105,20
0.423081,-0.178112,-0.156361,23
0.425859,-0.179691,-0.156541,31
0.424273,-0.178794,-0.155008,26
0.426055,-0.179808,-0.154787,26
0.42377,-0.178513,-0.152993,22
0.423844,-0.178557,-0.152113,26
0.42547,-0.179483,-0.151824,31
0.425595,-0.179556,-0.150961,34
0.425017,-0.17923,-0.149833,38
0.426956,-0.180334,-0.14965,40
0.426173,-0.179891,-0.148447,41
0.42721,-0.180482,-0.147921,46
0.427236,-0.180499,-0.147019,44
0.426554,-0.180115,-0.14586,33
0.428202,-0.181053,-0.14555,37
0.4293,-0.181679,-0.145034,34
0.428308,-0.181118,-0.143766,31
0.429407,-0.181744,-0.143247,30
0.430666,-0.182462,-0.14278,31
0.431364,-0.182861,-0.142112,30
0.430415,-0.182324,-0.140866,27
0.433081,-0.18384,-0.140878,30
0.430525,-0.182391,-0.139081,30
0.431482,-0.182937,-0.138497,33
0.430227,-0.182227,-0.137158,32
0.431235,-0.182801,-0.13659,35
0.434119,-0.184442,-0.136647,35
0.433057,-0.183841,-0.135377,36
0.433817,-0.184275,-0.134716,34
0.434424,-0.184622,-0.134001,33
0.434771,-0.184822,-0.1332,40
0.435539,-0.18526,-0.132534,38
0.433742,-0.184242,-0.131039,36
0.436081,-0.185573,-0.130876,36
0.4358,-0.185416,-0.129871,36
0.435888,-0.185468,-0.128984,34
0.440228,-0.187936,-0.129429,34
0.437438,-0.186353,-0.127638,38
0.436787,-0.185986,-0.126521,42
0.435667,-0.185352,-0.125263,33
0.436809,-0.186003,-0.1247,39
0.436637,-0.185907,-0.123735,40
0.436465,-0.185812,-0.122771,39
0.437137,-0.186196,-0.12206,46
0.436439,-0.185802,-0.120942,44
0.436953,-0.186097,-0.120183,45
0.438955,-0.187236,-0.119855,44
0.438305,-0.186869,-0.118753,46
0.437182,-0.186234,-0.11752,52
0.437647,-0.1865,-0.116743,49
0.437584,-0.186467,-0.115816,50
0.437311,-0.186314,-0.114831,48
0.436249,-0.185713,-0.113629,53
0.435979,-0.185562,-0.11265,57
0.436339,-0.185769,-0.111845,57
0.436962,-0.186125,-0.111111,58
0.437905,-0.186663,-0.110459,63
0.439171,-0.187385,-0.109891,58
0.439484,-0.187565,-0.109066,61
0.436518,-0.185883,-0.10738,67
0.438412,-0.186961,-0.106971,63
0.438566,-0.187051,-0.106106,63
0.437822,-0.18663,-0.105012,60
0.438612,-0.187082,-0.10431,63
0.438345,-0.186932,-0.103339,56
0.438555,-0.187054,-0.102489,63
0.438236,-0.186875,-0.101508,65
0.438182,-0.186847,-0.100594,65
0.437654,-0.186549,-0.0995656,69
0.439879,-0.187815,-0.0992008,70
0.438183,-0.186854,-0.0978944,69
0.439349,-0.187519,-0.0972703,65
0.438979,-0.187311,-0.0962832,64
0.436978,-0.186177,-0.0949209,72
0.43798,-0.186748,-0.0942558,68
0.437195,-0.186304,-0.0931813,69
0.44064,-0.188264,-0.0930611,67
0.438099,-0.186822,-0.0915944,69
0.44113,-0.188548,-0.0913672,72
0.438268,-0.186923,-0.0898416,74
0.439756,-0.187772,-0.0892684,71
0.439657,-0.187717,-0.0883498,71
0.43924,-0.187483,-0.087365,67
0.43872,-0.187189,-0.0863606,71
0.439681,-0.187738,-0.0856662,72
0.438263,-0.186935,-0.0844801,78
0.438326,-0.186973,-0.083601,77
0.438811,-0.187251,-0.0828069,80
0.438664,-0.187169,-0.0818856,73
0.438676,-0.187178,-0.0809965,75
0.43853,-0.187098,-0.0800772,78
0.437964,-0.186778,-0.0790784,80
0.43803,-0.186818,-0.0782024,83
0.438202,-0.186918,-0.0773464,88
0.438427,-0.187049,-0.0764999,84
0.439234,-0.187509,-0.0757595,85
0.438143,-0.186892,-0.0746722,81
0.438791,-0.187262,-0.0739014,78
0.438019,-0.186826,-0.072877,78
0.438984,-0.187377,-0.0721597,78
0.439108,-0.18745,-0.0712935,81
0.438864,-0.187313,-0.0703644,83
0.438252,-0.186967,-0.069375,86
0.43759,-0.186593,-0.0683803,87
0.437925,-0.186786,-0.0675522,93
0.437527,-0.186562,-0.0666046,90
0.437236,-0.186399,-0.0656759,83
0.438254,-0.18698,-0.0649549,91
0.437595,-0.186608,-0.0639697,97
0.437724,-0.186683,-0.0631081,100
0.437539,-0.186581,-0.062199,94
0.437303,-0.186449,-0.0612834,95
0.437329,-0.186466,-0.0604076,94
0.436885,-0.186216,-0.0594642,101
0.436652,-0.186085,-0.0585529,96
0.436419,-0.185955,-0.057643,95
0.4365,-0.186003,-0.0567776,93
0.436476,-0.185992,-0.0558982,91
0.43661,-0.186071,-0.05504,93
0.435913,-0.185677,-0.0540724,96
0.436775,-0.186169,-0.0533097,101
0.436234,-0.185864,-0.0523652,98
0.436162,-0.185825,-0.051482,101
0.436039,-0.185757,-0.050593,102
0.436072,-0.185778,-0.0497236,108
0.436729,-0.186154,-0.0489284,107
0.436348,-0.18594,-0.0480098,102
0.435399,-0.185402,-0.0470281,108
0.435538,-0.185484,-0.0461727,110
0.436455,-0.186007,-0.0454027,106
0.434991,-0.185177,-0.0443721,112
0.435235,-0.185318,-0.0435286,118
0.435324,-0.185371,-0.0426683,114
0.434333,-0.18481,-0.0416981,121
0.434578,-0.184951,-0.0408552,116
0.434772,-0.185064,-0.0400066,115
0.434247,-0.184768,-0.039089,112
0.434493,-0.18491,-0.0382455,117
0.434741,-0.185053,-0.0374012,111
0.434834,-0.185109,-0.0365425,122
0.434466,-0.184901,-0.0356436,122
0.434201,-0.184753,-0.0347552,127
0.435223,-0.185336,-0.0339739,126
0.435319,-0.185393,-0.0331143,125
0.43485,-0.185129,-0.0322104,117
0.435721,-0.185626,-0.0314102,121
0.434531,-0.184952,-0.0304547,121
0.435144,-0.185303,-0.0296334,132
0.434626,-0.185011,-0.0287311,130
0.434624,-0.185011,-0.0278659,133
0.43457,-0.184983,-0.0269975,133
0.434877,-0.18516,-0.0261522,126
0.435133,-0.185308,-0.0253026,119
0.435443,-0.185486,-0.0244551,122
0.435753,-0.185665,-0.0236065,123
0.435702,-0.185638,-0.0227371,123
0.435704,-0.185641,-0.0218708,125
0.43643,-0.186057,-0.0210409,125
0.436381,-0.186031,-0.0201708,125
0.436644,-0.186183,-0.0193153,126
0.436234,-0.185952,-0.0184293,137
0.436446,-0.186074,-0.017571,143
0.436711,-0.186227,-0.0167141,141
0.436198,-0.185938,-0.015827,141
0.436205,-0.185944,-0.0149605,149
0.436835,-0.186305,-0.0141147,136
0.436895,-0.186341,-0.0132486,135
0.437893,-0.186911,-0.0124093,135
0.437589,-0.186741,-0.0115311,134
0.437599,-0.186749,-0.010662,140
0.437558,-0.186727,-0.00979167,144
0.437778,-0.186855,-0.0089269,146
0.437894,-0.186923,-0.00805934,142
0.437959,-0.186962,-0.0071905,145
0.43792,-0.186942,-0.00631997,141
0.439139,-0.187638,-0.00546444,144
0.438053,-0.187023,-0.00458149,142
0.438121,-0.187063,-0.00371186,140
0.439132,-0.187641,-0.00284703,136
0.439464,-0.187832,-0.00197569,136
0.438852,-0.187486,-0.00110185,136
0.439079,-0.187618,-0.000229782,129
0.439256,-0.18772,0.000643111,130
0.439065,-0.187614,0.00151484,124
0.439243,-0.187717,0.0023885,114
0.439106,-0.187642,0.00325995,115
0.439706,-0.187985,0.00413945,112
0.440361,-0.18836,0.0050223,115
0.440754,-0.188586,0.00590381,118
0.440566,-0.188481,0.00677655,119
0.439746,-0.188017,0.00763577,117
0.439402,-0.187824,0.0085022,118
0.440112,-0.18823,0.009393,113
0.439033,-0.187618,0.0102393,116
0.439954,-0.188145,0.0111386,118
0.438877,-0.187534,0.0119801,119
0.439483,-0.187881,0.0128727,119
0.437261,-0.186619,0.0136687,119
0.437602,-0.186816,0.0145508,115
0.437059,-0.186509,0.0153995,117
0.435174,-0.185439,0.0161904,127
0.435204,-0.185458,0.0170569,126
0.434824,-0.185244,0.0179049,114
0.434342,-0.184972,0.0187464,120
0.434015,-0.184788,0.0195939,124
0.433741,-0.184634,0.0204427,122
0.433416,-0.184452,0.0212879,123
0.432838,-0.184125,0.0221174,124
0.432414,-0.183887,0.0229537,122
0.431435,-0.183332,0.0237546,125
0.431724,-0.183498,0.0246311,118
0.431506,-0.183377,0.0254762,130
0.430332,-0.18271,0.0262562,132
0.429916,-0.182476,0.0270839,135
0.429653,-0.182329,0.0279209,133
0.42919,-0.182067,0.0287423,136
0.428728,-0.181807,0.0295619,144
0.428318,-0.181576,0.0303838,141
0.428258,-0.181544,0.0312321,137
0.4279,-0.181342,0.0320559,131
0.427742,-0.181255,0.0328952,130
0.42863,-0.181762,0.0338244,129
0.427477,-0.181109,0.0345769,127
0.425544,-0.18001,0.0352539,125
0.425537,-0.180009,0.0361017,128
0.424991,-0.1797,0.0368985,125
0.424985,-0.179699,0.0377456,126
0.425029,-0.179726,0.0385978,128
0.425466,-0.179977,0.0394903,120
0.42507,-0.179754,0.0402987,119
0.424674,-0.179531,0.0411057,115
0.424036,-0.17917,0.041885,125
0.424376,-0.179365,0.0427694,122
0.424276,-0.179311,0.0436063,123
0.424129,-0.179229,0.0444376,123
0.423689,-0.178981,0.0452344,120
0.423153,-0.178679,0.0460183,116
0.424227,-0.179292,0.0469943,109
0.423496,-0.178878,0.0477537,108
0.423888,-0.179103,0.0486504,112
0.42433,-0.179357,0.0495556,119
0.424284,-0.179333,0.0503998,121
0.424532,-0.179477,0.0512828,117
0.425076,-0.179788,0.0522067,119
0.424492,-0.179458,0.0529801,114
0.424497,-0.179463,0.0538326,117
0.427367,-0.181099,0.0550865,121
0.425493,-0.180034,0.0556786,116
0.425993,-0.180321,0.0566058,122
0.424819,-0.179655,0.05729,114
0.425368,-0.17997,0.0582258,110
0.425426,-0.180005,0.0590902,108
0.425436,-0.180013,0.0599477,112
0.425002,-0.179769,0.060737,108
0.425407,-0.180001,0.0616565,114
0.426208,-0.180459,0.0626415,116
0.425775,-0.180215,0.0634307,124
0.425886,-0.180281,0.0643076,126
0.425751,-0.180206,0.0651445,126
0.426012,-0.180356,0.0660477,122
0.426919,-0.180875,0.0670625,120
0.427033,-0.180942,0.0679449,120
0.426204,-0.180473,0.0686635,122
0.426915,-0.18088,0.0696511,116
0.428079,-0.181545,0.0707234,114
0.428748,-0.181928,0.0717114,114
0.428666,-0.181883,0.072565,108
0.428735,-0.181925,0.0734468,108
0.427602,-0.181282,0.0741037,109
0.429126,-0.182152,0.0752605,106
0.428342,-0.181708,0.0759813,110
0.428916,-0.182037,0.0769626,109
0.430402,-0.182885,0.0781262,110
0.430171,-0.182756,0.0789557,113
0.42863,-0.181881,0.0795216,119
0.429813,-0.182557,0.0806341,119
0.430394,-0.18289,0.0816287,121
0.430115,-0.182733,0.082448,122
0.429533,-0.182404,0.0832031,127
0.429761,-0.182536,0.0841276,133
0.43004,-0.182697,0.0850647,136
0.43022,-0.182802,0.0859817,133
0.431265,-0.183399,0.087089,141
0.430784,-0.183127,0.0878649,140
0.430711,-0.183088,0.0887301,139
0.431148,-0.183339,0.0897102,139
0.43128,-0.183417,0.0906235,141
0.430801,-0.183146,0.0913977,141
0.430832,-0.183166,0.0922884,141
0.431016,-0.183274,0.0932157,136
0.431764,-0.183702,0.0942771,132
0.431593,-0.183607,0.0951235,127
0.431934,-0.183803,0.0960928,127
0.432482,-0.184117,0.0971143,128
0.432723,-0.184257,0.0980636,128
0.431168,-0.183374,0.0985713,124
0.431562,-0.1836,0.0995581,121
0.431598,-0.183623,0.100457,115
0.431994,-0.183851,0.101448,118
0.432289,-0.184021,0.102416,119
0.43207,-0.183899,0.103253,121
0.432315,-0.184041,0.10421,120
0.431891,-0.183802,0.104993,122
0.431931,-0.183827,0.105898,124
0.432126,-0.18394,0.106845,126
0.431089,-0.183352,0.107462,126
0.431386,-0.183523,0.108437,134
0.430915,-0.183258,0.109204,140
0.430548,-0.183051,0.109997,153
0.430029,-0.182758,0.110748,153
0.429817,-0.182639,0.111583,148
0.430013,-0.182753,0.112533,141
0.429547,-0.18249,0.113296,137
0.429032,-0.182199,0.114043,139
0.428772,-0.182054,0.114862,139
0.427755,-0.181476,0.115461,130
0.427295,-0.181217,0.116219,132
0.426486,-0.180758,0.116872,130
0.42543,-0.180159,0.117449,126
0.426426,-0.180729,0.118638,116
0.424773,-0.17979,0.11903,116
0.423628,-0.17914,0.119571,119
0.422933,-0.178746,0.120245,125
0.423572,-0.179112,0.121329,124
0.422778,-0.178663,0.121971,116
0.422875,-0.17872,0.122889,114
0.42179,-0.178104,0.123435,113
0.421494,-0.177938,0.124228,106
0.420514,-0.177382,0.124801,111
0.420074,-0.177134,0.125544,106
0.419733,-0.176941,0.126318,114
0.418327,-0.176143,0.126743,114
0.41823,-0.17609,0.127593,115
0.418713,-0.176367,0.128636,111
0.417989,-0.175957,0.129279,113
0.417941,-0.175932,0.130147,112
0.418232,-0.1761,0.131129,111
0.418427,-0.176214,0.132081,110
0.418284,-0.176134,0.132919,112
0.418335,-0.176166,0.133823,109
0.418774,-0.176418,0.134864,112
0.417279,-0.175569,0.135231,104
0.416753,-0.175272,0.135933,103
0.417865,-0.175907,0.137213,95
0.418208,-0.176105,0.138225,96
0.418261,-0.176137,0.139135,91
0.417879,-0.175922,0.139889,91
0.41745,-0.17568,0.140625,90
0.417601,-0.175768,0.141572,95
0.417897,-0.175939,0.142573,82
0.418486,-0.176277,0.143685,86
0.418785,-0.17645,0.144693,91
0.417193,-0.175545,0.144994,96
0.418509,-0.176297,0.146385,94
0.418372,-0.176221,0.147231,89
0.41838,-0.176229,0.148134,85
0.418487,-0.176292,0.149075,85
0.418886,-0.176522,0.15013,82
0.419875,-0.177087,0.151416,86
0.419787,-0.17704,0.152287,86
0.421523,-0.178031,0.153876,86
0.419712,-0.177002,0.154071,82
0.418502,-0.176315,0.154497,89
0.419737,-0.177021,0.155896,84
0.419848,-0.177086,0.15685,82
0.421588,-0.17808,0.158465,76
0.421851,-0.178232,0.159486,82
0.421717,-0.178158,0.160348,77
0.421831,-0.178226,0.161312,83
0.422045,-0.17835,0.162319,89
0.423109,-0.178959,0.163681,91
0.42173,-0.178175,0.164026,90
0.422693,-0.178727,0.165352,94
0.423061,-0.178938,0.166431,90
0.422828,-0.178809,0.167257,83
0.424001,-0.179479,0.168684,83
0.424171,-0.179579,0.169686,91
0.423888,-0.17942,0.170494,87
0.42416,-0.179577,0.171542,85
0.424382,-0.179706,0.172571,81
0.42567,-0.180443,0.174071,80
0.425539,-0.180371,0.17495,72
0.426122,-0.180705,0.176146,71
0.427578,-0.181537,0.177737,69
0.427037,-0.181231,0.178438,76
0.426038,-0.180664,0.178931,74
0.426368,-0.180855,0.180023,69
0.427366,-0.181427,0.181422,67
0.4256,-0.180422,0.181559,68
0.427932,-0.181754,0.183578,62
0.427135,-0.181302,0.184159,58
0.430218,-0.183062,0.186544,58
0.427909,-0.181748,0.186421,53
0.427988,-0.181796,0.187411,51
0.427551,-0.181549,0.188159,55
