ply
format ascii 1.0
comment Created by CloudCompare v2.11 alpha (Anoia)
comment Created 2025/12/9 18:26
obj_info Generated by CloudCompare!
element vertex 1485
property float x
property float y
property float z
property float scalar_Scalar_field
end_header
0.388597 -0.322032 0.145784 93 
0.391878 -0.321293 0.146433 99 
0.394252 -0.320759 0.14718 105 
0.397165 -0.320103 0.147886 99 
0.40146 -0.319135 0.148477 96 
0.404383 -0.318477 0.149207 94 
0.405579 -0.318209 0.150097 83 
0.409943 -0.317225 0.150723 68 
0.423203 -0.314231 0.150626 61 
0.45894 -0.306159 0.148757 70 
0.468447 -0.304013 0.149101 77 
0.465274 -0.304733 0.150462 77 
0.463548 -0.305125 0.151701 81 
0.464662 -0.304876 0.152724 80 
0.464263 -0.304969 0.15386 89 
0.463773 -0.305082 0.155001 84 
0.464607 -0.304896 0.156049 92 
0.464119 -0.305009 0.157188 88 
0.461753 -0.305546 0.158445 85 
0.461272 -0.305657 0.159575 92 
0.461075 -0.305705 0.160687 92 
0.46144 -0.305625 0.161765 88 
0.459752 -0.306008 0.162959 91 
0.459281 -0.306117 0.164081 87 
0.458812 -0.306226 0.165201 89 
0.458346 -0.306334 0.166318 91 
0.456406 -0.306774 0.167506 88 
0.456222 -0.306818 0.168603 89 
0.455123 -0.307069 0.169741 87 
0.454211 -0.307278 0.170867 95 
0.45522 -0.307052 0.17191 98 
0.453128 -0.307527 0.173078 101 
0.453225 -0.307508 0.174157 101 
0.453779 -0.307385 0.17522 95 
0.452697 -0.307632 0.176339 103 
0.451531 -0.307898 0.177457 96 
0.451002 -0.30802 0.178551 93 
0.449666 -0.308324 0.179666 91 
0.452295 -0.307733 0.180673 88 
0.447818 -0.308746 0.18186 89 
0.447124 -0.308906 0.182946 94 
0.448479 -0.308602 0.183989 93 
0.446895 -0.308962 0.185091 92 
0.446207 -0.30912 0.186171 92 
0.445256 -0.309337 0.187253 99 
0.445368 -0.309314 0.188318 98 
0.443808 -0.309669 0.189401 99 
0.44322 -0.309804 0.190469 99 
0.442547 -0.309959 0.191536 94 
0.443364 -0.309777 0.192593 90 
0.440254 -0.310481 0.193664 95 
0.439419 -0.310672 0.194722 94 
0.440578 -0.310413 0.195778 93 
0.43914 -0.31074 0.196831 96 
0.436681 -0.311298 0.197874 95 
0.43809 -0.310982 0.198933 89 
0.436668 -0.311305 0.199974 90 
0.435767 -0.311511 0.201014 88 
0.435721 -0.311524 0.202062 89 
0.434315 -0.311844 0.20309 94 
0.433679 -0.31199 0.204125 99 
0.434315 -0.311849 0.205181 94 
0.433089 -0.312128 0.206202 93 
0.433219 -0.312101 0.207248 91 
0.432 -0.312378 0.208263 91 
0.428952 -0.313069 0.209226 88 
0.428169 -0.313248 0.21024 88 
0.431306 -0.312542 0.211367 86 
0.42802 -0.313286 0.212305 92 
0.427823 -0.313333 0.213332 95 
0.427214 -0.313473 0.214345 92 
0.426937 -0.313538 0.215367 94 
0.426332 -0.313677 0.216376 96 
0.424499 -0.314093 0.217333 94 
0.424065 -0.314193 0.218342 90 
0.42527 -0.313924 0.219424 87 
0.422389 -0.314576 0.220319 92 
0.422774 -0.314492 0.221362 94 
0.419922 -0.315138 0.222244 95 
0.420548 -0.314999 0.223297 91 
0.420046 -0.315114 0.224291 91 
0.421402 -0.314811 0.225388 87 
0.41913 -0.315326 0.22628 89 
0.41648 -0.315926 0.22714 88 
0.417822 -0.315626 0.228237 91 
0.41582 -0.316079 0.229127 95 
0.41486 -0.316298 0.230077 99 
0.415404 -0.316178 0.231126 102 
0.414211 -0.31645 0.232056 103 
0.413731 -0.31656 0.233033 100 
0.415778 -0.316101 0.234194 105 
0.414981 -0.316283 0.235148 106 
0.413008 -0.31673 0.236009 106 
0.411518 -0.317069 0.236901 112 
0.411672 -0.317036 0.237921 113 
0.410425 -0.31732 0.238825 110 
0.408489 -0.317759 0.239666 107 
0.408413 -0.317778 0.240662 109 
0.407107 -0.318075 0.241548 112 
0.407264 -0.318042 0.242562 104 
0.406118 -0.318303 0.243457 107 
0.406812 -0.318149 0.244521 113 
0.4059 -0.318357 0.245434 115 
0.405449 -0.318461 0.246388 116 
0.404543 -0.318667 0.247295 126 
0.403718 -0.318856 0.248208 118 
0.403046 -0.31901 0.249134 116 
0.402302 -0.31918 0.25005 117 
0.401486 -0.319366 0.250955 112 
0.40195 -0.319264 0.251998 104 
0.400987 -0.319483 0.252884 110 
0.400477 -0.3196 0.253818 103 
0.401318 -0.319413 0.254906 94 
0.399762 -0.319766 0.255717 95 
0.402031 -0.319257 0.256978 93 
0.401297 -0.319425 0.257884 87 
0.399146 -0.319912 0.258613 91 
0.399615 -0.319809 0.259662 86 
0.399114 -0.319924 0.26059 83 
0.400933 -0.319516 0.261816 85 
0.399907 -0.319749 0.262677 79 
0.399857 -0.319763 0.263663 79 
0.402137 -0.319251 0.264964 81 
0.399163 -0.319924 0.265556 75 
0.399938 -0.319752 0.266657 75 
0.398548 -0.320067 0.267456 76 
0.3991 -0.319945 0.268528 82 
0.398907 -0.319991 0.269494 80 
0.398789 -0.32002 0.270471 81 
0.399269 -0.319914 0.271537 81 
0.399378 -0.319892 0.272549 83 
0.401439 -0.31943 0.273859 84 
0.400497 -0.319644 0.274714 78 
0.397176 -0.320395 0.275196 79 
0.398925 -0.320003 0.276466 86 
0.397474 -0.320333 0.277231 87 
0.397885 -0.320242 0.278292 82 
0.398297 -0.320152 0.279356 80 
0.399384 -0.319909 0.280534 78 
0.402135 -0.319291 0.281995 83 
0.401197 -0.319505 0.282842 78 
0.399814 -0.319819 0.283609 80 
0.400761 -0.319608 0.284776 85 
0.400733 -0.319617 0.285776 90 
0.399504 -0.319896 0.286563 81 
0.399777 -0.319837 0.287616 90 
0.400277 -0.319726 0.288711 95 
0.401307 -0.319496 0.289905 103 
0.401662 -0.319419 0.290979 107 
0.399906 -0.319817 0.29166 109 
0.400862 -0.319604 0.292848 106 
0.401748 -0.319406 0.294026 106 
0.40135 -0.319498 0.294961 103 
0.400501 -0.319692 0.295807 104 
0.402602 -0.319221 0.29723 105 
0.401902 -0.319381 0.298106 108 
0.402569 -0.319233 0.299253 108 
0.401796 -0.31941 0.300112 109 
0.40254 -0.319244 0.30128 102 
0.402832 -0.319181 0.302357 96 
0.403124 -0.319118 0.303436 92 
0.403189 -0.319105 0.304469 91 
0.403408 -0.319058 0.305536 89 
0.405007 -0.318701 0.3069 86 
0.404845 -0.318739 0.307889 81 
0.405838 -0.318518 0.309131 85 
0.408311 -0.317963 0.310704 81 
0.407142 -0.318229 0.311477 82 
0.406828 -0.318302 0.312438 82 
0.41049 -0.31748 0.314299 77 
0.40861 -0.317906 0.314909 73 
0.409391 -0.317732 0.316125 76 
0.407987 -0.318051 0.316837 74 
0.407521 -0.318158 0.317764 71 
0.408223 -0.318002 0.318966 74 
0.40807 -0.318039 0.319968 73 
0.410737 -0.317441 0.321647 76 
0.410427 -0.317513 0.322617 75 
0.410591 -0.317479 0.323701 78 
0.410048 -0.317604 0.324613 80 
0.410134 -0.317586 0.32568 85 
0.411958 -0.317178 0.327182 82 
0.411731 -0.317232 0.328175 80 
0.411268 -0.317339 0.329108 81 
0.411992 -0.317178 0.330344 86 
0.41074 -0.317462 0.331073 88 
0.411148 -0.317373 0.33223 85 
0.411321 -0.317336 0.333328 82 
0.41404 -0.316727 0.335099 79 
0.410879 -0.317441 0.335318 75 
0.411846 -0.317225 0.336631 72 
0.411547 -0.317295 0.337607 77 
0.410302 -0.317578 0.338325 83 
0.411349 -0.317345 0.339667 81 
0.408769 -0.317928 0.340013 86 
0.40934 -0.317802 0.341225 87 
0.409756 -0.317711 0.342397 79 
0.4086 -0.317973 0.343128 89 
0.409409 -0.317794 0.344414 88 
0.408099 -0.318091 0.345097 88 
0.407108 -0.318316 0.345867 86 
0.406198 -0.318524 0.346659 90 
0.406692 -0.318415 0.347857 85 
0.40563 -0.318656 0.3486 83 
0.407372 -0.318267 0.35017 80 
0.405608 -0.318666 0.350703 85 
0.404629 -0.318889 0.351465 83 
0.406681 -0.31843 0.353139 83 
0.403685 -0.319106 0.353288 80 
0.402176 -0.319448 0.35388 84 
0.403208 -0.319219 0.35525 87 
0.401473 -0.319611 0.355767 91 
0.402196 -0.319451 0.357045 90 
0.400011 -0.319945 0.357413 90 
0.39936 -0.320094 0.358258 81 
0.398863 -0.320209 0.359151 80 
0.397309 -0.320561 0.359703 74 
0.39757 -0.320504 0.360836 78 
0.398211 -0.320362 0.362093 79 
0.397869 -0.320442 0.363033 80 
0.395721 -0.320928 0.363379 82 
0.395984 -0.320871 0.364514 76 
0.396022 -0.320865 0.365577 76 
0.394486 -0.321213 0.366113 72 
0.393183 -0.321508 0.366723 72 
0.39479 -0.321149 0.368313 67 
0.39356 -0.321428 0.368945 72 
0.392411 -0.321689 0.3696 72 
0.392749 -0.321616 0.370764 66 
0.392345 -0.321709 0.371673 69 
0.393131 -0.321535 0.372997 61 
0.391762 -0.321845 0.373568 68 
0.393591 -0.321436 0.375263 61 
0.390592 -0.322113 0.375253 62 
0.391672 -0.321872 0.376688 57 
0.390903 -0.322048 0.377464 59 
0.391467 -0.321923 0.378719 52 
0.388785 -0.322529 0.378798 52 
0.392677 -0.321656 0.381269 55 
0.394521 -0.321244 0.383005 50 
0.393971 -0.32137 0.383864 53 
0.390966 -0.322048 0.38381 51 
0.390202 -0.322223 0.384582 56 
0.388118 -0.322694 0.384855 61 
0.391118 -0.322022 0.387042 61 
0.389321 -0.322428 0.387419 57 
0.391 -0.322053 0.389118 53 
0.391127 -0.322027 0.390229 54 
0.388153 -0.322698 0.390144 54 
0.39079 -0.322107 0.392225 50 
0.390994 -0.322064 0.393369 48 
0.392167 -0.321803 0.394895 48 
0.391032 -0.322061 0.395517 44 
0.394384 -0.321309 0.397914 46 
0.395199 -0.321129 0.399315 46 
0.393976 -0.321406 0.399903 52 
0.390669 -0.322152 0.399648 44 
0.392146 -0.321822 0.401317 45 
0.392133 -0.321828 0.402386 40 
0.390478 -0.322202 0.402785 39 
0.391359 -0.322007 0.404221 36 
0.39262 -0.321726 0.405819 37 
0.393059 -0.32163 0.407081 32 
0.397067 -0.320731 0.409837 30 
0.392814 -0.32169 0.409143 29 
0.390708 -0.322166 0.409339 28 
0.390102 -0.322304 0.410162 29 
0.401747 -0.319689 0.416204 33 
0.395353 -0.321129 0.414571 38 
0.398484 -0.320428 0.417012 36 
0.395037 -0.321205 0.416622 39 
0.396863 -0.320797 0.41851 39 
0.399091 -0.320299 0.420583 41 
0.392151 -0.321861 0.418642 40 
0.395632 -0.321082 0.421269 37 
0.397621 -0.320637 0.423251 40 
0.396699 -0.320847 0.423946 43 
0.39762 -0.320642 0.425463 46 
0.402046 -0.31965 0.428561 36 
0.398162 -0.320526 0.427924 35 
0.397856 -0.320597 0.428896 35 
0.396244 -0.320962 0.429272 44 
0.399254 -0.320288 0.431761 72 
0.397943 -0.320585 0.432274 36 
0.400275 -0.320064 0.434468 34 
0.403656 -0.319307 0.437161 37 
0.488534 -0.293868 -0.102094 7 
0.114303 -0.381872 0.0809152 7 
-0.013044 -0.41181 0.139604 7 
0.44051 -0.30517 -0.0748558 10 
0.70003 -0.244147 -0.198961 8 
0.260791 -0.347434 0.0136172 9 
0.285521 -0.341623 0.00357022 7 
0.0511344 -0.39673 0.113283 8 
0.379008 -0.319647 -0.0386098 8 
0.452041 -0.302478 -0.0717778 10 
0.0979224 -0.385734 0.0934532 9 
1.03399 -0.165664 -0.340529 6 
0.386891 -0.317803 -0.0379538 11 
0.909977 -0.194831 -0.278238 9 
0.374869 -0.320635 -0.0302728 9 
0.454983 -0.301804 -0.0657418 11 
-0.000215637 -0.408805 0.138231 7 
0.408395 -0.312761 -0.0422288 9 
0.173364 -0.368011 0.0640332 10 
0.406828 -0.313134 -0.0392698 8 
0.0340684 -0.400752 0.125298 8 
0.169744 -0.368866 0.0674982 8 
0.757728 -0.230663 -0.190992 7 
0.00292837 -0.408071 0.138875 10 
0.354198 -0.325518 -0.0106908 9 
0.0490074 -0.397245 0.120874 8 
0.116574 -0.381369 0.0931312 9 
1.78508 0.0107711 -0.625864 9 
1.09802 -0.150712 -0.326141 10 
0.107644 -0.38347 0.098347 7 
0.384553 -0.318398 -0.0175208 8 
0.124767 -0.379449 0.0922792 7 
0.407964 -0.312901 -0.0252158 9 
0.396014 -0.315712 -0.0191128 10 
0.39215 -0.316623 -0.0164198 8 
0.164352 -0.370153 0.0783062 8 
0.580175 -0.272445 -0.0917138 8 
0.610298 -0.26537 -0.102604 8 
0.137245 -0.376526 0.0909382 10 
0.443378 -0.304598 -0.0317968 9 
0.220206 -0.357037 0.0590622 8 
0.266072 -0.346262 0.0415182 7 
0.398566 -0.315135 -0.0103838 9 
0.375963 -0.320448 -0.000338791 8 
0.335265 -0.330012 0.0167332 11 
1.33518 -0.0950959 -0.376103 9 
1.01532 -0.17025 -0.247591 7 
0.84346 -0.210629 -0.178199 9 
0.396117 -0.315725 -0.00295278 10 
0.0898364 -0.387676 0.114579 8 
0.470457 -0.298267 -0.0292298 10 
0.394235 -0.316175 0.00097722 10 
1.2476 -0.115718 -0.321619 9 
0.404375 -0.313798 -0.000702782 11 
0.419604 -0.310223 -0.00531079 9 
0.415571 -0.311173 -0.00269578 11 
-0.0203854 -0.413565 0.155339 10 
0.423107 -0.309408 -0.00325478 10 
0.422604 -0.309529 -0.00195078 9 
0.0122884 -0.405895 0.145492 8 
0.420356 -0.310062 0.00109722 10 
0.411464 -0.312153 0.00540522 11 
0.41003 -0.312492 0.00701022 9 
0.414138 -0.31153 0.00663921 13 
0.42254 -0.30956 0.00476621 10 
0.434948 -0.306648 0.00152022 11 
0.718429 -0.240079 -0.0965428 9 
0.0817534 -0.389592 0.125134 11 
0.427884 -0.308315 0.00736721 13 
0.415248 -0.311285 0.0128212 10 
0.419765 -0.310227 0.0123742 11 
0.414299 -0.311513 0.0153282 10 
0.432297 -0.307289 0.0103532 10 
0.412473 -0.311946 0.0181172 16 
0.422804 -0.309523 0.0157632 14 
0.422567 -0.309581 0.0169452 10 
1.18873 -0.129696 -0.234664 9 
0.410223 -0.312485 0.0231832 12 
0.424622 -0.309107 0.0195842 15 
0.431525 -0.307489 0.0184612 12 
0.42778 -0.30837 0.0207792 10 
0.427798 -0.308369 0.0218822 17 
0.00870237 -0.406752 0.152969 11 
0.416945 -0.310922 0.0275122 13 
0.423983 -0.309272 0.0263972 15 
0.422421 -0.309641 0.0279802 13 
0.416527 -0.311027 0.0308922 15 
0.43031 -0.307794 0.0277502 15 
0.412626 -0.311948 0.0342422 15 
0.428654 -0.308188 0.0304672 19 
0.417202 -0.310879 0.0350102 26 
0.428961 -0.308121 0.0325812 18 
0.438419 -0.305904 0.0308792 19 
0.423464 -0.309417 0.0364032 23 
0.424161 -0.309256 0.0372892 21 
0.422611 -0.309622 0.0388292 22 
0.420659 -0.310083 0.0404782 19 
0.431017 -0.307654 0.0385942 21 
0.425545 -0.308941 0.0412522 21 
0.438279 -0.305955 0.0387462 16 
0.427381 -0.308515 0.0429162 18 
0.433043 -0.307189 0.0424322 21 
0.430508 -0.307786 0.0442352 19 
0.425726 -0.308911 0.0466442 24 
0.426017 -0.308845 0.0476512 24 
0.429263 -0.308086 0.0478602 26 
0.426098 -0.308831 0.0498022 19 
0.424718 -0.309158 0.0512542 26 
0.425513 -0.308974 0.0521262 29 
0.426562 -0.30873 0.0529332 27 
0.427027 -0.308623 0.0538952 28 
0.426485 -0.308753 0.0551202 25 
0.422617 -0.309663 0.0571932 24 
0.426327 -0.308795 0.0573232 26 
0.416827 -0.311027 0.0608012 26 
0.380435 -0.319567 0.0709702 24 
0.377143 -0.320341 0.0727742 29 
0.371183 -0.321742 0.0752222 37 
0.366029 -0.322953 0.0774492 42 
0.361504 -0.324017 0.0795022 53 
0.355987 -0.325313 0.0817742 55 
0.354905 -0.325569 0.0829682 65 
0.353767 -0.325838 0.0841712 58 
0.350217 -0.326673 0.0859332 66 
0.347879 -0.327224 0.0873992 71 
0.347813 -0.327241 0.0883322 67 
0.345563 -0.327771 0.0897632 61 
0.343097 -0.328352 0.0912332 60 
0.341488 -0.328731 0.0925012 67 
0.340481 -0.32897 0.0936282 80 
0.340245 -0.329027 0.0945812 90 
0.339421 -0.329222 0.0956612 93 
0.338251 -0.329499 0.0968117 82 
0.337088 -0.329774 0.0979559 87 
0.336163 -0.329993 0.0990444 75 
0.334955 -0.330278 0.100188 85 
0.335017 -0.330265 0.101062 80 
0.33531 -0.330199 0.101888 84 
0.334282 -0.330442 0.102985 84 
0.334862 -0.330308 0.103752 86 
0.334468 -0.330402 0.104716 83 
0.332989 -0.330751 0.105893 85 
0.332713 -0.330818 0.106827 77 
0.333806 -0.330564 0.107493 78 
0.334159 -0.330483 0.108306 75 
0.332799 -0.330804 0.109446 80 
0.333266 -0.330696 0.110236 75 
0.332993 -0.330763 0.111165 80 
0.332778 -0.330815 0.112082 80 
0.333588 -0.330627 0.11281 91 
0.333659 -0.330612 0.113675 97 
0.332591 -0.330865 0.114744 98 
0.332947 -0.330783 0.115555 96 
0.333989 -0.330541 0.116248 98 
0.333662 -0.33062 0.117181 96 
0.334823 -0.33035 0.117857 104 
0.335242 -0.330254 0.118664 107 
0.336469 -0.329968 0.119336 115 
0.335911 -0.330101 0.120308 122 
0.337432 -0.329746 0.120937 125 
0.337858 -0.329649 0.121749 111 
0.337588 -0.329714 0.122673 108 
0.338189 -0.329575 0.123459 102 
0.33891 -0.329408 0.124227 104 
0.337827 -0.329664 0.125276 105 
0.339539 -0.329265 0.125895 115 
0.340911 -0.328945 0.126572 119 
0.342351 -0.32861 0.127243 132 
0.34208 -0.328675 0.12817 128 
0.342994 -0.328463 0.128924 134 
0.343793 -0.328278 0.129698 130 
0.34376 -0.328288 0.130591 133 
0.344622 -0.328088 0.13136 131 
0.346389 -0.327676 0.132008 127 
0.347625 -0.327388 0.132735 131 
0.347776 -0.327355 0.133609 126 
0.349508 -0.326951 0.134277 126 
0.350762 -0.326659 0.135013 123 
0.353073 -0.32612 0.135619 115 
0.353726 -0.325969 0.136442 117 
0.35463 -0.325759 0.137235 102 
0.356542 -0.325313 0.137909 105 
0.358469 -0.324864 0.138589 89 
0.361245 -0.324216 0.139176 90 
0.360706 -0.324344 0.140156 86 
0.362733 -0.323871 0.140842 86 
0.364389 -0.323485 0.141578 72 
0.369347 -0.322326 0.141956 76 
0.370784 -0.321992 0.142734 84 
0.374113 -0.321214 0.143315 93 
0.372876 -0.321506 0.144385 99 
0.375896 -0.320801 0.145015 103 
0.377716 -0.320376 0.145776 99 
0.380936 -0.319624 0.146406 100 
0.385469 -0.318565 0.146922 103 
0.388148 -0.317939 0.14763 98 
0.392525 -0.316916 0.148191 95 
0.394695 -0.31641 0.148968 103 
0.39807 -0.315622 0.149647 91 
0.403079 -0.314451 0.150196 76 
0.407415 -0.313438 0.150821 64 
0.407704 -0.313372 0.151799 62 
0.469403 -0.298924 0.147788 64 
0.467644 -0.299338 0.149048 75 
0.467619 -0.299347 0.150166 78 
0.467021 -0.29949 0.151328 83 
0.464995 -0.299967 0.152592 80 
0.464975 -0.299974 0.153704 86 
0.463818 -0.300247 0.154895 82 
0.463991 -0.300209 0.155991 91 
0.464545 -0.300082 0.157063 89 
0.463299 -0.300377 0.158252 87 
0.461215 -0.300867 0.159488 87 
0.461674 -0.300762 0.160563 94 
0.460726 -0.300987 0.161721 85 
0.458665 -0.301472 0.162938 91 
0.459217 -0.301345 0.164005 89 
0.45884 -0.301436 0.165123 90 
0.459302 -0.30133 0.166196 89 
0.456426 -0.302006 0.167434 91 
0.457812 -0.301684 0.168461 89 
0.45661 -0.301968 0.169609 92 
0.454956 -0.302358 0.170772 92 
0.454044 -0.302574 0.171899 106 
0.454873 -0.302383 0.172953 104 
0.454238 -0.302534 0.174065 106 
0.454246 -0.302534 0.175152 100 
0.451433 -0.303196 0.176333 102 
0.45317 -0.302791 0.177359 98 
0.451365 -0.303216 0.178498 103 
0.45274 -0.302897 0.179541 90 
0.450488 -0.303427 0.180682 93 
0.450053 -0.303531 0.181772 89 
0.44926 -0.303719 0.182868 91 
0.44883 -0.303822 0.183953 100 
0.448223 -0.303967 0.18504 105 
0.447886 -0.304048 0.18612 103 
0.447283 -0.304192 0.187203 99 
0.445439 -0.304626 0.188299 102 
0.445287 -0.304664 0.18937 102 
0.444164 -0.304929 0.190449 95 
0.443134 -0.305173 0.191522 101 
0.440712 -0.305742 0.192599 91 
0.442053 -0.305431 0.193655 95 
0.440164 -0.305875 0.19472 88 
0.441155 -0.305646 0.19578 92 
0.440056 -0.305905 0.196838 93 
0.440092 -0.3059 0.197897 89 
0.437187 -0.306582 0.198937 86 
0.438778 -0.306212 0.200004 89 
0.437521 -0.306509 0.201047 91 
0.436529 -0.306743 0.202089 94 
0.435542 -0.306977 0.203128 96 
0.436183 -0.306829 0.204188 96 
0.433497 -0.30746 0.205192 97 
0.433966 -0.307353 0.206248 89 
0.433502 -0.307464 0.207285 94 
0.433124 -0.307554 0.208323 85 
0.431313 -0.307981 0.209323 85 
0.433222 -0.307536 0.210419 85 
0.432595 -0.307686 0.211447 82 
0.431127 -0.308031 0.212446 87 
0.430004 -0.308297 0.213452 85 
0.427886 -0.308794 0.214418 89 
0.426944 -0.309017 0.21542 98 
0.427248 -0.308948 0.216467 91 
0.424087 -0.30969 0.217373 88 
0.423652 -0.309794 0.218384 82 
0.424942 -0.309495 0.219472 87 
0.424016 -0.309714 0.22046 91 
0.422034 -0.31018 0.221394 92 
0.422258 -0.31013 0.222432 88 
0.421588 -0.310289 0.223424 90 
0.421327 -0.310353 0.224436 88 
0.42058 -0.31053 0.22542 86 
0.417986 -0.311139 0.226294 81 
0.419985 -0.310674 0.227433 82 
0.419891 -0.310698 0.228451 89 
0.416667 -0.311454 0.229269 94 
0.416577 -0.311478 0.230281 100 
0.416807 -0.311426 0.231314 100 
0.416081 -0.311599 0.232282 103 
0.418876 -0.310947 0.2335 97 
0.414954 -0.311867 0.234234 102 
0.414157 -0.312055 0.23519 102 
0.413127 -0.312299 0.236125 104 
0.412338 -0.312486 0.237075 112 
0.411004 -0.3128 0.237978 107 
0.410613 -0.312894 0.238954 109 
0.409989 -0.313042 0.23991 111 
0.409601 -0.313135 0.240884 111 
0.406512 -0.31386 0.241616 107 
0.406285 -0.313915 0.242597 106 
0.406289 -0.313916 0.243599 109 
0.406217 -0.313935 0.244594 107 
0.406147 -0.313954 0.245589 113 
0.40754 -0.313631 0.246728 110 
0.405549 -0.314099 0.247533 119 
0.404412 -0.314367 0.248418 113 
0.402599 -0.314793 0.249228 112 
0.402307 -0.314863 0.250194 112 
0.401488 -0.315057 0.251101 111 
0.40309 -0.314685 0.252272 117 
0.402044 -0.314932 0.253153 110 
0.401606 -0.315037 0.2541 107 
0.402378 -0.314858 0.255185 102 
0.400209 -0.315368 0.255928 99 
0.401507 -0.315067 0.257077 95 
0.400246 -0.315364 0.25792 97 
0.399366 -0.315572 0.258807 96 
0.401643 -0.315042 0.260085 89 
0.401364 -0.315109 0.261048 84 
0.402598 -0.314823 0.262205 82 
0.400808 -0.315244 0.262972 83 
0.40106 -0.315187 0.264003 83 
0.403511 -0.314617 0.265332 76 
0.402702 -0.314808 0.266225 78 
0.401444 -0.315105 0.267053 75 
0.400945 -0.315223 0.267983 77 
0.400523 -0.315324 0.268923 78 
0.401989 -0.314984 0.270135 79 
0.401568 -0.315085 0.271076 78 
0.402663 -0.314831 0.272241 83 
0.401183 -0.31518 0.273023 80 
0.400313 -0.315385 0.273893 79 
0.398848 -0.31573 0.274668 79 
0.400914 -0.315249 0.27599 80 
0.399823 -0.315507 0.276821 85 
0.399712 -0.315535 0.277805 80 
0.403767 -0.31459 0.279464 86 
0.401755 -0.315062 0.280144 78 
0.401268 -0.315178 0.28107 79 
0.400707 -0.315312 0.281982 78 
0.399922 -0.315497 0.282855 81 
0.401174 -0.315207 0.284075 81 
0.398736 -0.315779 0.284659 80 
0.40142 -0.315154 0.286134 84 
0.40041 -0.315393 0.286964 86 
0.401063 -0.315242 0.288089 86 
0.401189 -0.315215 0.289121 89 
0.400787 -0.315312 0.290058 87 
0.400385 -0.315408 0.290993 93 
0.401802 -0.315079 0.292268 104 
0.402084 -0.315016 0.293335 102 
0.402749 -0.314863 0.294476 107 
0.403187 -0.314763 0.295577 102 
0.403934 -0.314591 0.29674 103 
0.40216 -0.315007 0.29741 100 
0.402601 -0.314907 0.298514 102 
0.403961 -0.314591 0.299806 109 
0.403258 -0.314758 0.300684 102 
0.405009 -0.314351 0.302063 102 
0.405536 -0.314231 0.303197 99 
0.405139 -0.314326 0.30414 95 
0.405283 -0.314295 0.305196 93 
0.406976 -0.313902 0.306584 86 
0.407045 -0.313888 0.307629 88 
0.405952 -0.314145 0.308424 88 
0.407031 -0.313896 0.30969 80 
0.411889 -0.312764 0.311795 83 
0.407332 -0.31383 0.311823 79 
0.408734 -0.313505 0.313172 77 
0.409123 -0.313417 0.314299 78 
0.411089 -0.31296 0.315788 74 
0.410458 -0.31311 0.316686 74 
0.412994 -0.31252 0.318319 74 
0.412042 -0.312745 0.319145 71 
0.409283 -0.313392 0.31954 73 
0.412367 -0.312674 0.321319 73 
0.412531 -0.312638 0.322408 73 
0.412936 -0.312546 0.323557 78 
0.413901 -0.312323 0.324845 79 
0.411282 -0.312937 0.325254 78 
0.412721 -0.312604 0.326662 86 
0.414249 -0.312249 0.328099 94 
0.412343 -0.312697 0.328675 85 
0.414353 -0.31223 0.330241 79 
0.413565 -0.312416 0.331099 84 
0.413659 -0.312397 0.332181 85 
0.412316 -0.312713 0.332891 85 
0.411616 -0.312879 0.333764 85 
0.412029 -0.312785 0.334931 86 
0.412365 -0.312709 0.336078 81 
0.410873 -0.313059 0.336737 80 
0.409547 -0.313371 0.337436 77 
0.409093 -0.31348 0.338368 83 
0.410139 -0.313238 0.339711 88 
0.410794 -0.313088 0.34095 82 
0.40884 -0.313546 0.341466 91 
0.408784 -0.313562 0.342508 91 
0.408335 -0.313669 0.343439 89 
0.408437 -0.313647 0.344526 84 
0.408935 -0.313534 0.345727 85 
0.406137 -0.314189 0.34598 79 
0.404917 -0.314476 0.346681 90 
0.405799 -0.314273 0.347993 88 
0.40497 -0.314469 0.348806 91 
0.407185 -0.313954 0.350518 89 
0.405183 -0.314424 0.350981 85 
0.404047 -0.314691 0.351697 81 
0.403922 -0.314723 0.352716 89 
0.403489 -0.314827 0.35364 89 
0.402516 -0.315056 0.354399 90 
0.40124 -0.315356 0.35506 97 
0.401964 -0.31519 0.356339 100 
0.399774 -0.315703 0.35671 94 
0.399197 -0.31584 0.357581 88 
0.398166 -0.316083 0.358307 74 
0.3982 -0.316078 0.359368 81 
0.398463 -0.316019 0.360505 75 
0.39668 -0.316437 0.360982 76 
0.398764 -0.315953 0.36271 75 
0.396752 -0.316425 0.363107 79 
0.39679 -0.316419 0.364172 78 
0.393745 -0.317131 0.364217 76 
0.396112 -0.316582 0.366053 75 
0.395247 -0.316786 0.366816 77 
0.392741 -0.317373 0.367024 74 
0.392706 -0.317384 0.36806 82 
0.392969 -0.317325 0.369199 75 
0.396241 -0.316564 0.371373 71 
0.393052 -0.31731 0.37133 67 
0.394819 -0.3169 0.372996 64 
0.39269 -0.317399 0.373309 64 
0.391542 -0.31767 0.373959 65 
0.392181 -0.317523 0.375237 63 
0.393347 -0.317254 0.376706 63 
0.392794 -0.317385 0.377566 62 
0.391573 -0.317672 0.378184 61 
0.392589 -0.317438 0.379607 58 
0.390553 -0.317915 0.379924 57 
0.39336 -0.317263 0.382007 55 
0.392511 -0.317463 0.382757 56 
0.392785 -0.317402 0.38392 57 
0.394037 -0.317112 0.385448 56 
0.392662 -0.317435 0.386 51 
0.390106 -0.318034 0.386102 57 
0.391422 -0.31773 0.38766 55 
0.394551 -0.317002 0.389915 52 
0.3928 -0.317413 0.390316 51 
0.393155 -0.317333 0.391521 53 
0.393436 -0.31727 0.3927 50 
0.390202 -0.318026 0.392514 47 
0.393399 -0.317283 0.39483 43 
0.390239 -0.318023 0.394661 51 
0.392463 -0.317507 0.396608 49 
0.394027 -0.317144 0.398303 50 
0.392881 -0.317414 0.398923 43 
0.390843 -0.317892 0.399181 49 
0.392626 -0.317479 0.400974 47 
0.390814 -0.317903 0.401317 43 
0.398689 -0.31607 0.405604 36 
0.39131 -0.317793 0.403671 33 
0.395299 -0.316866 0.406393 38 
0.395821 -0.316746 0.407697 36 
0.396117 -0.31668 0.40891 35 
0.393146 -0.317375 0.408758 29 
0.39488 -0.316973 0.410573 29 
0.397317 -0.316408 0.412694 30 
0.395626 -0.316805 0.413073 31 
0.393794 -0.317234 0.413385 34 
0.396531 -0.316599 0.415651 35 
0.394921 -0.316976 0.416055 40 
0.396906 -0.316516 0.418011 40 
0.395982 -0.316734 0.41871 33 
0.396592 -0.316595 0.420078 33 
0.394753 -0.317026 0.420372 36 
0.398593 -0.316134 0.423169 36 
0.399679 -0.315883 0.42476 41 
0.401397 -0.315485 0.42664 38 
0.397202 -0.316465 0.425877 39 
0.397898 -0.316306 0.4273 32 
0.398519 -0.316164 0.428693 37 
0.399844 -0.315858 0.43041 39 
0.398836 -0.316095 0.431069 36 
0.398918 -0.316078 0.432224 74 
0.402762 -0.315186 0.435116 38 
0.406108 -0.314409 0.437795 38 
0.404124 -0.314874 0.438008 38 
0.113692 -0.380073 0.0802852 6 
0.184721 -0.362783 0.0466652 8 
0.308321 -0.332694 -0.0124628 7 
0.385583 -0.313887 -0.0489308 8 
0.190185 -0.361457 0.0460552 7 
0.856299 -0.199299 -0.273496 7 
0.21335 -0.355822 0.0364392 8 
0.0512364 -0.395283 0.112529 7 
0.00935837 -0.405475 0.131416 7 
0.29434 -0.336113 0.00062521 8 
0.0502054 -0.395536 0.114122 7 
0.390192 -0.312785 -0.0423148 8 
0.196017 -0.360051 0.0487622 9 
0.228989 -0.352027 0.0343122 8 
0.384037 -0.314291 -0.0361778 7 
0.183757 -0.363039 0.0563702 11 
0.42259 -0.304913 -0.0516188 9 
2.21579 0.131525 -0.86931 8 
0.0494214 -0.395734 0.117449 7 
0.130859 -0.375918 0.0824162 7 
0.411149 -0.307708 -0.0418348 11 
0.421593 -0.305169 -0.0453578 13 
0.405227 -0.309154 -0.0369338 10 
0.237575 -0.349955 0.0380442 9 
0.0893724 -0.386019 0.102856 8 
0.239367 -0.349522 0.0387932 8 
0.413963 -0.307039 -0.0362588 8 
0.120991 -0.378329 0.0909032 8 
0.230167 -0.351766 0.0450272 7 
0.490743 -0.288365 -0.0658248 7 
0.397198 -0.311129 -0.0245638 11 
0.20742 -0.357306 0.0568362 10 
0.394119 -0.311883 -0.0210708 9 
0.353692 -0.321721 -0.00299479 8 
0.163623 -0.367966 0.0770152 12 
0.403763 -0.309544 -0.0218258 10 
0.388459 -0.31327 -0.0143828 10 
0.398365 -0.310863 -0.0173928 11 
0.112389 -0.380435 0.0999869 8 
0.409054 -0.308267 -0.0195708 10 
0.449635 -0.298398 -0.0349358 9 
0.123276 -0.37779 0.097181 8 
1.12258 -0.134703 -0.303759 8 
0.163947 -0.3679 0.0822792 8 
1.73713 0.0147781 -0.544004 8 
-0.026151 -0.414133 0.154309 8 
0.425883 -0.304192 -0.0184258 12 
0.410043 -0.308047 -0.0110878 8 
0.423907 -0.304678 -0.0153768 10 
0.920867 -0.183805 -0.207137 8 
0.0463724 -0.396502 0.130242 9 
-0.023307 -0.413444 0.154732 8 
0.0782854 -0.388744 0.119393 11 
0.403369 -0.309686 -0.00193578 9 
0.41334 -0.307263 -0.00460478 9 
0.407632 -0.308654 -0.00135979 10 
0.0861094 -0.386845 0.11826 8 
0.420923 -0.305427 -0.00409679 8 
0.389614 -0.313043 0.00855321 9 
0.469794 -0.293548 -0.0197718 7 
0.426323 -0.304122 -0.00270879 10 
0.419594 -0.305761 0.000856222 14 
0.411179 -0.30781 0.00500022 10 
0.182314 -0.363461 0.0876412 8 
0.439319 -0.300972 -0.00283079 14 
0.436478 -0.301666 -0.000674782 11 
0.415421 -0.306788 0.00788121 10 
0.501438 -0.285877 -0.0211348 9 
0.419717 -0.305749 0.00858621 13 
0.42551 -0.304343 0.00768921 11 
0.411651 -0.307715 0.0135712 11 
0.449596 -0.298492 0.00169222 12 
0.427066 -0.303972 0.0105122 10 
0.00986236 -0.405395 0.149692 13 
0.431811 -0.302824 0.0111562 12 
0.433037 -0.302529 0.0118732 11 
0.43567 -0.301891 0.0121282 10 
0.430551 -0.303138 0.0149472 15 
0.430909 -0.303054 0.0159512 12 
0.739765 -0.227979 -0.0836218 10 
0.417241 -0.306381 0.0226112 15 
0.230229 -0.351841 0.0835742 12 
0.435842 -0.301865 0.0188552 14 
-0.0172865 -0.411998 0.160093 12 
0.433173 -0.302519 0.0219502 13 
-0.00198864 -0.408282 0.156333 13 
0.425679 -0.304346 0.0265222 13 
0.436552 -0.301706 0.0242642 20 
0.435172 -0.302044 0.0258132 16 
0.434497 -0.30221 0.0271402 14 
0.439888 -0.300903 0.0266252 15 
0.422614 -0.305103 0.0329542 18 
0.429822 -0.303354 0.0318922 19 
0.433035 -0.302576 0.0320452 20 
0.428086 -0.303781 0.0346182 22 
0.434219 -0.302293 0.0339232 20 
0.430451 -0.303212 0.0361332 17 
0.425639 -0.304383 0.0386282 14 
0.422991 -0.305029 0.0404822 20 
0.431233 -0.303029 0.0392232 23 
0.427767 -0.303874 0.0413072 22 
0.437997 -0.301391 0.0395302 20 
0.431853 -0.302886 0.0423602 20 
0.432665 -0.302692 0.0432382 17 
0.427658 -0.303911 0.0457192 22 
0.433951 -0.302384 0.0450952 20 
0.427483 -0.303958 0.0479522 21 
0.428541 -0.303704 0.0487592 20 
0.430029 -0.303345 0.0494542 21 
0.424747 -0.304631 0.0519492 24 
0.428244 -0.303784 0.0521132 22 
0.424584 -0.304675 0.0541582 20 
0.4339 -0.302415 0.0528282 24 
0.423509 -0.304941 0.0565972 20 
0.38315 -0.314748 0.0679572 24 
0.388522 -0.313445 0.0675972 26 
0.363894 -0.31943 0.0747762 31 
0.357845 -0.320901 0.0772372 40 
0.357384 -0.321015 0.0782952 52 
0.351878 -0.322355 0.0805852 53 
0.347112 -0.323515 0.0826732 64 
0.345399 -0.323933 0.0840072 66 
0.343218 -0.324465 0.0854452 70 
0.340229 -0.325193 0.0870652 71 
0.341055 -0.324994 0.0877782 82 
0.338332 -0.325658 0.0893192 76 
0.336981 -0.325988 0.0905322 76 
0.335756 -0.326288 0.0917112 75 
0.334944 -0.326487 0.0927902 78 
0.333789 -0.326769 0.0939432 78 
0.334251 -0.32666 0.0947312 80 
0.332186 -0.327163 0.096078 86 
0.330992 -0.327455 0.0972255 90 
0.328678 -0.328019 0.0986103 86 
0.328065 -0.32817 0.0996206 84 
0.327901 -0.328212 0.100532 80 
0.3259 -0.3287 0.10183 85 
0.326462 -0.328565 0.102584 85 
0.326079 -0.32866 0.103536 88 
0.325421 -0.328822 0.104541 92 
0.324932 -0.328943 0.10551 96 
0.32638 -0.328593 0.106087 90 
0.326056 -0.328674 0.107021 87 
0.326565 -0.328552 0.10779 80 
0.325245 -0.328875 0.108917 76 
0.327197 -0.328403 0.109407 79 
0.325931 -0.328712 0.110518 84 
0.325721 -0.328765 0.111425 92 
0.32452 -0.329059 0.112516 99 
0.324698 -0.329018 0.113346 102 
0.325705 -0.328775 0.114025 103 
0.326051 -0.328693 0.114826 103 
0.326177 -0.328665 0.115669 108 
0.326303 -0.328636 0.116511 108 
0.326319 -0.328634 0.117373 112 
0.326003 -0.328713 0.118292 105 
0.326574 -0.328576 0.119057 118 
0.327927 -0.32825 0.119691 128 
0.328671 -0.328071 0.120432 131 
0.329531 -0.327865 0.121156 121 
0.329888 -0.32778 0.121966 125 
0.330302 -0.327682 0.122768 134 
0.331169 -0.327473 0.123498 131 
0.331417 -0.327415 0.124329 126 
0.332062 -0.32726 0.125098 123 
0.332085 -0.327257 0.125966 120 
0.333132 -0.327005 0.126677 125 
0.333213 -0.326987 0.127538 124 
0.334553 -0.326664 0.128211 132 
0.335613 -0.326409 0.12893 134 
0.336679 -0.326152 0.129652 139 
0.337111 -0.326049 0.130469 138 
0.336616 -0.326171 0.131417 134 
0.337921 -0.325857 0.132113 124 
0.339175 -0.325555 0.13282 127 
0.340495 -0.325236 0.133523 124 
0.34135 -0.325031 0.134293 129 
0.341322 -0.32504 0.135182 127 
0.343787 -0.324444 0.135747 130 
0.345918 -0.323929 0.136365 125 
0.346494 -0.323791 0.137186 129 
0.347495 -0.32355 0.137955 121 
0.347772 -0.323485 0.138817 110 
0.35074 -0.322767 0.139357 102 
0.352257 -0.322402 0.140079 107 
0.353224 -0.322169 0.140871 109 
0.355949 -0.32151 0.141465 111 
0.356743 -0.32132 0.142286 110 
0.359255 -0.320712 0.142921 105 
0.360445 -0.320426 0.143708 99 
0.362093 -0.320028 0.14445 99 
0.3663 -0.31901 0.144932 100 
0.368519 -0.318474 0.145633 98 
0.371764 -0.317689 0.146239 97 
0.37485 -0.316942 0.146873 99 
0.377288 -0.316353 0.147582 104 
0.381352 -0.31537 0.148145 104 
0.383012 -0.314969 0.148947 99 
0.38596 -0.314256 0.149637 97 
0.389305 -0.313448 0.150304 83 
0.394747 -0.31213 0.1508 80 
0.400536 -0.310728 0.151288 78 
0.399091 -0.311081 0.1524 89 
0.402617 -0.310228 0.153101 92 
0.403436 -0.310032 0.154031 90 
0.404335 -0.309816 0.154958 80 
0.46389 -0.295376 0.15145 66 
0.465776 -0.294921 0.152423 68 
0.464801 -0.295161 0.153608 75 
0.462598 -0.295697 0.154875 78 
0.463244 -0.295543 0.15594 80 
0.464369 -0.295273 0.156975 81 
0.461419 -0.295991 0.158276 83 
0.46103 -0.296088 0.159406 83 
0.461019 -0.296093 0.160512 88 
0.46007 -0.296326 0.161672 86 
0.459594 -0.296444 0.162801 90 
0.458001 -0.296832 0.16399 91 
0.45781 -0.296881 0.165098 90 
0.45762 -0.29693 0.166205 86 
0.457247 -0.297023 0.167321 89 
0.45595 -0.29734 0.168478 92 
0.457247 -0.297028 0.169514 99 
0.455399 -0.297479 0.170689 92 
0.45531 -0.297503 0.171785 96 
0.454395 -0.297727 0.172913 90 
0.454218 -0.297772 0.17401 100 
0.452943 -0.298084 0.175145 101 
0.453318 -0.297996 0.17622 100 
0.454613 -0.297684 0.177267 94 
0.45389 -0.297862 0.178379 98 
0.450803 -0.298613 0.179553 92 
0.451544 -0.298436 0.180617 93 
0.450743 -0.298632 0.18172 93 
0.449223 -0.299003 0.182836 89 
0.448432 -0.299198 0.183932 96 
0.446927 -0.299565 0.185037 99 
0.446323 -0.299714 0.186122 98 
0.448046 -0.299298 0.187171 98 
0.445656 -0.29988 0.188278 96 
0.446127 -0.299769 0.189345 104 
0.443668 -0.300367 0.19044 100 
0.444492 -0.30017 0.191503 96 
0.444256 -0.30023 0.192575 93 
0.443578 -0.300396 0.193646 101 
0.443169 -0.300498 0.194715 102 
0.442057 -0.30077 0.195782 100 
0.441652 -0.300871 0.196846 100 
0.441074 -0.301013 0.197908 96 
0.439538 -0.301388 0.198962 93 
0.438446 -0.301655 0.200013 95 
0.437101 -0.301983 0.201058 92 
0.438179 -0.301724 0.202128 92 
0.436923 -0.302031 0.203168 92 
0.435847 -0.302294 0.204207 94 
0.434433 -0.302639 0.205235 96 
0.435935 -0.302278 0.206316 94 
0.434353 -0.302664 0.207336 86 
0.433291 -0.302923 0.208362 92 
0.432574 -0.303099 0.209393 86 
0.432879 -0.303028 0.210449 83 
0.434123 -0.302729 0.211535 85 
0.43078 -0.303541 0.212481 86 
0.427645 -0.304303 0.213421 86 
0.426616 -0.304555 0.214424 90 
0.428588 -0.30408 0.215534 89 
0.427892 -0.304251 0.216548 93 
0.42587 -0.304743 0.217505 96 
0.427007 -0.30447 0.21859 88 
0.424581 -0.30506 0.21952 89 
0.424559 -0.305068 0.220553 92 
0.422566 -0.305553 0.221489 97 
0.421647 -0.305778 0.222473 100 
0.422691 -0.305527 0.223557 88 
0.419903 -0.306205 0.224436 85 
0.419563 -0.30629 0.225443 90 
0.41979 -0.306237 0.226481 90 
0.418887 -0.306458 0.227453 89 
0.417745 -0.306737 0.228406 89 
0.41862 -0.306528 0.229485 93 
0.418851 -0.306474 0.230524 98 
0.418116 -0.306654 0.231499 99 
0.418027 -0.306678 0.232517 102 
0.415217 -0.307361 0.233339 100 
0.417773 -0.306745 0.234546 95 
0.41449 -0.307542 0.235322 94 
0.415043 -0.30741 0.236382 110 
0.412346 -0.308066 0.237187 112 
0.412739 -0.307973 0.238233 114 
0.411321 -0.308319 0.23913 109 
0.40999 -0.308643 0.240029 111 
0.409757 -0.308702 0.241019 105 
0.408669 -0.308968 0.241932 111 
0.408128 -0.309101 0.242892 104 
0.407745 -0.309196 0.243864 110 
0.408216 -0.309085 0.244915 116 
0.406829 -0.309423 0.245789 116 
0.407223 -0.30933 0.246834 117 
0.40592 -0.309647 0.24771 120 
0.404089 -0.310093 0.248527 118 
0.404176 -0.310074 0.249538 110 
0.403271 -0.310296 0.250443 112 
0.403665 -0.310203 0.251487 112 
0.403602 -0.31022 0.252481 108 
0.403617 -0.310219 0.253485 107 
0.406859 -0.309436 0.254857 101 
0.401899 -0.310639 0.25529 100 
0.402296 -0.310546 0.256337 95 
0.402011 -0.310617 0.257303 98 
0.402791 -0.31043 0.258399 94 
0.401824 -0.310667 0.259281 92 
0.401315 -0.310792 0.260218 89 
0.4024 -0.310532 0.261357 88 
0.401134 -0.310841 0.262196 83 
0.400629 -0.310965 0.26313 84 
0.400957 -0.310888 0.264174 82 
0.401666 -0.310719 0.265271 81 
0.400256 -0.311063 0.26608 81 
0.403321 -0.310323 0.267507 83 
0.402132 -0.310613 0.268346 79 
0.40262 -0.310498 0.269421 80 
0.400527 -0.311006 0.270124 80 
0.402609 -0.310505 0.271432 80 
0.405171 -0.309887 0.27282 81 
0.401461 -0.310787 0.273274 85 
0.401573 -0.310762 0.274297 76 
0.403134 -0.310387 0.275544 81 
0.399982 -0.311152 0.276061 82 
0.401232 -0.310852 0.277263 79 
0.403864 -0.310217 0.278693 79 
0.401312 -0.310837 0.279291 78 
0.400899 -0.31094 0.280231 80 
0.401929 -0.310693 0.281411 75 
0.404191 -0.310148 0.282801 82 
0.402552 -0.310547 0.283538 82 
0.40436 -0.310112 0.284862 82 
0.402036 -0.310676 0.285474 79 
0.401247 -0.31087 0.286347 89 
0.403432 -0.310343 0.287748 92 
0.401498 -0.310814 0.288416 89 
0.402769 -0.310508 0.28966 89 
0.401981 -0.310701 0.290532 100 
0.403487 -0.310339 0.291827 103 
0.402165 -0.310662 0.292597 109 
0.403291 -0.310392 0.293827 96 
0.405813 -0.309784 0.29533 105 
0.405794 -0.309791 0.296351 106 
0.403847 -0.310264 0.296995 104 
0.40669 -0.309579 0.298579 106 
0.40443 -0.310128 0.299156 100 
0.406193 -0.309704 0.300535 99 
0.405095 -0.309972 0.30134 102 
0.404695 -0.310071 0.302285 101 
0.40662 -0.309608 0.303711 99 
0.407544 -0.309387 0.304935 98 
0.405435 -0.309899 0.305523 95 
0.407057 -0.309509 0.306899 92 
0.407908 -0.309306 0.308116 80 
0.409706 -0.308873 0.309542 82 
0.40813 -0.309257 0.310237 85 
0.411118 -0.308537 0.311935 85 
0.410244 -0.308751 0.312784 82 
0.409217 -0.309002 0.313596 74 
0.409687 -0.30889 0.314745 70 
0.411745 -0.308395 0.316259 73 
0.412063 -0.308321 0.317381 71 
0.412623 -0.308188 0.318561 76 
0.412466 -0.308228 0.319575 70 
0.414712 -0.307687 0.321159 69 
0.412633 -0.308192 0.321718 77 
0.412878 -0.308136 0.32283 76 
0.412645 -0.308194 0.323828 76 
0.412972 -0.308118 0.324963 80 
0.413943 -0.307886 0.326258 84 
0.413792 -0.307925 0.327279 83 
0.414687 -0.307711 0.328563 87 
0.412772 -0.308176 0.329139 86 
0.413665 -0.307963 0.330425 89 
0.413839 -0.307923 0.331531 90 
0.412731 -0.308193 0.332306 90 
0.412986 -0.308134 0.333433 84 
0.414207 -0.307841 0.334815 85 
0.412059 -0.308363 0.335311 88 
0.410245 -0.308804 0.335887 88 
0.411935 -0.308398 0.3374 83 
0.410838 -0.308666 0.338166 86 
0.412695 -0.308219 0.339733 84 
0.409846 -0.30891 0.340015 88 
0.408918 -0.309137 0.340819 89 
0.408624 -0.309211 0.341796 87 
0.408804 -0.309169 0.342906 90 
0.408828 -0.309166 0.343974 87 
0.408063 -0.309354 0.344817 82 
0.40683 -0.309654 0.345524 81 
0.406306 -0.309783 0.346432 82 
0.405706 -0.30993 0.347316 85 
0.405343 -0.310021 0.348267 82 
0.404746 -0.310167 0.34915 85 
0.405321 -0.310031 0.350379 83 
0.404336 -0.310271 0.351144 88 
0.402504 -0.310717 0.351651 89 
0.401607 -0.310936 0.352435 86 
0.401792 -0.310893 0.353546 85 
0.401284 -0.311019 0.354446 87 
0.401085 -0.311069 0.35544 86 
0.401118 -0.311064 0.356507 94 
0.400075 -0.311318 0.357237 94 
0.399726 -0.311405 0.358183 86 
0.399071 -0.311566 0.359031 84 
0.396519 -0.312185 0.359272 77 
0.397161 -0.312032 0.360529 79 
0.397577 -0.311934 0.361717 77 
0.396399 -0.312221 0.362388 78 
0.398108 -0.31181 0.364002 79 
0.396019 -0.312317 0.364371 77 
0.396816 -0.312128 0.36569 84 
0.394211 -0.312759 0.365877 78 
0.393875 -0.312843 0.366816 79 
0.393614 -0.312908 0.367781 71 
0.393955 -0.312828 0.36895 70 
0.392497 -0.313183 0.369506 68 
0.394414 -0.312722 0.371218 67 
0.391089 -0.313528 0.371124 61 
0.393823 -0.31287 0.373127 62 
0.394093 -0.312807 0.374279 61 
0.395498 -0.312471 0.375833 63 
0.393356 -0.31299 0.376137 59 
0.392128 -0.313289 0.376759 58 
0.393976 -0.312845 0.378479 57 
0.393496 -0.312964 0.379369 54 
0.394298 -0.312772 0.380722 54 
0.393443 -0.312982 0.381475 53 
0.39402 -0.312845 0.382751 56 
0.39092 -0.313596 0.382674 53 
0.3945 -0.312734 0.385063 58 
0.394931 -0.312632 0.386293 55 
0.392344 -0.313259 0.386393 54 
0.389263 -0.314006 0.386298 58 
0.394713 -0.312692 0.389426 63 
0.392578 -0.31321 0.389685 50 
0.392483 -0.313236 0.390719 48 
0.390143 -0.313803 0.390887 46 
0.390794 -0.313648 0.392207 44 
0.396367 -0.312305 0.395447 49 
0.393462 -0.313009 0.395391 49 
0.393521 -0.312998 0.396491 54 
0.393429 -0.313022 0.397532 50 
0.392583 -0.313229 0.398273 50 
0.394839 -0.312687 0.400254 44 
0.392779 -0.313187 0.400509 48 
0.394811 -0.312699 0.402411 44 
0.393583 -0.312997 0.402997 46 
0.394786 -0.31271 0.404572 40 
0.398148 -0.311901 0.40704 42 
0.394916 -0.312683 0.406801 37 
0.397743 -0.312004 0.409064 35 
0.395278 -0.312601 0.409132 33 
0.395651 -0.312514 0.410381 32 
0.403257 -0.31068 0.414681 30 
0.394871 -0.312707 0.412241 27 
0.395246 -0.312619 0.413495 32 
0.396852 -0.312234 0.415278 30 
0.395847 -0.312479 0.415947 30 
0.396073 -0.312427 0.417145 40 
0.398539 -0.311834 0.419317 31 
0.401581 -0.311103 0.421752 34 
0.402603 -0.310859 0.423316 37 
0.400013 -0.311487 0.423293 38 
0.396829 -0.312257 0.422998 38 
0.400326 -0.311416 0.425662 33 
0.401268 -0.311191 0.4272 33 
0.397991 -0.311985 0.426848 37 
0.40293 -0.310796 0.430192 38 
0.403648 -0.310625 0.431643 32 
0.406849 -0.309856 0.434231 40 
0.405172 -0.310263 0.4346 37 
0.404381 -0.310456 0.435371 67 
0.404788 -0.310361 0.436692 46 
0.407688 -0.309664 0.439175 43 
0.405606 -0.310169 0.439347 42 
0.242012 -0.345812 0.0175542 8 
2.42346 0.20348 -1.05529 6 
0.0779624 -0.387119 0.0978071 8 
0.398196 -0.306493 -0.0557338 7 
0.31846 -0.326571 -0.0160878 6 
0.373641 -0.31268 -0.0416558 8 
1.84656 0.058154 -0.745144 7 
1.02927 -0.147624 -0.350741 7 
0.100303 -0.381502 0.0906532 8 
0.0891494 -0.384311 0.0962227 7 
0.735548 -0.221585 -0.205098 7 
0.204871 -0.355183 0.0442022 7 
0.161069 -0.366211 0.0649842 8 
0.209989 -0.353898 0.0432682 7 
0.766757 -0.213746 -0.212103 7 
0.192126 -0.358398 0.0527872 8 
0.328728 -0.324015 -0.00839878 7 
0.39183 -0.308134 -0.0360078 7 
0.344656 -0.320011 -0.0136408 7 
0.174032 -0.362958 0.0635052 8 
0.0805864 -0.386478 0.104936 8 
0.00271337 -0.406074 0.137893 7 
0.682639 -0.234954 -0.159491 7 
0.380479 -0.311006 -0.0244238 7 
0.0647694 -0.390462 0.113328 9 
0.197205 -0.357136 0.0573102 7 
0.139554 -0.371645 0.0826472 8 
0.40488 -0.304875 -0.0306898 8 
0.106042 -0.38008 0.0978239 9 
0.400276 -0.306039 -0.0264858 10 
0.368927 -0.313931 -0.0120438 7 
0.0129244 -0.403511 0.136714 8 
0.233167 -0.348098 0.0470322 11 
0.168109 -0.364469 0.0747662 9 
0.535161 -0.272111 -0.0772998 8 
0.438417 -0.296458 -0.0357028 7 
0.361744 -0.315753 -0.00286579 9 
0.400504 -0.306002 -0.0177628 8 
0.404665 -0.304958 -0.0183648 8 
0.325114 -0.324976 0.0150532 9 
0.135863 -0.372592 0.0918542 8 
0.395691 -0.307224 -0.0114388 10 
2.81082 0.300402 -0.98161 7 
0.198842 -0.356752 0.0687862 8 
-0.0193703 -0.411642 0.15189 8 
0.699945 -0.230691 -0.127236 8 
2.54718 0.234019 -0.85307 9 
0.426272 -0.299546 -0.0168718 9 
0.416164 -0.302091 -0.0118088 11 
0.433994 -0.297608 -0.0175678 9 
0.370105 -0.313682 0.00809321 8 
0.421064 -0.300866 -0.0103208 11 
0.475285 -0.28723 -0.0297828 10 
0.0823664 -0.386063 0.118459 8 
0.0942234 -0.383082 0.114597 9 
0.409552 -0.303772 -0.00151878 9 
0.422903 -0.300417 -0.00537479 14 
0.421806 -0.300695 -0.00384278 9 
2.61025 0.249728 -0.80949 9 
0.715982 -0.226713 -0.109187 9 
0.313844 -0.327856 0.0386532 8 
0.429915 -0.298666 -0.00228178 10 
0.427674 -0.299233 -0.000341786 12 
0.160998 -0.3663 0.0954012 8 
0.425799 -0.29971 0.00258522 10 
1.58799 -0.00744395 -0.407618 8 
0.422928 -0.300437 0.00584121 12 
0.436585 -0.297005 0.00219722 9 
0.414976 -0.302442 0.0108292 13 
0.425829 -0.299715 0.00819121 11 
0.462948 -0.290384 -0.00340079 10 
0.422718 -0.300503 0.0114902 12 
0.913907 -0.176998 -0.153974 10 
0.425784 -0.299737 0.0126842 12 
0.419579 -0.3013 0.0158742 13 
0.420174 -0.301152 0.0167802 11 
0.419193 -0.301402 0.0182082 12 
0.429687 -0.298766 0.0158662 15 
0.42256 -0.30056 0.0193112 10 
0.43432 -0.297606 0.0166072 15 
0.421256 -0.300893 0.0219422 12 
0.0257514 -0.400321 0.147334 13 
0.425753 -0.299768 0.0227162 15 
0.438088 -0.296669 0.0199292 12 
0.431707 -0.298276 0.0230652 11 
0.438837 -0.296487 0.0219612 14 
0.422216 -0.300667 0.0282432 14 
0.439323 -0.29637 0.0240772 17 
0.424363 -0.300133 0.0297832 16 
0.0471394 -0.394952 0.143738 11 
0.319723 -0.32644 0.0634992 13 
0.431264 -0.298406 0.0310172 17 
0.43285 -0.29801 0.0316582 15 
0.431664 -0.29831 0.0331242 21 
0.437723 -0.29679 0.0324572 20 
0.423969 -0.30025 0.0375912 19 
0.425095 -0.299969 0.0383602 18 
0.426649 -0.299581 0.0390092 18 
0.426767 -0.299554 0.0400752 21 
0.437348 -0.296897 0.0381732 15 
0.430163 -0.298706 0.0413152 18 
0.43566 -0.297327 0.0408822 16 
0.432303 -0.298173 0.0429272 16 
0.433119 -0.297971 0.0438092 19 
0.428685 -0.299087 0.0461282 21 
0.427194 -0.299465 0.0476302 21 
0.232898 -0.34829 0.100888 15 
0.419833 -0.301319 0.0517852 17 
0.428253 -0.299206 0.0506292 19 
0.424159 -0.300237 0.0528002 22 
0.434623 -0.297611 0.0511502 22 
0.4325 -0.298147 0.0528052 23 
0.431168 -0.298484 0.0542482 22 
0.355781 -0.317427 0.0745822 25 
0.355321 -0.317545 0.0756442 40 
0.351646 -0.318471 0.0775102 43 
0.345944 -0.319906 0.0798662 52 
0.341039 -0.32114 0.0820012 53 
0.338711 -0.321727 0.0834842 56 
0.337407 -0.322057 0.0847102 66 
0.334712 -0.322736 0.0862642 72 
0.332626 -0.323262 0.0876622 70 
0.331703 -0.323496 0.0887752 73 
0.33033 -0.323843 0.0899902 80 
0.329079 -0.324159 0.0911712 76 
0.326993 -0.324685 0.0925382 75 
0.325206 -0.325136 0.0938292 78 
0.325318 -0.32511 0.0946812 81 
0.325264 -0.325126 0.0955702 82 
0.323881 -0.325475 0.0967551 88 
0.322452 -0.325836 0.0979439 81 
0.321798 -0.326002 0.098957 87 
0.321693 -0.326031 0.0998479 83 
0.319415 -0.326605 0.101205 89 
0.319691 -0.326538 0.102009 84 
0.319589 -0.326565 0.102893 84 
0.319596 -0.326565 0.103753 86 
0.318739 -0.326783 0.104792 83 
0.319503 -0.326593 0.105494 86 
0.319187 -0.326674 0.106418 87 
0.318657 -0.326809 0.107384 85 
0.318559 -0.326836 0.108261 86 
0.317711 -0.327051 0.109285 84 
0.318258 -0.326915 0.110033 81 
0.318323 -0.326901 0.110876 85 
0.31796 -0.326994 0.1118 97 
0.318348 -0.326899 0.11258 94 
0.31906 -0.326722 0.113301 102 
0.31816 -0.32695 0.114323 103 
0.319141 -0.326706 0.114996 102 
0.319048 -0.326731 0.115867 100 
0.31858 -0.32685 0.116805 106 
0.319187 -0.3267 0.117549 103 
0.31915 -0.326711 0.118409 107 
0.319113 -0.326723 0.119268 124 
0.320101 -0.326476 0.11995 125 
0.320823 -0.326297 0.120681 127 
0.322146 -0.325967 0.121313 130 
0.323095 -0.325731 0.122013 134 
0.322731 -0.325824 0.122931 135 
0.323573 -0.325615 0.123651 126 
0.323265 -0.325694 0.124559 127 
0.323396 -0.325663 0.125395 127 
0.324517 -0.325384 0.126077 132 
0.325866 -0.325047 0.126728 135 
0.325944 -0.32503 0.127577 133 
0.326912 -0.324789 0.128293 137 
0.327718 -0.324589 0.129035 140 
0.327854 -0.324556 0.129879 129 
0.329788 -0.324073 0.130463 136 
0.330492 -0.323898 0.131229 137 
0.331482 -0.323652 0.131958 141 
0.330547 -0.323889 0.132957 130 
0.331936 -0.323542 0.133634 126 
0.332763 -0.323336 0.134392 128 
0.333593 -0.32313 0.135153 130 
0.335522 -0.322648 0.135772 133 
0.33619 -0.322482 0.136561 128 
0.338551 -0.321892 0.137137 126 
0.338877 -0.321812 0.137977 120 
0.34038 -0.321437 0.138672 118 
0.342251 -0.320969 0.139328 116 
0.344018 -0.320528 0.140004 108 
0.346767 -0.31984 0.14057 112 
0.347776 -0.319589 0.141348 108 
0.350264 -0.318967 0.141961 119 
0.35061 -0.318882 0.142824 117 
0.352009 -0.318533 0.143572 116 
0.353169 -0.318245 0.14435 106 
0.355779 -0.317592 0.144979 109 
0.358738 -0.316851 0.14558 104 
0.360575 -0.316393 0.146308 96 
0.364575 -0.315391 0.146825 89 
0.367979 -0.31454 0.147416 87 
0.372781 -0.313337 0.147885 93 
0.374662 -0.312867 0.148649 99 
0.376147 -0.312497 0.149456 96 
0.379233 -0.311725 0.150123 88 
0.382923 -0.310801 0.150748 79 
0.390417 -0.308924 0.151055 73 
0.398291 -0.306951 0.151358 75 
0.402883 -0.305801 0.151965 89 
0.403246 -0.305712 0.152934 91 
0.403077 -0.305757 0.153946 92 
0.405206 -0.305225 0.154779 79 
0.464061 -0.290465 0.15132 68 
0.463467 -0.290616 0.152479 79 
0.464115 -0.290457 0.153546 80 
0.464192 -0.29044 0.154656 79 
0.463507 -0.290614 0.155817 80 
0.462541 -0.290859 0.156994 80 
0.461579 -0.291103 0.158167 88 
0.46034 -0.291416 0.159353 89 
0.461178 -0.291209 0.160409 92 
0.459004 -0.291756 0.161644 86 
0.460029 -0.291502 0.16269 85 
0.459177 -0.291718 0.163842 86 
0.458049 -0.292004 0.165005 87 
0.459075 -0.291749 0.166054 90 
0.455625 -0.292617 0.167325 93 
0.457576 -0.29213 0.16833 86 
0.455625 -0.292622 0.169518 97 
0.455072 -0.292763 0.170638 94 
0.45628 -0.292463 0.171682 103 
0.454066 -0.29302 0.172866 93 
0.454349 -0.292952 0.173948 100 
0.454726 -0.29286 0.175028 94 
0.453629 -0.293137 0.176158 100 
0.452081 -0.293528 0.177299 99 
0.451454 -0.293688 0.178406 96 
0.452748 -0.293366 0.179457 96 
0.45048 -0.293937 0.180605 99 
0.451955 -0.29357 0.181655 95 
0.451698 -0.293637 0.182748 96 
0.449172 -0.294273 0.183886 91 
0.447839 -0.294609 0.184993 98 
0.446961 -0.294832 0.186087 97 
0.447253 -0.294761 0.187161 102 
0.446112 -0.29505 0.188253 100 
0.445333 -0.295248 0.189338 103 
