0.43799,-0.0918734,0.0021935,137
0.437011,-0.0915425,0.0030015,136
0.436137,-0.091247,0.00380681,135
0.436108,-0.0912392,0.00461943,142
0.43598,-0.0911978,0.00543054,143
0.435359,-0.0909883,0.00623301,148
0.435629,-0.091082,0.00704959,142
0.436246,-0.091294,0.0078744,147
0.436022,-0.0912196,0.00868281,142
0.435007,-0.0908765,0.00947114,141
0.433998,-0.0905352,0.0102557,136
0.434171,-0.0905958,0.0110698,136
0.433951,-0.0905229,0.0118728,138
0.432753,-0.0901175,0.0126436,142
0.432243,-0.0899461,0.0134332,139
0.431735,-0.0897752,0.014221,145
0.432249,-0.0899519,0.0150458,144
0.431936,-0.0898475,0.0158397,144
0.430995,-0.0895292,0.016606,141
0.43054,-0.0893765,0.0173901,138
0.42927,-0.0889463,0.0181352,142
0.429395,-0.088991,0.0189421,139
0.429378,-0.0889869,0.0197426,144
0.428785,-0.0887872,0.0205133,143
0.4292,-0.0889302,0.021336,143
0.427606,-0.0883901,0.0220486,131
0.426973,-0.0881765,0.0228105,135
0.427576,-0.0883835,0.0236436,139
0.426469,-0.088009,0.0243741,129
0.425935,-0.0878292,0.0251368,142
0.426016,-0.0878587,0.0259377,142
0.425484,-0.0876796,0.0266979,140
0.425048,-0.0875332,0.0274628,139
0.424519,-0.0873553,0.0282195,139
0.424743,-0.0874332,0.0290294,135
0.424685,-0.0874154,0.0298193,134
0.42491,-0.0874938,0.0306309,126
0.423868,-0.0871413,0.0313433,126
0.423859,-0.0871401,0.0321356,132
0.422917,-0.0868214,0.0328505,132
0.423842,-0.0871381,0.0337208,136
0.423554,-0.0870419,0.0344893,134
0.423593,-0.0870572,0.035286,131
0.423447,-0.0870092,0.0360662,132
0.422927,-0.0868344,0.0368114,126
0.422782,-0.0867868,0.0375902,116
0.42273,-0.086771,0.0383778,125
0.421796,-0.0864553,0.0390783,120
0.423795,-0.0871371,0.0400707,117
0.422764,-0.0867882,0.0407601,120
0.42318,-0.0869318,0.0415972,129
0.423973,-0.0872033,0.0424763,124
0.422942,-0.0868546,0.0431608,122
0.423127,-0.0869194,0.0439759,124
0.423827,-0.0871595,0.0448499,122
0.423452,-0.0870338,0.0456039,119
0.422845,-0.0868291,0.0463296,128
0.423359,-0.0870059,0.047186,128
0.423219,-0.0869603,0.047966,125
0.423829,-0.0871697,0.0488375,121
0.423223,-0.0869652,0.0495603,122
0.422432,-0.086698,0.0502578,126
0.424259,-0.0873217,0.0512885,129
0.423887,-0.0871969,0.05204,125
0.423375,-0.0870248,0.052772,121
0.423661,-0.0871238,0.0536092,122
0.423665,-0.0871273,0.0544097,122
0.424846,-0.0875311,0.0553731,127
0.423442,-0.0870553,0.0559791,115
0.424059,-0.0872669,0.0568671,115
0.423643,-0.0871274,0.0576091,128
0.42351,-0.0870839,0.058391,127
0.42441,-0.0873923,0.059326,134
0.424089,-0.087285,0.0600814,138
0.425088,-0.0876269,0.0610368,132
0.424343,-0.0873751,0.0617276,135
0.424165,-0.0873163,0.0625044,129
0.424411,-0.087402,0.0633478,129
0.423294,-0.0870237,0.0639745,124
0.424716,-0.0875098,0.0650086,131
0.425059,-0.0876284,0.0658717,129
0.424882,-0.0875702,0.0666503,121
0.423388,-0.0870636,0.0672072,121
0.425193,-0.0876797,0.0683193,112
0.425871,-0.0879125,0.0692453,111
0.425743,-0.0878709,0.0700341,114
0.425901,-0.0879266,0.0708731,115
0.424968,-0.0876109,0.071519,112
0.426504,-0.0881359,0.0726061,120
0.426569,-0.0881598,0.0734319,123
0.426968,-0.0882977,0.0743199,120
0.427273,-0.0884036,0.0751925,126
0.428638,-0.0888701,0.0762659,130
0.427455,-0.0884692,0.076861,130
0.426851,-0.0882658,0.0775633,140
0.426967,-0.0883071,0.078403,143
0.427755,-0.0885773,0.0793755,143
0.428547,-0.0888488,0.0803523,141
0.42852,-0.0888417,0.0811691,148
0.428446,-0.0888184,0.0819765,147
0.428227,-0.088746,0.0827548,150
0.428058,-0.0886902,0.0835426,145
0.428709,-0.0889139,0.0845011,150
0.429072,-0.0890394,0.0854021,148
0.429388,-0.0891489,0.0862951,147
0.429851,-0.0893085,0.0872213,137
0.429779,-0.0892862,0.0880345,130
0.42966,-0.0892476,0.0888373,135
0.431887,-0.090008,0.090157,135
0.431572,-0.0899025,0.0909209,135
0.431257,-0.0897972,0.0916844,138
0.431335,-0.0898258,0.0925359,137
0.430727,-0.089621,0.0932318,139
0.431787,-0.0899839,0.0943099,135
0.432212,-0.0901306,0.0952451,132
0.431358,-0.0898416,0.0958828,129
0.432275,-0.090156,0.0969365,127
0.432505,-0.0902363,0.0978304,121
0.434324,-0.090858,0.0991082,124
0.433413,-0.0905497,0.0997316,127
0.433895,-0.0907157,0.100692,126
0.435429,-0.0912401,0.101915,132
0.434613,-0.0909645,0.102561,135
0.43515,-0.0911492,0.103543,132
0.435036,-0.0911126,0.104363,140
0.436129,-0.0914866,0.105491,143
0.436621,-0.0916563,0.106469,142
0.437115,-0.0918266,0.107451,136
0.436952,-0.0917731,0.108263,132
0.436486,-0.0916165,0.108996,128
0.437742,-0.0920465,0.110185,125
0.437936,-0.0921146,0.111095,120
0.439562,-0.0926704,0.112392,127
0.438837,-0.0924254,0.113058,120
0.439341,-0.0925992,0.114058,118
0.437598,-0.0920074,0.114442,112
0.440251,-0.0929136,0.11604,107
0.440194,-0.092896,0.116891,106
0.439776,-0.0927558,0.117641,111
0.440492,-0.0930017,0.118711,110
0.440694,-0.0930726,0.119639,117
0.440225,-0.0929149,0.120374,111
0.440066,-0.092863,0.121199,116
0.440166,-0.092899,0.122099,102
0.441665,-0.0934116,0.123411,104
0.441766,-0.0934484,0.124316,105
0.441817,-0.0934676,0.125207,107
0.441555,-0.0933807,0.126006,96
0.442701,-0.0937733,0.127229,103
0.442127,-0.0935796,0.127934,101
0.443225,-0.093956,0.129151,104
0.44286,-0.0938335,0.12992,102
0.443385,-0.0940147,0.130966,108
0.442968,-0.0938745,0.13172,113
0.44297,-0.0938774,0.132605,115
0.442554,-0.0937376,0.133358,109
0.442766,-0.0938122,0.13431,108
0.443085,-0.0939227,0.135298,108
0.442669,-0.0937833,0.136051,111
0.443251,-0.0939837,0.137127,105
0.443046,-0.0939159,0.137949,99
0.443367,-0.0940274,0.138944,95
0.443267,-0.0939957,0.139802,101
0.442224,-0.0936422,0.140345,103
0.442178,-0.0936287,0.141219,109
0.441557,-0.0934192,0.1419,106
0.440678,-0.0931218,0.142491,108
0.441834,-0.0935176,0.143775,97
0.441423,-0.0933799,0.144526,101
0.440337,-0.0930119,0.145042,104
0.441127,-0.0932833,0.146207,104
0.440355,-0.093022,0.146829,96
0.439119,-0.092603,0.147285,96
0.44053,-0.093086,0.148675,103
0.44028,-0.0930029,0.14948,106
0.4392,-0.0926369,0.149986,103
0.4389,-0.0925367,0.15077,113
0.438394,-0.0923663,0.151479,109
0.437786,-0.0921613,0.152149,106
0.438055,-0.0922551,0.15314,106
0.436935,-0.0918754,0.153619,107
0.437357,-0.0920216,0.154668,105
0.436856,-0.0918528,0.155373,109
0.43656,-0.0917542,0.156155,104
0.435601,-0.0914293,0.156686,109
0.435053,-0.0912445,0.157369,114
0.434506,-0.0910603,0.158052,118
0.433657,-0.0907729,0.158617,122
0.434431,-0.0910389,0.159806,118
0.433785,-0.0908208,0.160447,115
0.432787,-0.0904828,0.16095,114
0.431794,-0.0901464,0.16145,113
0.43216,-0.0902732,0.162484,112
0.43097,-0.0898695,0.162902,103
0.431636,-0.0900988,0.164057,113
0.4314,-0.0900203,0.164854,100
0.430964,-0.0898737,0.165569,98
0.431129,-0.0899323,0.166528,93
0.430294,-0.0896496,0.16708,97
0.43051,-0.0897253,0.16806,90
0.429876,-0.0895114,0.168692,89
0.429145,-0.0892642,0.169282,94
0.429261,-0.0893058,0.170222,90
0.428979,-0.0892118,0.170997,83
0.42835,-0.0889995,0.171625,84
0.42802,-0.088889,0.172378,79
0.428632,-0.0891001,0.173531,72
0.429597,-0.0894311,0.174838,63
0.428072,-0.0889133,0.175081,62
0.428537,-0.089074,0.176177,60
0.426428,-0.0883569,0.17616,67
0.427632,-0.0887694,0.177577,74
0.42681,-0.0884913,0.178115,73
0.427323,-0.0886685,0.179236,76
0.426848,-0.0885086,0.179924,77
0.426719,-0.0884669,0.180765,78
0.427036,-0.0885769,0.181805,79
0.426463,-0.0883837,0.182448,81
0.427176,-0.088629,0.183669,81
0.426652,-0.0884526,0.184333,81
0.425982,-0.0882261,0.18493,80
0.426003,-0.0882355,0.185841,76
0.427014,-0.0885823,0.187208,73
0.425307,-0.0880024,0.187325,74
0.426167,-0.0882979,0.188627,72
0.426437,-0.0883921,0.189658,70
0.425571,-0.0880987,0.190158,72
0.425643,-0.0881255,0.191098,90
0.424681,-0.0877996,0.19155,69
0.424852,-0.08786,0.192537,67
0.425664,-0.0881392,0.193832,66
0.41587,-0.080387,-0.20026,10
0.29766,-0.0413697,-0.140684,7
0.42912,-0.0847649,-0.20506,10
0.412271,-0.0792054,-0.195814,9
0.468441,-0.097749,-0.222597,9
0.48612,-0.103587,-0.230273,8
0.419119,-0.0814723,-0.196516,10
0.148709,0.00779781,-0.0670636,7
0.522381,-0.115565,-0.244727,8
0.417211,-0.0808488,-0.192925,7
1.38792,-0.401302,-0.659938,7
1.24932,-0.355553,-0.590278,7
0.420778,-0.0820327,-0.191964,10
0.335871,-0.0540028,-0.151086,6
0.305531,-0.0439877,-0.136234,9
0.420245,-0.0818631,-0.189046,11
0.419068,-0.0814763,-0.187611,7
0.423798,-0.0830404,-0.18892,9
0.418197,-0.0811933,-0.185444,11
0.417223,-0.0808735,-0.184117,10
0.421617,-0.0823265,-0.185248,11
0.423226,-0.08286,-0.185095,11
0.418974,-0.0814582,-0.182282,15
0.419609,-0.0816698,-0.18169,13
0.419104,-0.081505,-0.180585,14
0.416062,-0.0805027,-0.178352,16
0.417534,-0.0809907,-0.178136,18
0.421878,-0.0824274,-0.179183,14
0.425141,-0.0835069,-0.179737,14
0.418674,-0.0813736,-0.176023,15
0.425273,-0.0835549,-0.178023,15
0.419897,-0.0817816,-0.17481,10
0.416759,-0.0807472,-0.172585,13
0.420412,-0.0819557,-0.173286,14
0.420384,-0.0819486,-0.172402,18
0.423859,-0.0830984,-0.173006,12
0.423251,-0.0828995,-0.171871,19
0.421351,-0.0822741,-0.170197,13
0.425814,-0.0837503,-0.171192,15
0.424909,-0.0834534,-0.169936,13
0.421032,-0.0821752,-0.167455,14
0.422105,-0.0825315,-0.167028,18
0.422366,-0.0826198,-0.166266,15
0.42714,-0.0841988,-0.167341,14
0.422746,-0.0827495,-0.164682,14
0.423201,-0.0829018,-0.163997,14
0.426715,-0.0840647,-0.164537,14
0.424355,-0.0832872,-0.162721,18
0.42598,-0.0838258,-0.162495,13
0.425905,-0.0838033,-0.161594,16
0.423751,-0.0830936,-0.159877,15
0.428301,-0.084599,-0.160787,14
0.426269,-0.0839295,-0.159123,12
0.430924,-0.0854694,-0.160051,21
0.429063,-0.0848569,-0.158457,14
0.425371,-0.0836392,-0.156173,17
0.426514,-0.0840188,-0.155741,19
0.427761,-0.0844328,-0.155344,24
0.425545,-0.0837029,-0.153643,22
0.426299,-0.0839542,-0.153061,28
0.427741,-0.0844324,-0.152731,27
0.429636,-0.0850606,-0.152564,25
0.427354,-0.0843089,-0.150856,22
0.428655,-0.0847407,-0.150466,24
0.430112,-0.0852242,-0.150128,28
0.429695,-0.0850885,-0.149108,27
0.43101,-0.085525,-0.148712,29
0.430147,-0.0852418,-0.147534,24
0.431117,-0.0855643,-0.147011,31
0.431394,-0.085658,-0.14624,26
0.429839,-0.0851462,-0.144827,31
0.431055,-0.0855503,-0.144387,33
0.431334,-0.0856443,-0.143617,41
0.431066,-0.085558,-0.142659,34
0.431593,-0.0857342,-0.141974,35
0.43277,-0.0861251,-0.141509,33
0.433702,-0.0864353,-0.140957,38
0.431787,-0.0858042,-0.139445,40
0.432965,-0.0861956,-0.138975,38
0.432997,-0.0862084,-0.13812,34
0.431884,-0.0858426,-0.136889,31
0.435323,-0.0869811,-0.137153,28
0.433546,-0.086396,-0.135707,31
0.43288,-0.0861781,-0.134628,33
0.432765,-0.086142,-0.133729,29
0.435357,-0.0870007,-0.133695,28
0.436657,-0.0874323,-0.133242,26
0.43412,-0.0865958,-0.131575,30
0.434858,-0.086842,-0.130944,35
0.436054,-0.0872393,-0.130454,35
0.435888,-0.0871865,-0.129538,34
0.436583,-0.0874181,-0.128888,36
0.435962,-0.0872151,-0.127834,34
0.434992,-0.0868965,-0.126678,40
0.436442,-0.0873778,-0.126255,40
0.434868,-0.0868594,-0.124923,38
0.435258,-0.0869906,-0.12418,35
0.435197,-0.0869724,-0.123304,34
0.435438,-0.087054,-0.122517,33
0.434424,-0.086721,-0.121365,34
0.435167,-0.0869685,-0.120724,35
0.434706,-0.0868182,-0.119737,39
0.435701,-0.0871493,-0.119166,34
0.434539,-0.0867671,-0.117982,34
0.433235,-0.086338,-0.116764,35
0.434924,-0.0868985,-0.116385,35
0.435771,-0.0871803,-0.115766,41
0.436066,-0.0872799,-0.114994,35
0.436261,-0.0873465,-0.114194,40
0.436104,-0.0872966,-0.113298,41
0.434894,-0.0868986,-0.112122,46
0.433991,-0.086602,-0.111033,42
0.435185,-0.086999,-0.110501,46
0.433735,-0.0865213,-0.109273,45
0.432888,-0.0862434,-0.108208,48
0.433679,-0.086507,-0.107569,47
0.433528,-0.086459,-0.106686,51
0.433377,-0.0864112,-0.105805,50
0.432585,-0.086151,-0.104764,57
0.434619,-0.0868256,-0.104431,58
0.433177,-0.086351,-0.103231,57
0.432634,-0.0861733,-0.102257,57
0.432043,-0.0859799,-0.101275,61
0.430867,-0.085593,-0.100154,63
0.431506,-0.0858062,-0.0994735,68
0.431214,-0.0857117,-0.0985696,59
0.43024,-0.0853915,-0.0975066,61
0.429416,-0.0851212,-0.0964834,54
0.428887,-0.0849483,-0.0955322,61
0.429037,-0.0849998,-0.0947393,61
0.428559,-0.0848435,-0.0938034,61
0.428227,-0.0847357,-0.092903,62
0.4278,-0.0845963,-0.0919831,70
0.427566,-0.084521,-0.0911083,67
0.42815,-0.0847163,-0.0904144,74
0.426336,-0.0841181,-0.0891971,72
0.426106,-0.0840439,-0.0883288,71
0.424311,-0.0834524,-0.0871283,62
0.424747,-0.0835982,-0.0864065,65
0.424615,-0.0835565,-0.0855647,69
0.424153,-0.0834056,-0.0846555,75
0.425014,-0.0836926,-0.0840205,73
0.424033,-0.08337,-0.0830077,75
0.423574,-0.0832202,-0.0821044,70
0.424718,-0.0836004,-0.0815228,73
0.42313,-0.083077,-0.0803981,68
0.424036,-0.0833787,-0.0797673,72
0.425089,-0.0837287,-0.0791616,72
0.425008,-0.083704,-0.0783353,77
0.424786,-0.0836325,-0.0774831,74
0.424329,-0.0834832,-0.076588,78
0.425431,-0.0838499,-0.0759843,81
0.424691,-0.0836067,-0.0750386,82
0.424235,-0.0834581,-0.0741481,78
0.424299,-0.0834811,-0.0733529,81
0.424223,-0.0834576,-0.0725329,81
0.424617,-0.0835901,-0.0717963,84
0.425723,-0.0839579,-0.0711818,86
0.4256,-0.0839189,-0.0703526,84
0.425903,-0.0840213,-0.0695966,82
0.42526,-0.0838103,-0.0686812,83
0.425422,-0.0838659,-0.067902,86
0.42431,-0.0834999,-0.0669142,85
0.425558,-0.0839148,-0.0663125,82
0.426623,-0.0842692,-0.065677,81
0.426028,-0.0840741,-0.0647759,82
0.425529,-0.0839111,-0.0638926,92
0.425552,-0.0839206,-0.0630917,88
0.425765,-0.0839929,-0.0623199,92
0.426406,-0.0842067,-0.0616116,92
0.425672,-0.0839658,-0.0606981,97
0.426313,-0.0841798,-0.0599882,93
0.426291,-0.0841744,-0.0591808,96
0.427172,-0.0844681,-0.0585019,104
0.427151,-0.084463,-0.0576936,106
0.427416,-0.0845527,-0.0569253,115
0.427396,-0.0845479,-0.0561173,115
0.427472,-0.0845749,-0.0553227,111
0.428073,-0.0847759,-0.0545974,111
0.428007,-0.0847557,-0.0537832,114
0.428611,-0.0849575,-0.0530554,119
0.428018,-0.0847634,-0.0521747,113
0.428288,-0.0848546,-0.0514036,112
0.428798,-0.0850253,-0.0506611,103
0.42931,-0.0851967,-0.049917,106
0.429872,-0.0853845,-0.0491772,105
0.429326,-0.085206,-0.0483067,112
0.429263,-0.085187,-0.0474937,111
0.429586,-0.0852956,-0.0467245,110
0.429909,-0.0854045,-0.0459544,117
0.430475,-0.0855937,-0.0452095,115
0.430752,-0.0856873,-0.044432,106
0.431224,-0.0858455,-0.043674,108
0.431503,-0.0859398,-0.0428946,114
0.431006,-0.0857773,-0.0420363,121
0.431092,-0.0858077,-0.0412377,124
0.431033,-0.0857901,-0.0404249,129
0.431751,-0.0860296,-0.0396861,131
0.431839,-0.0860606,-0.0388864,135
0.432219,-0.0861885,-0.038113,134
0.432162,-0.0861715,-0.0372995,133
0.433816,-0.0867211,-0.0366351,131
0.43239,-0.0862509,-0.0357029,128
0.432579,-0.0863151,-0.0349103,126
0.433501,-0.0866225,-0.0341767,126
0.434724,-0.0870292,-0.0334634,131
0.43462,-0.0869967,-0.0326432,130
0.434369,-0.0869156,-0.0318126,128
0.435351,-0.0872426,-0.0310733,125
0.434262,-0.0868842,-0.0301829,126
0.435344,-0.0872441,-0.0294472,128
0.435786,-0.0873926,-0.0286645,125
0.436528,-0.0876402,-0.0278997,133
0.435733,-0.0873789,-0.0270347,140
0.436377,-0.0875939,-0.0262614,141
0.436724,-0.0877108,-0.0254681,140
0.436724,-0.0877128,-0.0246536,137
0.437223,-0.0878799,-0.023867,139
0.437025,-0.0878162,-0.0230411,138
0.437975,-0.0881328,-0.0222755,136
0.437378,-0.087937,-0.0214293,132
0.43803,-0.088155,-0.0206453,129
0.437984,-0.0881415,-0.0198268,133
0.438188,-0.0882111,-0.0190197,132
0.438593,-0.0883473,-0.0182202,141
0.439453,-0.0886341,-0.0174375,140
0.439308,-0.0885879,-0.0166132,149
0.438711,-0.0883922,-0.0157733,142
0.439977,-0.0888133,-0.0149994,147
0.439329,-0.0886006,-0.014159,139
0.439337,-0.0886053,-0.013341,144
0.43985,-0.0887771,-0.0125374,141
0.439758,-0.0887487,-0.0117159,138
0.439718,-0.0887372,-0.0108961,142
0.440385,-0.0889601,-0.0100923,141
0.43984,-0.0887817,-0.0092612,140
0.439801,-0.0887708,-0.00844161,146
0.439915,-0.0888102,-0.00762474,141
0.439978,-0.0888331,-0.00680673,143
0.440244,-0.0889232,-0.00599108,138
0.439652,-0.0887292,-0.00516517,142
0.440627,-0.089054,-0.00435542,138
0.440086,-0.0888767,-0.00353145,136
0.440203,-0.0889174,-0.00271285,142
0.44032,-0.0889583,-0.0018938,133
0.439883,-0.0888152,-0.00107371,137
0.439497,-0.0886894,-0.000255278,133
0.439113,-0.0885639,0.000561665,130
0.439081,-0.0885554,0.00137882,135
0.438648,-0.088414,0.00219316,132
0.438417,-0.0883395,0.0030076,136
0.43899,-0.0885311,0.00382972,132
0.438961,-0.0885233,0.00464653,136
0.43803,-0.0882168,0.00545013,137
0.437652,-0.0880936,0.00625928,143
0.437525,-0.0880534,0.00707163,138
0.436205,-0.087618,0.0078592,141
0.437123,-0.0879242,0.0086917,138
0.436302,-0.0876542,0.00948559,134
0.435139,-0.0872708,0.0102674,134
0.435313,-0.0873302,0.0110824,134
0.434451,-0.0870467,0.0118669,134
0.433692,-0.0867971,0.0126515,136
0.433474,-0.0867267,0.0134515,136
0.432817,-0.0865109,0.0142351,137
0.43304,-0.0865867,0.0150495,144
0.432629,-0.0864524,0.0158397,144
0.431927,-0.0862219,0.0166161,142
0.430938,-0.0858961,0.0173774,142
0.430678,-0.0858117,0.0181682,141
0.43066,-0.0858076,0.0189697,134
0.430883,-0.0858836,0.0197833,142
0.42995,-0.0855761,0.0205381,142
0.430319,-0.0857002,0.0213592,133
0.429436,-0.0854098,0.0221124,135
0.428941,-0.0852476,0.0228845,130
0.428543,-0.0851177,0.0236606,131
0.428386,-0.0850672,0.0244501,134
0.427514,-0.0847801,0.0251939,136
0.427691,-0.0848407,0.0260028,135
0.427297,-0.0847122,0.0267743,140
0.426763,-0.084537,0.0275347,138
0.426893,-0.0845821,0.0283404,139
0.426977,-0.0846117,0.0291434,134
0.425924,-0.0842648,0.0298617,136
0.426671,-0.0845142,0.0307146,130
0.426425,-0.0844344,0.0314921,128
0.42599,-0.0842921,0.0322536,126
0.425226,-0.084041,0.0329865,133
0.425124,-0.084009,0.0337725,130
0.424084,-0.0836661,0.0344771,130
0.42417,-0.0836966,0.0352777,129
0.42393,-0.0836187,0.0360492,137
0.423549,-0.0834946,0.036807,129
0.424386,-0.0837738,0.0376787,124
0.423258,-0.0834019,0.0383643,128
0.423721,-0.083557,0.0392023,128
0.42381,-0.0835885,0.0400048,124
0.424134,-0.0836978,0.040832,127
0.42399,-0.0836521,0.0416119,125
0.425068,-0.0840111,0.0425214,124
0.424407,-0.0837941,0.0432471,124
0.42375,-0.083578,0.0439707,126
0.424734,-0.083906,0.0448763,128
0.424029,-0.0836743,0.0455932,126
0.424357,-0.083785,0.0464276,122
0.424311,-0.0837715,0.0472192,125
0.425867,-0.0842893,0.0482036,128
0.424219,-0.0837449,0.0488031,119
0.424785,-0.0839344,0.049671,120
0.426062,-0.0843599,0.0506312,123
0.425592,-0.0842059,0.051373,123
0.42588,-0.0843031,0.0522118,125
0.425175,-0.0840713,0.052921,120
0.424614,-0.0838872,0.053647,123
0.425421,-0.0841566,0.054557,119
0.425096,-0.0840508,0.0553145,122
0.424772,-0.0839452,0.0560712,118
0.425628,-0.0842311,0.0569943,122
0.426584,-0.08455,0.0579355,123
0.427115,-0.0847282,0.0588189,128
0.425509,-0.0841974,0.0593888,134
0.426561,-0.0845482,0.0603509,131
0.425858,-0.084317,0.0610511,136
0.425158,-0.0840867,0.0617494,135
0.426258,-0.0844534,0.0627255,129
0.426601,-0.0845693,0.0635871,128
0.427137,-0.0847488,0.0644811,134
0.426529,-0.0845492,0.0651928,126
0.425497,-0.0842087,0.0658329,121
0.425699,-0.0842777,0.0666738,120
0.427762,-0.0849638,0.0678278,122
0.426201,-0.0844479,0.0683757,118
0.425645,-0.0842655,0.0690903,116
0.427422,-0.084857,0.0702081,116
0.426435,-0.0845314,0.070848,116
0.427071,-0.0847443,0.0717726,113
0.42843,-0.0851971,0.0728301,118
0.427775,-0.0849816,0.0735275,125
0.428369,-0.0851806,0.0744522,121
0.427379,-0.0848542,0.0750857,128
0.427445,-0.0848781,0.0759138,131
0.427992,-0.0850614,0.0768337,142
0.428879,-0.0853575,0.0778213,145
0.428802,-0.0853342,0.0786266,139
0.428486,-0.085231,0.0793849,135
0.428748,-0.08532,0.0802568,134
0.429156,-0.0854574,0.0811594,141
0.429954,-0.0857241,0.0821426,150
0.429638,-0.085621,0.0829026,158
0.429419,-0.0855503,0.0836819,152
0.429588,-0.0856084,0.0845414,146
0.429952,-0.0857313,0.0854429,143
0.429832,-0.0856932,0.0862437,145
0.43049,-0.0859136,0.0872109,139
0.430516,-0.0859242,0.088045,137
0.432307,-0.0865203,0.0892637,134
0.43199,-0.0864172,0.0900272,129
0.431037,-0.0861031,0.090649,139
0.432539,-0.0866034,0.0918165,143
0.432125,-0.086468,0.0925581,133
0.432155,-0.0864799,0.0933997,138
0.432234,-0.0865082,0.0942533,137
0.433253,-0.0868481,0.0953254,128
0.433483,-0.0869263,0.0962177,128
0.434011,-0.0871037,0.097182,126
0.433845,-0.0870506,0.0979838,124
0.434127,-0.0871462,0.0988929,121
0.435309,-0.0875404,0.100021,120
0.434544,-0.0872886,0.10068,118
0.435529,-0.0876175,0.101767,124
0.436268,-0.0878649,0.102798,125
0.436658,-0.0879961,0.103744,133
0.436594,-0.087977,0.104579,138
0.436935,-0.088092,0.105516,134
0.437226,-0.0881907,0.106443,134
0.437569,-0.0883065,0.107385,132
0.437608,-0.0883217,0.10825,138
0.438462,-0.088607,0.109329,130
0.438248,-0.0885381,0.110131,135
0.438188,-0.08852,0.110972,131
0.438943,-0.0887729,0.112034,130
0.439447,-0.088942,0.11303,115
0.440466,-0.0892824,0.11417,111
0.44015,-0.0891795,0.114949,108
0.440297,-0.0892305,0.115854,107
0.441013,-0.0894702,0.11692,112
0.440904,-0.089436,0.117757,119
0.440383,-0.089265,0.118478,119
0.440532,-0.0893168,0.119388,116
0.440476,-0.0893003,0.120241,115
0.440782,-0.0894039,0.121199,113
0.441037,-0.0894906,0.122144,110
0.441242,-0.0895605,0.123076,107
0.442435,-0.0899586,0.124301,113
0.442537,-0.0899947,0.125207,110
0.44238,-0.0899445,0.126037,102
0.443162,-0.0902065,0.12715,106
0.443477,-0.0903129,0.128125,106
0.442796,-0.0900892,0.128798,107
0.444109,-0.0905269,0.130082,110
0.444268,-0.0905819,0.131015,107
0.445804,-0.0910938,0.132378,106
0.445435,-0.0909736,0.133151,112
0.444962,-0.0908186,0.13389,113
0.444754,-0.0907517,0.134712,114
0.443756,-0.0904224,0.135281,109
0.443813,-0.0904434,0.136187,101
0.443291,-0.0902724,0.136905,99
0.443717,-0.0904159,0.137932,99
0.443933,-0.0904898,0.138892,102
0.443834,-0.0904589,0.139749,105
0.443682,-0.0904106,0.14059,106
0.444269,-0.0906077,0.141678,109
0.443854,-0.090472,0.142431,101
0.443862,-0.0904767,0.143327,107
0.442607,-0.0900621,0.143793,107
0.442773,-0.0901192,0.144742,105
0.442624,-0.0900719,0.145583,100
0.442056,-0.0898854,0.146279,105
0.442117,-0.089908,0.147194,103
0.441603,-0.0897394,0.147907,100
0.441091,-0.0895713,0.14862,102
0.440475,-0.089369,0.149294,106
0.441582,-0.0897387,0.150583,108
0.440184,-0.0892765,0.150976,111
0.439883,-0.0891787,0.151761,105
0.43922,-0.0889606,0.152413,106
0.439076,-0.0889149,0.153253,103
0.438519,-0.088732,0.153942,106
0.439515,-0.089065,0.155204,99
0.438182,-0.0886243,0.155604,99
0.43804,-0.0885792,0.156445,100
0.437795,-0.0885,0.157247,110
0.437808,-0.0885066,0.158147,108
0.436793,-0.0881714,0.158656,124
0.437218,-0.0883147,0.159713,121
0.436615,-0.0881167,0.160377,112
0.435401,-0.0877155,0.160802,113
0.43455,-0.0874347,0.161364,117
0.434666,-0.0874754,0.162303,113
0.433716,-0.0871619,0.162822,116
0.434289,-0.0873544,0.163942,108
0.433898,-0.0872266,0.164681,107
0.43432,-0.0873689,0.165744,104
0.432512,-0.0867705,0.165913,101
0.432326,-0.0867108,0.166731,91
0.431989,-0.086601,0.167488,97
0.432661,-0.0868264,0.168657,91
0.432274,-0.0866999,0.169394,95
0.431435,-0.0864232,0.169943,90
0.430699,-0.0861809,0.170533,90
0.432073,-0.0866397,0.172001,84
0.429683,-0.0858476,0.171897,80
0.428854,-0.0855742,0.172441,75
0.430018,-0.085963,0.173827,72
0.428491,-0.0854579,0.174073,63
0.429804,-0.0858963,0.175529,68
0.430323,-0.086071,0.17665,64
0.427801,-0.085235,0.176459,66
0.428067,-0.0853257,0.17747,66
0.429631,-0.0858472,0.179049,74
0.429301,-0.0857397,0.179804,73
0.427927,-0.0852852,0.180099,77
0.428992,-0.0856413,0.18147,76
0.427718,-0.0852203,0.181805,76
0.427739,-0.0852292,0.182714,75
0.427462,-0.0851393,0.18349,80
0.428228,-0.0853961,0.184738,69
0.427454,-0.0851411,0.18529,76
0.426733,-0.0849034,0.185864,74
0.426359,-0.0847813,0.186594,72
0.425985,-0.0846594,0.187325,70
0.427145,-0.085047,0.188764,69
0.428462,-0.0854869,0.190283,66
0.426348,-0.0847865,0.190205,74
0.427413,-0.0851425,0.191611,89
0.426791,-0.0849379,0.192226,71
0.427361,-0.0851297,0.193406,65
0.429035,-0.0856882,0.195114,66
1.31162,-0.364797,-0.650448,8
0.36686,-0.06117,-0.174724,7
0.391659,-0.0691423,-0.186195,10
0.417376,-0.0774098,-0.198029,11
0.410868,-0.0753204,-0.193947,7
0.428094,-0.0808591,-0.201488,9
0.305689,-0.0415172,-0.141265,11
0.420094,-0.078292,-0.195792,8
0.495935,-0.102672,-0.231509,7
0.524997,-0.112016,-0.244439,8
0.418227,-0.0776981,-0.192227,10
0.793588,-0.198357,-0.370602,9
0.422763,-0.0791605,-0.192604,9
0.181545,-0.00161751,-0.0797702,7
0.450005,-0.087922,-0.203599,10
0.421308,-0.078699,-0.189248,11
0.794232,-0.198584,-0.362367,8
0.415418,-0.0768098,-0.184751,12
0.424794,-0.079826,-0.188192,10
0.42238,-0.0790521,-0.186193,12
0.416967,-0.0773141,-0.18284,10
0.418635,-0.0778523,-0.182723,9
0.424513,-0.0797441,-0.184499,10
0.420381,-0.0784177,-0.181754,13
0.420924,-0.0785944,-0.181118,15
0.41795,-0.0776403,-0.178916,11
0.419339,-0.0780891,-0.178659,12
0.425326,-0.0800162,-0.180423,10
0.420184,-0.0783649,-0.177282,15
0.419775,-0.0782354,-0.17623,14
0.421319,-0.078734,-0.176027,14
0.42273,-0.0791898,-0.175762,16
0.427573,-0.0807492,-0.176966,9
0.420566,-0.078498,-0.173082,11
0.418408,-0.0778061,-0.171293,19
0.423434,-0.0794245,-0.172555,18
0.421724,-0.0788767,-0.170959,14
0.422559,-0.0791474,-0.170438,12
0.421574,-0.0788327,-0.169155,14
0.419268,-0.0780932,-0.16733,13
0.42562,-0.080138,-0.169087,15
0.423992,-0.0796164,-0.167542,18
0.429497,-0.0813888,-0.168919,16
0.433121,-0.0825564,-0.169509,14
0.432536,-0.0823705,-0.168382,15
0.425242,-0.0800267,-0.164561,15
0.427117,-0.0806319,-0.164439,22
0.423548,-0.0794859,-0.162145,14
0.42502,-0.0799613,-0.16186,14
0.426355,-0.080393,-0.161517,17
0.429226,-0.0813183,-0.16177,22
0.425527,-0.0801308,-0.159453,17
0.427796,-0.0808625,-0.159464,16
0.425334,-0.0800727,-0.157644,17
0.425504,-0.0801295,-0.156844,21
0.428704,-0.081161,-0.157197,12
0.426478,-0.0804468,-0.155482,22
0.431829,-0.0821702,-0.156632,22
0.428093,-0.0809704,-0.154356,27
0.428561,-0.081123,-0.153662,21
0.429918,-0.0815616,-0.153297,18
0.428712,-0.0811758,-0.151982,18
0.430218,-0.0816625,-0.151667,21
0.432835,-0.0825063,-0.15175,14
0.430917,-0.0818914,-0.150181,29
0.431691,-0.0821423,-0.14959,21
0.432217,-0.0823137,-0.148908,24
0.432445,-0.0823891,-0.148119,26
0.430634,-0.0818084,-0.146607,24
0.433203,-0.082637,-0.146645,34
0.432831,-0.0825196,-0.145644,30
0.433011,-0.0825795,-0.144837,29
0.432292,-0.0823501,-0.14372,35
0.433221,-0.0826513,-0.143172,38
0.435719,-0.0834571,-0.143157,34
0.433684,-0.0828041,-0.141594,32
0.434922,-0.0832046,-0.141144,33
0.434852,-0.0831844,-0.140251,34
0.431982,-0.0822627,-0.138427,36
0.434212,-0.0829825,-0.138303,32
0.436111,-0.0835957,-0.138061,29
0.437058,-0.0839024,-0.137502,32
0.43755,-0.0840627,-0.136791,31
0.435908,-0.0835363,-0.13539,30
0.436245,-0.083647,-0.134632,30
0.438879,-0.0844966,-0.134604,27
0.435456,-0.083397,-0.132649,29
0.437773,-0.0841447,-0.132514,29
0.437452,-0.0840434,-0.131545,28
0.435059,-0.0832756,-0.129937,34
0.438135,-0.0842676,-0.130024,35
0.437561,-0.0840847,-0.128981,37
0.436887,-0.0838699,-0.127911,32
0.436166,-0.0836398,-0.126831,38
0.437419,-0.0840454,-0.126346,33
0.436546,-0.0837661,-0.125223,34
0.43826,-0.0843201,-0.12487,36
0.436321,-0.0836978,-0.123437,35
0.435052,-0.0832914,-0.122209,34
0.436098,-0.0836302,-0.121656,38
0.437454,-0.0840686,-0.12119,38
0.436028,-0.0836119,-0.119924,34
0.437485,-0.0840829,-0.119481,35
0.438442,-0.084393,-0.118893,34
0.4354,-0.0834157,-0.117184,34
0.434591,-0.0831574,-0.116107,41
0.439285,-0.0846703,-0.11655,42
0.436032,-0.0836253,-0.114801,44
0.437845,-0.0842108,-0.114441,38
0.436877,-0.0839013,-0.113326,38
0.435363,-0.0834158,-0.112068,47
0.436665,-0.083837,-0.111565,43
0.435554,-0.0834815,-0.110422,49
0.43535,-0.0834177,-0.109521,48
0.435597,-0.0834993,-0.108738,49
0.434844,-0.0832588,-0.107697,49
0.434094,-0.0830194,-0.106661,51
0.434242,-0.0830689,-0.105856,53
0.433396,-0.0827988,-0.104801,57
0.433099,-0.0827049,-0.103887,58
0.433594,-0.0828663,-0.10317,59
0.433099,-0.082709,-0.102209,60
0.43236,-0.0824729,-0.101191,60
0.432312,-0.0824595,-0.100344,53
0.431381,-0.0821616,-0.0992857,58
0.431432,-0.0821802,-0.098465,63
0.431975,-0.082357,-0.0977599,67
0.431096,-0.0820759,-0.096722,65
0.431051,-0.0820634,-0.0958808,65
0.430324,-0.0818312,-0.094884,65
0.429745,-0.0816469,-0.0939244,62
0.430043,-0.0817445,-0.0931646,67
0.428354,-0.0812028,-0.0919616,68
0.428217,-0.0811604,-0.0911083,70
0.428706,-0.0813199,-0.0903932,69
0.427607,-0.0809678,-0.0893322,67
0.425466,-0.0802805,-0.0880526,63
0.425951,-0.0804384,-0.0873404,64
0.4252,-0.0801986,-0.0863665,66
0.426256,-0.0805405,-0.0857731,66
0.425838,-0.0804078,-0.0848713,64
0.426754,-0.0807048,-0.0842448,67
0.424864,-0.0800981,-0.083046,67
0.425729,-0.0803786,-0.0824084,64
0.426026,-0.0804762,-0.081655,69
0.425185,-0.0802071,-0.0806767,65
0.42553,-0.0803201,-0.0799332,73
0.425733,-0.0803876,-0.0791616,69
0.427176,-0.0808542,-0.0786261,71
0.426094,-0.0805077,-0.0776085,74
0.425634,-0.0803615,-0.0767119,79
0.425508,-0.0803226,-0.0758791,82
0.426378,-0.0806049,-0.0752296,84
0.425682,-0.0803826,-0.0742936,86
0.425841,-0.0804358,-0.0735138,79
0.426476,-0.0806422,-0.072818,81
0.426399,-0.0806192,-0.0719954,80
0.426037,-0.0805046,-0.0711243,82
0.426056,-0.0805126,-0.0703201,82
0.426883,-0.0807811,-0.0696529,81
0.426142,-0.0805442,-0.0687208,83
0.426305,-0.0805985,-0.0679412,79
0.427516,-0.0809907,-0.0673324,76
0.426917,-0.0807996,-0.0664274,76
0.426796,-0.0807625,-0.0656012,83
0.426723,-0.0807409,-0.0647834,76
0.42646,-0.0806582,-0.0639368,86
0.426911,-0.0808054,-0.0632009,88
0.426839,-0.0807842,-0.0623846,89
0.426578,-0.080702,-0.0615406,87
0.426176,-0.0805742,-0.0606771,90
0.427008,-0.0808443,-0.0599951,95
0.427892,-0.081131,-0.0593175,98
0.428253,-0.0812492,-0.0585628,103
0.428184,-0.0812288,-0.057747,109
0.428115,-0.0812086,-0.0569318,111
0.428669,-0.0813892,-0.0562017,116
0.428554,-0.0813538,-0.0553802,112
0.428918,-0.0814731,-0.0546227,113
0.429909,-0.0817944,-0.0539453,116
0.429601,-0.0816972,-0.0530984,112
0.429439,-0.0816467,-0.0522713,107
0.430048,-0.0818448,-0.0515406,105
0.43061,-0.082028,-0.0508021,105
0.430304,-0.0819311,-0.0499575,111
0.430336,-0.0819434,-0.0491544,113
0.431288,-0.0822523,-0.0484581,116
0.430982,-0.0821556,-0.0476148,118
0.430871,-0.0821216,-0.0467949,118
0.430953,-0.0821501,-0.045997,112
0.43191,-0.0824605,-0.0452935,111
0.431606,-0.0823642,-0.0444526,109
0.432811,-0.0827545,-0.0437705,115
0.432018,-0.0825011,-0.0428797,116
0.432299,-0.0825934,-0.0420997,118
0.432678,-0.0827175,-0.0413287,121
0.433058,-0.0828419,-0.0405564,129
0.434126,-0.0831882,-0.0398479,131
0.433332,-0.082934,-0.0389632,126
0.433519,-0.0829962,-0.0381706,129
0.433902,-0.0831218,-0.0373949,126
0.43478,-0.0834065,-0.0366607,128
0.434821,-0.0834218,-0.0358525,127
0.435258,-0.0835647,-0.0350771,130
0.4354,-0.0836123,-0.0342763,129
0.435938,-0.0837877,-0.0335063,129
0.435834,-0.083756,-0.0326851,133
0.435581,-0.0836765,-0.0318533,128
0.436519,-0.0839807,-0.0311095,123
0.436863,-0.0840936,-0.0303201,119
0.436661,-0.0840303,-0.0294918,119
0.436013,-0.0838234,-0.0286345,124
0.437802,-0.0844022,-0.0279388,126
0.436853,-0.0840981,-0.027063,136
0.437849,-0.0844213,-0.0263104,141
0.436901,-0.0841176,-0.0254386,140
0.437549,-0.0843284,-0.0246622,145
0.43735,-0.0842662,-0.0238365,143
0.437651,-0.084365,-0.0230384,128
0.438253,-0.084561,-0.0222548,131
0.439662,-0.0850172,-0.0215091,125
0.43901,-0.0848091,-0.0206597,126
0.440223,-0.0852022,-0.0198982,124
0.439874,-0.0850914,-0.0190637,127
0.440181,-0.0851926,-0.0182582,134
0.44049,-0.085294,-0.0174516,136
0.440951,-0.0854448,-0.0166497,137
0.440401,-0.0852692,-0.0158096,141
0.440813,-0.085404,-0.0150045,147
0.442193,-0.085851,-0.0142291,140
0.440626,-0.0853477,-0.0133593,139
0.441802,-0.085729,-0.0125732,136
0.442423,-0.0859312,-0.011768,132
0.442025,-0.0858048,-0.0109356,132
0.441527,-0.085646,-0.0101026,131
0.441996,-0.0857993,-0.00929134,129
0.441601,-0.0856737,-0.00846228,140
0.441613,-0.0856797,-0.00764157,134
0.441474,-0.0856366,-0.00681861,135
0.441843,-0.0857578,-0.00600269,132
0.441908,-0.0857807,-0.00518208,133
0.44172,-0.0857218,-0.004359,133
0.441481,-0.0856467,-0.00353633,136
0.441497,-0.0856538,-0.00271585,128
0.441361,-0.0856119,-0.00189485,127
0.441023,-0.0855047,-0.00107418,125
0.440939,-0.0854797,-0.000254586,129
0.44116,-0.085553,0.000565563,131
0.440925,-0.0854792,0.0013844,128
0.440793,-0.0854384,0.00220303,124
0.441422,-0.0856432,0.00302779,126
0.440479,-0.0853411,0.00383831,118
0.439693,-0.0850893,0.00464716,128
0.439866,-0.085147,0.00546693,129
0.438982,-0.0848639,0.00627001,135
0.438553,-0.0847275,0.00707808,133
0.439079,-0.0848989,0.00790395,138
0.438701,-0.084779,0.00871179,142
0.437725,-0.0844659,0.00950371,143
0.4377,-0.0844598,0.0103168,137
0.437925,-0.0845345,0.0111369,139
0.436606,-0.0841108,0.0119115,131
0.435938,-0.0838973,0.012702,138
0.435125,-0.083637,0.013485,141
0.433875,-0.0832353,0.0142491,135
0.433804,-0.0832145,0.0150532,133
0.433588,-0.0831466,0.0158513,133
0.43303,-0.0829685,0.0166345,139
0.433059,-0.0829799,0.0174412,145
0.43265,-0.0828498,0.0182281,145
0.432583,-0.08283,0.0190298,142
0.43237,-0.0827633,0.0198242,134
0.432402,-0.0827754,0.0206304,136
0.431123,-0.0823647,0.0213669,141
0.430624,-0.0822055,0.0221417,142
0.429982,-0.0820002,0.0229066,139
0.429631,-0.0818887,0.0236862,139
0.429808,-0.0819479,0.0244971,134
0.429122,-0.0817284,0.0252542,130
0.429349,-0.0818034,0.0260683,134
0.428379,-0.0814922,0.0268031,140
0.428223,-0.0814439,0.0275905,144
0.428737,-0.0816116,0.028425,144
0.428391,-0.0815018,0.029199,141
0.427903,-0.0813463,0.0299612,139
0.427179,-0.0811146,0.0307036,126
0.42755,-0.081236,0.0315295,136
0.426733,-0.0809744,0.0322613,128
0.426062,-0.0807597,0.0330021,133
0.426669,-0.0809575,0.0338485,141
0.42633,-0.0808499,0.0346157,140
0.426228,-0.080819,0.0354028,136
0.426648,-0.0809562,0.0362368,133
0.425507,-0.08059,0.0369286,121
0.425172,-0.0804837,0.0376921,120
0.425497,-0.0805903,0.038518,126
0.426011,-0.0807583,0.0393641,131
0.425912,-0.0807284,0.0401511,129
0.426051,-0.0807749,0.0409621,127
0.425151,-0.0804864,0.0416658,126
0.426424,-0.0808991,0.0425966,124
0.425618,-0.0806408,0.0433082,126
0.425758,-0.080688,0.0441209,123
0.425521,-0.0806133,0.0448922,127
0.425049,-0.0804629,0.045636,123
0.425143,-0.0804952,0.0464439,120
0.425804,-0.0807104,0.0473193,122
0.425994,-0.0807737,0.0481411,121
0.425712,-0.0806845,0.0489064,116
0.42633,-0.0808857,0.0497823,118
0.42567,-0.0806745,0.0505002,122
0.426667,-0.0809986,0.0514276,121
0.426861,-0.0810631,0.0522549,126
0.42639,-0.080913,0.0529958,126
0.426632,-0.080993,0.0538304,132
0.425737,-0.0807058,0.0545121,120
0.428649,-0.0816479,0.0557142,120
0.427411,-0.0812503,0.0563493,118
0.427705,-0.0813469,0.0571964,116
0.427139,-0.0811663,0.0579218,116
0.4271,-0.0811553,0.0587217,125
0.427156,-0.0811753,0.059536,127
0.426688,-0.0810263,0.0602726,127
0.426697,-0.0810312,0.0610799,128
0.427374,-0.0812517,0.06199,129
0.427863,-0.0814114,0.0628738,132
0.426443,-0.0809547,0.0634598,133
0.427073,-0.0811601,0.064367,130
0.42761,-0.0813355,0.0652621,125
0.427527,-0.0813106,0.0660584,127
0.428066,-0.0814868,0.0669577,116
0.427745,-0.0813847,0.0677155,118
0.426184,-0.0808827,0.068263,113
0.426722,-0.0810583,0.0691636,113
0.429086,-0.0818236,0.070383,112
0.427612,-0.0813495,0.0709401,108
0.428684,-0.0816978,0.0719428,111
0.430199,-0.082189,0.0730293,108
0.428911,-0.0817748,0.0736147,108
0.429653,-0.0820165,0.0745672,120
0.429043,-0.0818215,0.0752728,125
0.430126,-0.0821734,0.0762931,131
0.429226,-0.0818844,0.0769432,137
0.429246,-0.0818928,0.0777659,141
0.429944,-0.0821202,0.0787201,144
0.429626,-0.0820194,0.0794792,137
0.43057,-0.0823262,0.0804863,133
0.430008,-0.0821469,0.081198,137
0.430614,-0.0823446,0.0821426,142
0.430394,-0.0822754,0.0829224,146
0.430466,-0.0823007,0.0837617,143
0.430832,-0.0824207,0.0846624,149
0.4311,-0.0825095,0.0855449,145
0.431174,-0.0825354,0.0863879,144
0.432919,-0.0831009,0.0875875,140
0.430982,-0.0824772,0.0880029,131
0.431694,-0.0827092,0.0889861,136
0.431918,-0.0827834,0.0898656,136
0.432438,-0.0829533,0.090812,137
0.432663,-0.0830282,0.0916954,136
0.433137,-0.0831832,0.0926359,132
0.434058,-0.0834829,0.0936808,131
0.43394,-0.0834467,0.0944915,124
0.434369,-0.0835872,0.0954288,129
0.433358,-0.0832627,0.0960326,127
0.435081,-0.0838213,0.0972759,132
0.434117,-0.0835119,0.0978893,122
0.435648,-0.0840085,0.0990962,119
0.435132,-0.0838437,0.0998159,115
0.435767,-0.084051,0.100814,122
0.435953,-0.0841131,0.101706,126
0.437147,-0.084501,0.102848,126
0.437335,-0.0845639,0.103744,134
0.437373,-0.084578,0.104604,139
0.437968,-0.0847723,0.105606,141
0.438922,-0.0850828,0.106703,142
0.43769,-0.0846867,0.107241,139
0.440435,-0.0855758,0.108807,137
0.439246,-0.0851936,0.109356,130
0.440107,-0.0854738,0.110441,132
0.440046,-0.0854562,0.111285,123
0.440037,-0.0854554,0.112144,126
0.440132,-0.0854879,0.11303,124
0.440689,-0.0856702,0.114044,120
0.440476,-0.0856033,0.11485,113
0.441553,-0.0859535,0.116011,112
0.441754,-0.0860205,0.116934,113
0.441696,-0.0860039,0.117786,112
0.441795,-0.0860378,0.118682,115
0.44179,-0.0860383,0.11955,117
0.441838,-0.0860557,0.120434,110
0.441938,-0.0860901,0.121333,102
0.443184,-0.0864952,0.122567,100
0.442764,-0.0863615,0.123319,98
0.444228,-0.0868367,0.124625,96
0.443126,-0.0864825,0.125176,100
0.443125,-0.0864842,0.126053,102
0.44412,-0.086808,0.127229,106
0.443805,-0.0867082,0.128014,104
0.444857,-0.0870507,0.129215,101
0.444226,-0.0868487,0.129904,105
0.444438,-0.0869194,0.130852,105
0.445285,-0.0871952,0.131999,107
0.445711,-0.0873352,0.133018,109
0.44598,-0.0874241,0.13399,109
0.44609,-0.0874618,0.134914,114
0.445669,-0.0873278,0.13567,109
0.445886,-0.0874001,0.136629,109
0.446157,-0.0874898,0.137607,99
0.446163,-0.0874937,0.138501,98
0.445054,-0.0871372,0.139031,92
0.445803,-0.0873816,0.140169,101
0.444643,-0.0870086,0.140677,97
0.444544,-0.0869788,0.141536,98
0.445028,-0.0871374,0.142591,99
0.444665,-0.0870221,0.143363,104
0.44462,-0.0870098,0.144241,103
0.444258,-0.0868949,0.145012,103
0.443792,-0.0867462,0.145746,99
0.443327,-0.0865978,0.14648,104
0.443125,-0.0865349,0.147304,98
0.44282,-0.0864381,0.148091,103
0.442409,-0.0863076,0.148841,104
0.442788,-0.086432,0.14987,108
0.442011,-0.086183,0.150489,98
0.443284,-0.0865969,0.151842,101
0.442191,-0.0862454,0.152346,98
0.441574,-0.0860479,0.153019,101
0.440698,-0.0857667,0.153596,101
0.440501,-0.0857053,0.154419,101
0.439941,-0.0855262,0.155108,102
0.439175,-0.0852806,0.155719,111
0.439447,-0.0853708,0.156716,104
0.440502,-0.085714,0.158008,107
0.438904,-0.0851993,0.158303,111
0.438194,-0.0849716,0.15893,117
0.438208,-0.0849783,0.159831,110
0.436986,-0.0845851,0.160258,116
0.437,-0.0845918,0.161159,112
0.436912,-0.0845654,0.16202,112
0.435697,-0.0841745,0.162442,106
0.435558,-0.0841319,0.163282,112
0.435216,-0.0840233,0.164042,109
0.435692,-0.0841792,0.165126,111
0.434687,-0.0838562,0.165622,107
0.434703,-0.0838635,0.166524,100
0.434261,-0.0837227,0.167243,97
0.433617,-0.0835165,0.167878,98
0.433228,-0.0833929,0.168615,91
0.43284,-0.0832695,0.169352,96
0.432605,-0.0831953,0.170151,90
0.431664,-0.0828931,0.170658,91
0.432387,-0.0831291,0.171854,85
0.432354,-0.0831207,0.172738,84
0.431767,-0.0829328,0.173389,76
0.431936,-0.0829898,0.174358,71
0.431905,-0.0829816,0.175244,68
0.43253,-0.0831862,0.176411,64
0.429584,-0.0822349,0.176048,61
0.428905,-0.0820173,0.176652,66
0.429372,-0.0821706,0.17775,68
0.430844,-0.082649,0.179289,74
0.430011,-0.0823816,0.179826,74
0.429131,-0.082099,0.18034,71
0.429751,-0.0823018,0.181514,74
0.429422,-0.0821973,0.18227,70
0.429593,-0.0822548,0.183249,69
0.429464,-0.0822152,0.184094,72
0.428487,-0.0819011,0.184558,70
0.428458,-0.0818941,0.185448,76
0.428082,-0.0817743,0.18618,75
0.428054,-0.0817674,0.187071,74
0.429575,-0.082262,0.188675,71
0.4277,-0.0816574,0.188718,74
0.428121,-0.0817958,0.189819,70
0.428244,-0.0818378,0.190784,73
0.42772,-0.0816701,0.191447,95
0.427793,-0.0816961,0.19239,72
0.427768,-0.0816899,0.193288,64
0.429092,-0.0821208,0.194828,69
0.2728,-0.0287205,-0.128778,6
0.385755,-0.0640497,-0.183842,7
0.265028,-0.0262925,-0.123856,7
0.513088,-0.103878,-0.244887,7
0.417746,-0.0740613,-0.19703,9
0.42348,-0.0758567,-0.198936,9
0.728228,-0.171175,-0.34651,7
0.424676,-0.0762351,-0.197715,11
0.414652,-0.0731018,-0.191995,10
0.189909,-0.00280264,-0.0850631,8
0.415569,-0.0733929,-0.190677,8
0.418174,-0.0742097,-0.191034,10
0.429491,-0.0777519,-0.195493,9
0.420634,-0.0749834,-0.190425,12
0.424471,-0.0761857,-0.191332,9
0.422009,-0.0754179,-0.189293,11
0.427548,-0.0771526,-0.190971,10
0.420838,-0.0750555,-0.186978,11
0.419564,-0.0746591,-0.18551,10
0.433669,-0.079074,-0.191074,9
0.419978,-0.0747928,-0.183939,9
0.146298,0.010833,-0.0619078,7
0.422939,-0.0757233,-0.183514,11
0.426563,-0.0768594,-0.184255,16
0.421864,-0.0753912,-0.181268,15
0.426595,-0.0768736,-0.182488,12
0.422235,-0.0755116,-0.179673,14
0.423798,-0.0760026,-0.179481,10
0.423622,-0.0759496,-0.178522,16
0.467408,-0.0896521,-0.196716,7
0.423659,-0.0759652,-0.176778,19
0.421943,-0.0754306,-0.17516,14
0.424083,-0.0761023,-0.175204,18
0.424296,-0.076171,-0.174416,17
0.426901,-0.0769881,-0.174644,19
0.423465,-0.075915,-0.17231,14
0.422763,-0.0756973,-0.171141,17
0.421394,-0.0752712,-0.169697,15
0.422804,-0.0757144,-0.169415,14
0.423547,-0.075949,-0.168852,16
0.432636,-0.0787954,-0.171722,12
0.424411,-0.0762234,-0.167463,13
0.422746,-0.0757046,-0.165913,16
0.428558,-0.0775255,-0.167401,11
0.436527,-0.0800215,-0.169736,11
0.428601,-0.0775431,-0.165662,16
0.426318,-0.0768307,-0.163873,15
0.432981,-0.0789181,-0.165646,19
0.428422,-0.0774932,-0.162961,14
0.425658,-0.0766302,-0.161001,11
0.426509,-0.0768986,-0.160465,15
0.429775,-0.0779231,-0.160864,23
0.430593,-0.078181,-0.160304,16
0.430319,-0.0780973,-0.159323,16
0.431987,-0.0786215,-0.159085,18
0.432211,-0.0786938,-0.158293,17
0.427634,-0.0772631,-0.155685,16
0.427904,-0.0773498,-0.15492,23
0.429652,-0.0778988,-0.154706,25
0.429185,-0.0777546,-0.153662,25
0.42813,-0.0774267,-0.152404,25
0.430969,-0.0783172,-0.152582,21
0.432041,-0.0786549,-0.152103,24
0.432918,-0.0789315,-0.15155,20
0.431995,-0.0786448,-0.150343,25
0.431625,-0.0785308,-0.14934,24
0.434055,-0.0792937,-0.149338,23
0.431631,-0.0785371,-0.147605,23
0.433308,-0.0790639,-0.147329,31
0.433788,-0.0792164,-0.146627,22
0.43432,-0.0793851,-0.145942,27
0.433245,-0.0790506,-0.144698,33
0.435439,-0.0797396,-0.144586,31
0.434309,-0.0793878,-0.143327,32
0.434944,-0.0795887,-0.142674,37
0.436138,-0.0799647,-0.142209,32
0.435208,-0.0796755,-0.141025,33
0.437523,-0.0804025,-0.14093,32
0.435929,-0.0799053,-0.139527,38
0.435759,-0.0798541,-0.138603,32
0.435741,-0.0798505,-0.137729,32
0.435926,-0.0799105,-0.136922,29
0.436821,-0.0801928,-0.136345,30
0.43388,-0.0792739,-0.134531,27
0.434466,-0.0794594,-0.133857,33
0.43881,-0.080822,-0.134375,29
0.437772,-0.080499,-0.133178,35
0.438165,-0.0806239,-0.132434,33
0.437182,-0.0803182,-0.13126,37
0.437777,-0.0805067,-0.13058,39
0.437763,-0.0805043,-0.12971,36
0.437292,-0.0803587,-0.128701,34
0.437075,-0.0802929,-0.127773,38
0.43813,-0.0806253,-0.127229,35
0.438831,-0.0808471,-0.126575,43
0.437089,-0.0803032,-0.125193,34
0.438603,-0.0807795,-0.12478,37
0.439665,-0.0811143,-0.124229,36
0.43665,-0.0801721,-0.122487,37
0.437349,-0.0803928,-0.121832,33
0.436126,-0.0800119,-0.120623,42
0.438906,-0.0808847,-0.12056,36
0.438438,-0.08074,-0.119568,37
0.437819,-0.0805482,-0.118536,37
0.439032,-0.0809302,-0.118017,38
0.437397,-0.0804201,-0.116706,35
0.437998,-0.0806104,-0.116017,36
0.437181,-0.0803564,-0.114939,40
0.437934,-0.0805944,-0.11429,37
0.43808,-0.0806422,-0.113475,39
0.436407,-0.0801199,-0.112176,45
0.437562,-0.0804841,-0.111632,45
0.435795,-0.0799322,-0.110317,48
0.436847,-0.0802639,-0.109744,50
0.436743,-0.0802332,-0.108868,50
0.435885,-0.0799666,-0.1078,47
0.433986,-0.0793736,-0.106471,52
0.437441,-0.080458,-0.106502,54
0.435179,-0.0797513,-0.105088,54
0.433834,-0.0793319,-0.103911,53
0.433388,-0.0791942,-0.102962,67
0.434431,-0.0795228,-0.102379,62
0.433439,-0.0792141,-0.101299,61
0.434234,-0.0794651,-0.100653,54
0.432111,-0.0788019,-0.0993092,56
0.43177,-0.0786969,-0.0983953,45
0.433893,-0.0793642,-0.0980609,50
0.432268,-0.0788568,-0.0968475,51
0.431046,-0.0784761,-0.0957343,60
0.430563,-0.0783266,-0.0947949,55
0.43052,-0.0783149,-0.0939575,60
0.429311,-0.0779382,-0.0928595,60
0.428496,-0.0776847,-0.0918543,63
0.429082,-0.0778704,-0.0911615,59
0.427501,-0.0773766,-0.0899937,65
0.427797,-0.0774713,-0.0892387,62
0.427325,-0.0773256,-0.0883186,66
0.427095,-0.0772553,-0.087452,65
0.426293,-0.0770058,-0.0864665,68
0.426637,-0.0771154,-0.0857234,64
0.426886,-0.0771954,-0.0849599,66
0.427135,-0.0772756,-0.0841959,67
0.42605,-0.0769373,-0.0831613,74
0.426633,-0.077122,-0.0824657,64
0.427266,-0.0773223,-0.0817781,68
0.426324,-0.0770292,-0.0807793,67
0.426766,-0.0771696,-0.0800535,69
0.426161,-0.0769818,-0.079125,68
0.425511,-0.0767799,-0.0781908,69
0.427621,-0.0774431,-0.0777795,70
0.428739,-0.0777957,-0.0771755,73
0.428947,-0.0778628,-0.0763996,71
0.427475,-0.0774034,-0.0753167,76
0.427062,-0.0772757,-0.0744311,75
0.427604,-0.0774476,-0.0737181,74
0.428004,-0.077575,-0.0729783,75
0.427735,-0.0774924,-0.0721204,86
0.42718,-0.0773204,-0.0712147,80
0.42677,-0.0771937,-0.0703363,81
0.428318,-0.0776809,-0.0697901,74
0.427429,-0.077404,-0.068832,75
0.428742,-0.0778176,-0.0682405,76
0.427804,-0.0775255,-0.0672778,85
0.427347,-0.0773843,-0.0663967,80
0.429045,-0.0779186,-0.0658598,78
0.428299,-0.0776866,-0.0649333,84
0.427748,-0.0775157,-0.0640402,93
0.427962,-0.0775848,-0.0632667,90
0.428082,-0.077624,-0.0624783,97
0.428345,-0.0777085,-0.0617113,89
0.428274,-0.0776882,-0.0608944,90
0.42897,-0.0779084,-0.0601895,94
0.429862,-0.07819,-0.0595101,97
0.429262,-0.0780038,-0.058617,102
0.429481,-0.0780744,-0.0578406,112
0.430231,-0.0783116,-0.0571365,112
0.429873,-0.0782011,-0.0562799,117
0.430287,-0.0783329,-0.0555279,114
0.430171,-0.0782983,-0.0547049,113
0.430732,-0.0784761,-0.0539703,111
0.43081,-0.0785025,-0.0531723,111
0.43181,-0.0788183,-0.05249,111
0.431064,-0.0785862,-0.0515884,110
0.431484,-0.0787196,-0.0508316,102
0.431807,-0.0788229,-0.050062,106
0.431548,-0.0787436,-0.0492228,109
0.431629,-0.078771,-0.0484243,110
0.431857,-0.0788444,-0.0476425,110
0.433257,-0.0792853,-0.046991,116
0.432656,-0.0790988,-0.0461146,108
0.433473,-0.0793571,-0.0453937,115
0.433313,-0.0793088,-0.0445664,113
0.433105,-0.0792453,-0.0437349,118
0.433533,-0.0793815,-0.0429694,120
0.433717,-0.0794412,-0.0421781,118
0.433853,-0.0794858,-0.0413815,119
0.434678,-0.0797464,-0.0406509,123
0.434717,-0.0797606,-0.0398433,127
0.43451,-0.0796977,-0.0390131,129
0.435092,-0.0798822,-0.0382551,133
0.43464,-0.0797423,-0.0374036,135
0.435026,-0.0798653,-0.0366266,125
0.436156,-0.0802216,-0.0359111,125
0.435357,-0.079973,-0.0350322,124
0.43649,-0.0803301,-0.0343122,126
0.435938,-0.0801591,-0.0334556,129
0.436677,-0.0803927,-0.0327003,128
0.436672,-0.0803931,-0.0318867,130
0.436518,-0.0803469,-0.0310625,130
0.438009,-0.0808166,-0.0303555,127
0.439059,-0.0811477,-0.0296126,125
0.437953,-0.0808029,-0.0287213,126
0.437751,-0.0807414,-0.0278932,133
0.4383,-0.0809154,-0.0271135,135
0.438549,-0.0809956,-0.0263134,134
0.439553,-0.0813126,-0.0255573,135
0.438699,-0.0810465,-0.0246909,140
0.43875,-0.0810643,-0.0238781,135
0.439454,-0.0812874,-0.0231001,129
0.439758,-0.0813847,-0.0222988,125
0.440366,-0.0815774,-0.0215116,132
0.44042,-0.0815961,-0.0206957,126
0.441335,-0.0818853,-0.0199191,129
0.441949,-0.08208,-0.0191258,129
0.441954,-0.0820834,-0.0183049,131
0.441806,-0.0820391,-0.0174779,137
0.441812,-0.0820429,-0.0166574,140
0.442073,-0.0821267,-0.0158461,141
0.44208,-0.0821308,-0.0150253,145
0.442445,-0.0822472,-0.014216,149
0.442862,-0.08238,-0.0134069,139
0.442768,-0.0823526,-0.0125819,138
0.443085,-0.0824538,-0.011768,137
0.443248,-0.0825072,-0.0109493,135
0.443157,-0.0824803,-0.0101243,135
0.443321,-0.082534,-0.00930492,125
0.443744,-0.0826685,-0.0084897,134
0.443295,-0.0825295,-0.00765848,140
0.443872,-0.0827126,-0.00684401,135
0.444091,-0.0827834,-0.00602281,142
0.443541,-0.0826126,-0.00519251,141
0.443094,-0.0824744,-0.00436529,137
0.443315,-0.0825455,-0.00354438,132
0.443587,-0.082633,-0.00272287,129
0.44345,-0.0825919,-0.0018991,132
0.442241,-0.0822141,-0.00107476,128
0.443127,-0.0824943,-0.000253196,132
0.44376,-0.0826952,0.000571094,125
0.442194,-0.0822053,0.00138732,135
0.442315,-0.0822454,0.00220885,127
0.442438,-0.0822857,0.00303088,129
0.441644,-0.0820384,0.00384369,128
