ply
format ascii 1.0
comment Created by CloudCompare v2.11 alpha (Anoia)
comment Created 2025/12/9 18:26
obj_info Generated by CloudCompare!
element vertex 1445
property float x
property float y
property float z
property float scalar_Scalar_field
end_header
0.45496 0.0707948 -0.148654 28 
0.45356 0.0707412 -0.147295 26 
0.454907 0.0707887 -0.146825 25 
0.455742 0.0708174 -0.146187 28 
0.453484 0.0707323 -0.144565 29 
0.453346 0.0707252 -0.143621 29 
0.456588 0.0708424 -0.143738 27 
0.454497 0.0707635 -0.142181 26 
0.454645 0.0707669 -0.141327 23 
0.4593 0.070936 -0.141859 20 
0.458519 0.0709052 -0.140712 21 
0.454064 0.0707394 -0.138453 25 
0.457141 0.0708505 -0.138485 25 
0.456082 0.0708096 -0.137265 31 
0.455487 0.0707857 -0.136189 24 
0.457539 0.070859 -0.135898 28 
0.456251 0.0708097 -0.134619 35 
0.456634 0.0708217 -0.133833 34 
0.45858 0.0708911 -0.1335 35 
0.461657 0.0710021 -0.133485 30 
0.456636 0.0708157 -0.131143 37 
0.457945 0.0708617 -0.130619 36 
0.457177 0.0708315 -0.129505 37 
0.458779 0.0708883 -0.129058 31 
0.458415 0.0708729 -0.128059 32 
0.457186 0.0708258 -0.126823 32 
0.456826 0.0708106 -0.125831 28 
0.455951 0.0707764 -0.124701 34 
0.460154 0.0709286 -0.124947 29 
0.461133 0.0709625 -0.124313 28 
0.458616 0.0708681 -0.122744 29 
0.458487 0.0708614 -0.121817 28 
0.459228 0.0708866 -0.121119 34 
0.457425 0.0708185 -0.119756 34 
0.458741 0.0708647 -0.119208 34 
0.4617 0.0709711 -0.119077 38 
0.458201 0.0708409 -0.117289 39 
0.459464 0.0708851 -0.11672 40 
0.459803 0.0708955 -0.115914 41 
0.458347 0.0708402 -0.114661 38 
0.460658 0.0709228 -0.114346 42 
0.460418 0.070912 -0.113396 47 
0.461987 0.0709675 -0.112888 45 
0.461161 0.0709352 -0.111796 45 
0.461447 0.0709437 -0.110974 50 
0.461967 0.0709607 -0.110208 50 
0.460097 0.0708902 -0.108877 45 
0.462192 0.0709649 -0.10848 53 
0.461427 0.0709349 -0.107413 52 
0.46236 0.070967 -0.106739 51 
0.461655 0.0709392 -0.10569 50 
0.464236 0.0710317 -0.105386 51 
0.462939 0.0709822 -0.104204 53 
0.464882 0.0710513 -0.103747 51 
0.463348 0.0709931 -0.102517 51 
0.463465 0.0709954 -0.101655 56 
0.464231 0.0710214 -0.100933 61 
0.463937 0.0710087 -0.099981 62 
0.463762 0.0710003 -0.0990561 57 
0.465418 0.0710588 -0.098518 64 
0.465124 0.071046 -0.0975673 66 
0.466016 0.0710766 -0.0968635 63 
0.466436 0.07109 -0.0960599 65 
0.46644 0.0710881 -0.0951709 64 
0.46716 0.0711124 -0.0944263 67 
0.466867 0.0710997 -0.0934777 64 
0.468787 0.0711678 -0.0929675 63 
0.468374 0.0711507 -0.0919943 62 
0.468801 0.0711642 -0.0911859 70 
0.468628 0.0711559 -0.0902615 61 
0.470624 0.0712268 -0.0897496 64 
0.469728 0.071192 -0.0886873 60 
0.468715 0.0711531 -0.0876073 66 
0.470653 0.0712217 -0.0870746 68 
0.470966 0.0712312 -0.0862391 66 
0.470554 0.0712141 -0.0852722 67 
0.470929 0.0712258 -0.0844477 72 
0.470821 0.0712198 -0.0835369 70 
0.47144 0.0712404 -0.0827539 73 
0.472365 0.0712721 -0.0820219 71 
0.471226 0.0712286 -0.0809344 69 
0.471544 0.0712382 -0.0800977 74 
0.472898 0.0712855 -0.0794332 79 
0.473708 0.071313 -0.0786742 79 
0.475629 0.071381 -0.078094 80 
0.474479 0.071337 -0.0770113 75 
0.474927 0.0713513 -0.0761883 75 
0.476736 0.0714152 -0.0755784 73 
0.476879 0.0714184 -0.0747029 77 
0.476467 0.0714013 -0.0737416 78 
0.477418 0.0714339 -0.0729895 75 
0.477502 0.071435 -0.0721041 74 
0.47641 0.0713932 -0.0710445 81 
0.478419 0.0714643 -0.0704431 78 
0.477883 0.0714428 -0.069467 83 
0.478219 0.071453 -0.0686176 81 
0.477251 0.0714157 -0.0675838 85 
0.478396 0.0714554 -0.0668473 87 
0.478361 0.0714521 -0.0659453 87 
0.477643 0.0714239 -0.0649515 89 
0.479103 0.071475 -0.0642509 99 
0.47932 0.0714809 -0.0633819 102 
0.4796 0.071489 -0.0625207 95 
0.479007 0.0714654 -0.0615472 91 
0.479976 0.0714986 -0.0607728 86 
0.480322 0.0715092 -0.0599179 89 
0.480104 0.0714992 -0.0589933 85 
0.480138 0.0714984 -0.0581 83 
0.479923 0.0714886 -0.0571774 84 
0.480209 0.0714969 -0.0563143 85 
0.480245 0.0714962 -0.0554218 87 
0.480282 0.0714956 -0.0545297 89 
0.480633 0.0715063 -0.0536724 90 
0.480672 0.0715057 -0.0527801 96 
0.4809 0.0715119 -0.0519082 102 
0.48094 0.0715114 -0.051016 107 
0.481547 0.0715314 -0.0501824 107 
0.48203 0.0715469 -0.0493343 100 
0.482325 0.0715556 -0.0484659 103 
0.482495 0.0715597 -0.0475845 101 
0.481845 0.0715341 -0.0466242 102 
0.482331 0.0715497 -0.0457733 111 
0.482314 0.0715471 -0.0448744 119 
0.482108 0.0715376 -0.0439589 116 
0.482092 0.071535 -0.0430611 122 
0.482204 0.071537 -0.0421746 122 
0.482126 0.0715321 -0.041272 119 
0.481672 0.0715136 -0.0403388 122 
0.481156 0.0714929 -0.0394024 121 
0.48171 0.071511 -0.0385528 122 
0.48233 0.0715314 -0.0377062 125 
0.482635 0.0715405 -0.036834 120 
0.481428 0.0714947 -0.0358498 128 
0.48186 0.0715084 -0.0349876 122 
0.482546 0.0715312 -0.0341416 121 
0.482413 0.0715243 -0.0332377 120 
0.482028 0.0715084 -0.0323179 128 
0.481897 0.0715016 -0.0314159 131 
0.481201 0.0714744 -0.0304795 135 
0.480445 0.071445 -0.0295422 136 
0.481194 0.0714701 -0.0286959 140 
0.481254 0.0714703 -0.027808 136 
0.480501 0.071441 -0.0268754 135 
0.480688 0.0714458 -0.0259956 132 
0.480063 0.0714211 -0.0250737 128 
0.480002 0.0714169 -0.024182 129 
0.480504 0.0714331 -0.0233173 133 
0.480882 0.0714448 -0.0224453 135 
0.483786 0.0715478 -0.0216822 135 
0.479141 0.0713778 -0.020593 133 
0.480019 0.0714075 -0.0197417 142 
0.478593 0.071354 -0.0187995 146 
0.479035 0.0713679 -0.0179303 150 
0.478359 0.0713415 -0.0170213 144 
0.476946 0.0712884 -0.0160908 148 
0.477448 0.0713046 -0.0152243 147 
0.476411 0.0712651 -0.0143118 145 
0.477222 0.0712924 -0.0134529 146 
0.476371 0.0712597 -0.0125495 144 
0.476383 0.0712582 -0.0116693 141 
0.475109 0.0712101 -0.0107616 138 
0.475551 0.0712241 -0.00989218 135 
0.475749 0.0712293 -0.00901688 144 
0.473507 0.0711464 -0.0081023 141 
0.47328 0.0711362 -0.00722419 143 
0.472812 0.0711173 -0.00634404 142 
0.472164 0.071092 -0.00546382 146 
0.47176 0.0710754 -0.00458806 135 
0.470697 0.0710351 -0.0037095 135 
0.471558 0.0710642 -0.00284392 132 
0.471277 0.0710521 -0.00197192 138 
0.471599 0.0710617 -0.00110156 130 
0.47096 0.0710367 -0.000230832 128 
0.471283 0.0710464 0.000640153 125 
0.471426 0.0710496 0.00151153 122 
0.470729 0.0710225 0.00237804 115 
0.471055 0.0710323 0.00325047 111 
0.473132 0.0711052 0.0041419 104 
0.471829 0.0710562 0.00500052 110 
0.47252 0.0710792 0.00588196 107 
0.473579 0.0711154 0.00677178 109 
0.472396 0.0710708 0.00762621 112 
0.472728 0.0710808 0.00850572 109 
0.472879 0.0710842 0.00938268 103 
0.473578 0.0711074 0.0102729 104 
0.472822 0.0710782 0.0111295 98 
0.472975 0.0710818 0.0120077 97 
0.473859 0.0711116 0.0129075 101 
0.474076 0.0711174 0.0137904 106 
0.474355 0.0711255 0.0146761 102 
0.472509 0.0710571 0.0154902 102 
0.476388 0.0711947 0.0165042 101 
0.474405 0.0711213 0.0173102 103 
0.475176 0.0711471 0.0182187 108 
0.473934 0.0711005 0.0190461 103 
0.474767 0.0711284 0.0199594 103 
0.474685 0.0711235 0.0208345 105 
0.474117 0.0711011 0.0216864 105 
0.475687 0.0711556 0.0226413 105 
0.475792 0.0711574 0.0235275 103 
0.476266 0.0711724 0.0244337 100 
0.475881 0.0711566 0.0252949 106 
0.477405 0.0712094 0.0262627 108 
0.476897 0.0711891 0.0271177 116 
0.477686 0.0712154 0.0280491 114 
0.478478 0.0712419 0.0289838 115 
0.478279 0.0712328 0.0298583 121 
0.479512 0.071275 0.0308264 118 
0.479127 0.0712592 0.0316898 114 
0.479928 0.0712859 0.0326344 112 
0.480043 0.0712881 0.0335333 117 
0.480348 0.071297 0.0344466 118 
0.480967 0.0713172 0.035385 117 
0.481148 0.0713217 0.0362921 117 
0.481582 0.0713353 0.0372201 115 
0.48246 0.0713647 0.0381857 118 
0.482645 0.0713694 0.0390977 118 
0.483021 0.0713808 0.0400266 120 
0.483209 0.0713855 0.0409409 119 
0.482953 0.0713743 0.0418171 123 
0.482825 0.0713677 0.0427041 124 
0.482445 0.0713521 0.0435677 120 
0.483841 0.0714001 0.0445967 117 
0.48467 0.0714278 0.045577 119 
0.486016 0.071474 0.0466111 123 
0.485442 0.0714514 0.0474595 122 
0.485254 0.0714426 0.0483452 127 
0.486671 0.0714913 0.0493961 128 
0.486741 0.0714918 0.0503111 129 
0.48649 0.0714807 0.0511923 130 
0.488825 0.0715623 0.0523542 126 
0.488379 0.0715443 0.0532174 121 
0.489754 0.0715915 0.0542842 122 
0.488268 0.0715362 0.0550291 125 
0.489254 0.0715694 0.0560562 122 
0.488485 0.0715399 0.05688 111 
0.490257 0.0716012 0.0580063 111 
0.490991 0.0716254 0.059013 114 
0.491137 0.0716286 0.05995 110 
0.492074 0.07166 0.0609872 109 
0.493478 0.0717082 0.0620881 111 
0.494892 0.0717567 0.0631958 104 
0.493514 0.0717053 0.0639424 103 
0.494797 0.0717491 0.0650388 98 
0.49362 0.0717049 0.065808 102 
0.495039 0.0717535 0.0669288 99 
0.495462 0.0717666 0.067917 107 
0.496222 0.0717916 0.0689546 106 
0.495308 0.0717569 0.0697567 105 
0.495801 0.0717724 0.0707591 108 
0.497306 0.071824 0.0719119 101 
0.496995 0.0718108 0.0728017 100 
0.495545 0.0717569 0.0735194 99 
0.497051 0.0718086 0.0746817 102 
0.497418 0.0718196 0.0756747 101 
0.49765 0.0718258 0.0766486 99 
0.49999 0.0719072 0.0779564 102 
0.499273 0.0718795 0.0787852 94 
0.501014 0.0719395 0.080009 89 
0.499 0.0718655 0.080626 89 
0.502321 0.0719819 0.0821181 91 
0.501463 0.0719491 0.0829242 93 
0.498971 0.0718581 0.0834511 96 
0.501195 0.0719353 0.0847758 98 
0.50144 0.0719419 0.0857671 99 
0.500519 0.0719069 0.086556 106 
0.500149 0.0718915 0.0874391 110 
0.49978 0.0718762 0.0883216 114 
0.500643 0.0719049 0.0894256 112 
0.499864 0.0718749 0.0902339 111 
0.499225 0.07185 0.0910654 116 
0.499952 0.0718738 0.0921495 115 
0.49986 0.0718684 0.0930828 111 
0.502104 0.0719462 0.0944603 108 
0.501669 0.0719285 0.0953325 113 
0.500617 0.0718889 0.0960839 122 
0.501009 0.0719007 0.0971146 131 
0.500577 0.0718832 0.0979846 125 
0.50104 0.0718975 0.0990319 127 
0.50013 0.0718629 0.0998049 132 
0.50073 0.0718822 0.100882 129 
0.501196 0.0718966 0.101935 126 
0.499328 0.0718279 0.102506 124 
0.499245 0.0718228 0.103444 122 
0.498685 0.0718007 0.104282 114 
0.497583 0.0717593 0.105002 123 
0.497435 0.0717519 0.105924 115 
0.498376 0.0717832 0.107082 115 
0.497548 0.0717516 0.107858 109 
0.497878 0.0717612 0.108886 117 
0.497461 0.0717442 0.10975 119 
0.497724 0.0717514 0.110765 111 
0.496697 0.0717127 0.111491 110 
0.494733 0.0716407 0.111998 115 
0.494121 0.0716168 0.11281 113 
0.494854 0.0716407 0.113933 117 
0.494916 0.0716408 0.114902 119 
0.494709 0.0716313 0.115809 123 
0.493497 0.071586 0.116476 127 
0.492958 0.0715647 0.1173 125 
0.492956 0.0715625 0.118253 126 
0.491487 0.0715082 0.118849 131 
0.492685 0.0715486 0.120095 130 
0.491551 0.0715061 0.120769 127 
0.491883 0.0715158 0.121806 121 
0.490555 0.0714665 0.122426 127 
0.490291 0.071455 0.123312 122 
0.490491 0.0714599 0.124316 122 
0.490825 0.0714696 0.125355 116 
0.490231 0.0714464 0.126157 111 
0.489111 0.0714045 0.126819 105 
0.489049 0.0714001 0.127756 107 
0.488329 0.0713724 0.128519 105 
0.489059 0.0713962 0.129667 108 
0.488735 0.0713825 0.130535 108 
0.487361 0.0713317 0.131118 100 
0.488354 0.0713647 0.132342 101 
0.48659 0.0713 0.132813 103 
0.487384 0.071326 0.133986 100 
0.486738 0.0713009 0.134761 95 
0.486943 0.0713061 0.135774 87 
0.487019 0.0713066 0.136751 86 
0.488542 0.0713584 0.138142 87 
0.487369 0.0713147 0.138766 87 
0.488567 0.0713549 0.140071 79 
0.488316 0.0713439 0.14096 89 
0.487868 0.0713258 0.141791 81 
0.487421 0.0713079 0.142622 91 
0.487239 0.0712992 0.14353 83 
0.488705 0.0713489 0.14493 90 
0.489317 0.0713684 0.14608 92 
0.488275 0.0713294 0.146733 94 
0.489153 0.0713582 0.147967 87 
0.489503 0.0713684 0.149044 93 
0.490655 0.071407 0.15037 84 
0.490542 0.0714008 0.151308 84 
0.48923 0.0713522 0.151873 82 
0.490985 0.071412 0.153397 85 
0.490272 0.0713846 0.154148 89 
0.491231 0.0714163 0.15543 86 
0.491724 0.0714315 0.156567 80 
0.491614 0.0714254 0.157512 81 
0.490901 0.071398 0.158262 77 
0.491664 0.0714228 0.159492 80 
0.49055 0.0713812 0.160109 72 
0.493066 0.0714679 0.161922 72 
0.491946 0.0714261 0.162537 67 
0.49184 0.0714201 0.163487 65 
0.494237 0.0715025 0.16528 64 
0.494335 0.0715038 0.166306 71 
0.492941 0.0714523 0.166825 73 
0.494602 0.0715087 0.168385 68 
0.493613 0.0714715 0.16904 64 
0.494258 0.071492 0.170258 67 
0.494905 0.0715126 0.17148 64 
0.494871 0.0715092 0.172466 68 
0.496277 0.0715565 0.173961 69 
0.496519 0.0715628 0.17505 70 
0.494362 0.0714844 0.175286 65 
0.496042 0.0715414 0.17689 68 
0.495325 0.0715138 0.177636 72 
0.496876 0.0715663 0.179203 70 
0.495401 0.071512 0.179674 73 
0.495852 0.0715256 0.180847 77 
0.494315 0.0714692 0.181289 72 
0.494697 0.0714804 0.182436 68 
0.496043 0.0715255 0.183946 76 
0.494436 0.0714666 0.184356 71 
0.494614 0.0714706 0.185432 71 
0.493699 0.0714361 0.186096 68 
0.494357 0.071457 0.187356 66 
0.492965 0.0714057 0.187835 66 
0.493008 0.0714049 0.188862 67 
0.491963 0.0713659 0.189468 65 
0.49419 0.071442 0.191344 62 
0.492323 0.071374 0.191629 69 
0.492028 0.0713613 0.192526 61 
0.492481 0.071375 0.193718 60 
0.492528 0.0713743 0.194751 55 
0.490943 0.0713163 0.195134 57 
0.494059 0.0714236 0.197397 52 
0.490224 0.0712864 0.196872 49 
0.494019 0.0714176 0.199424 49 
0.493452 0.0713953 0.200215 48 
0.4903 0.0712822 0.199947 42 
0.491231 0.0713126 0.201346 42 
0.489789 0.0712597 0.20177 41 
0.491263 0.0713092 0.2034 51 
0.489686 0.0712515 0.203763 51 
0.488859 0.0712201 0.204436 51 
0.489112 0.0712267 0.205561 55 
0.487616 0.0711719 0.205947 51 
0.488204 0.0711902 0.207216 55 
0.488256 0.0711898 0.208258 53 
0.488174 0.0711846 0.209244 53 
0.487421 0.0711558 0.209941 53 
0.488618 0.0711955 0.211483 53 
0.487393 0.0711502 0.211973 51 
0.492885 0.0713405 0.215405 48 
0.48946 0.0712181 0.214933 51 
0.488231 0.0711727 0.215419 54 
0.487277 0.0711369 0.216023 50 
0.487603 0.071146 0.217196 69 
0.486718 0.0711127 0.217828 54 
0.488731 0.0711809 0.219765 50 
0.488316 0.071164 0.22061 45 
0.464587 0.0749814 -0.222816 8 
0.275092 0.0664515 -0.132344 8 
0.217574 0.063863 -0.105144 9 
0.220392 0.0639886 -0.105962 7 
0.472374 0.0753228 -0.222508 8 
0.256053 0.06559 -0.121256 6 
0.324297 0.0686577 -0.151976 8 
0.461226 0.0748146 -0.214348 7 
0.47312 0.0753473 -0.218844 8 
0.453281 0.0744529 -0.208758 6 
0.382306 0.0712595 -0.175506 8 
0.464024 0.0749315 -0.211717 10 
0.459973 0.0747472 -0.208908 10 
0.815582 0.0907312 -0.368363 7 
0.477977 0.0755521 -0.215029 8 
0.479663 0.0756256 -0.214776 9 
0.465075 0.0749677 -0.207299 10 
0.460653 0.0747669 -0.204372 10 
0.464349 0.0749307 -0.205029 10 
0.205235 0.0632912 -0.0919954 7 
0.468168 0.0750979 -0.204746 11 
0.461819 0.0748105 -0.201018 10 
0.431552 0.0734491 -0.18702 9 
0.456653 0.0745742 -0.196875 9 
0.453274 0.0744203 -0.194481 9 
0.458621 0.0746582 -0.195807 16 
0.460716 0.0747501 -0.195738 14 
0.458402 0.0746441 -0.193808 13 
0.454945 0.0744868 -0.191409 9 
0.452405 0.0743707 -0.189408 7 
0.466383 0.0749958 -0.194261 7 
0.456325 0.0745423 -0.189148 7 
0.461134 0.0747559 -0.190176 10 
0.452515 0.0743671 -0.185706 11 
0.454147 0.0744383 -0.185434 11 
0.452486 0.0743616 -0.183825 10 
0.452098 0.0743421 -0.182736 7 
0.459824 0.0746864 -0.184895 9 
0.450641 0.0742726 -0.180295 9 
0.450829 0.0742789 -0.179442 9 
0.450732 0.0742725 -0.178478 11 
0.456406 0.0745247 -0.179775 8 
0.43965 0.0737717 -0.172311 13 
0.451526 0.0743018 -0.176012 12 
0.463816 0.0748504 -0.179828 11 
0.444754 0.0739942 -0.171567 8 
0.451525 0.0742955 -0.173241 10 
0.450405 0.0742432 -0.171894 15 
0.455712 0.0744789 -0.172979 16 
0.459129 0.0746298 -0.173333 11 
0.457795 0.0745679 -0.1719 12 
0.459167 0.0746273 -0.171478 13 
0.446404 0.0740538 -0.16583 9 
0.4585 0.0745932 -0.169367 10 
0.451121 0.0742608 -0.165741 12 
0.452971 0.0743415 -0.165498 12 
0.455994 0.0744747 -0.165672 17 
0.451247 0.0742602 -0.163044 17 
0.453959 0.0743795 -0.1631 18 
0.451238 0.0742557 -0.161216 18 
0.452516 0.0743108 -0.160757 22 
0.451061 0.0742437 -0.159332 17 
0.454978 0.0744168 -0.159791 18 
0.455754 0.0744495 -0.159145 20 
0.455086 0.0744175 -0.157997 22 
0.453732 0.0743549 -0.156617 18 
0.45057 0.0742115 -0.154626 19 
0.457602 0.0745238 -0.156108 18 
0.452613 0.0742987 -0.153507 18 
0.454703 0.0743901 -0.153301 21 
0.452442 0.074287 -0.151637 21 
0.452585 0.0742913 -0.150779 26 
0.45347 0.0743288 -0.150166 34 
0.454531 0.0743742 -0.149607 31 
0.453245 0.0743147 -0.148281 26 
0.453962 0.0743446 -0.147609 33 
0.454911 0.074385 -0.14701 33 
0.45152 0.0742315 -0.145021 26 
0.455146 0.0743914 -0.145274 27 
0.456274 0.0744397 -0.144725 26 
0.453722 0.0743237 -0.143018 29 
0.454098 0.0743385 -0.142235 23 
0.457299 0.0744793 -0.142325 24 
0.454682 0.0743605 -0.140614 28 
0.456038 0.074419 -0.140128 27 
0.453951 0.0743238 -0.138592 27 
0.456917 0.0744541 -0.138589 29 
0.455053 0.0743689 -0.137128 25 
0.455319 0.0743787 -0.136309 28 
0.459936 0.0745826 -0.136776 32 
0.456544 0.0744293 -0.134873 36 
0.456352 0.0744187 -0.133917 33 
0.456621 0.0744287 -0.133097 31 
0.459386 0.07455 -0.132996 32 
0.458959 0.0745289 -0.131971 27 
0.460635 0.0746016 -0.131546 32 
0.458806 0.074518 -0.130126 35 
0.460072 0.0745724 -0.129581 31 
0.460055 0.0745696 -0.128674 34 
0.459279 0.074533 -0.127559 32 
0.461487 0.0746293 -0.127266 32 
0.459365 0.0745327 -0.125786 30 
0.460517 0.074582 -0.1252 29 
0.459977 0.0745559 -0.124156 30 
0.46225 0.0746552 -0.123865 32 
0.460475 0.0745741 -0.122494 34 
0.460053 0.0745533 -0.121486 36 
0.461093 0.0745976 -0.120861 32 
0.461492 0.0746133 -0.120067 39 
0.462598 0.0746605 -0.119454 38 
0.461528 0.0746108 -0.118283 41 
0.461459 0.0746057 -0.117369 40 
0.460396 0.0745564 -0.116207 42 
0.462203 0.0746348 -0.115764 44 
0.464558 0.0747375 -0.115451 44 
0.460954 0.0745752 -0.113667 44 
0.46206 0.0746224 -0.113045 45 
0.461818 0.0746096 -0.112093 45 
0.462752 0.0746491 -0.111424 48 
0.463276 0.0746704 -0.110655 48 
0.462094 0.0746158 -0.109482 51 
0.462971 0.0746528 -0.108795 55 
0.465334 0.0747558 -0.108451 52 
0.465151 0.0747457 -0.107513 51 
0.464199 0.0747013 -0.1064 53 
0.46467 0.0747202 -0.105613 55 
0.463367 0.0746603 -0.104428 51 
0.466689 0.074806 -0.104276 51 
0.465733 0.0747614 -0.103169 52 
0.467225 0.0748257 -0.102601 51 
0.465971 0.0747679 -0.101433 59 
0.465436 0.0747422 -0.100425 57 
0.466747 0.0747984 -0.0998125 58 
0.466212 0.0747726 -0.0988061 61 
0.467289 0.0748184 -0.098139 61 
0.467232 0.0748139 -0.0972335 63 
0.467056 0.0748041 -0.0963044 59 
0.46712 0.0748049 -0.0954252 60 
0.470133 0.0749366 -0.0951398 57 
0.467668 0.0748252 -0.0937515 63 
0.468695 0.0748687 -0.0930624 56 
0.469907 0.0749205 -0.0924062 57 
0.471248 0.074978 -0.0917707 66 
0.468595 0.0748583 -0.090365 65 
0.468964 0.0748726 -0.0895435 65 
0.470725 0.0749487 -0.0889825 68 
0.471889 0.0749983 -0.0883044 65 
0.471899 0.0749967 -0.0874098 67 
0.470937 0.0749521 -0.0863385 65 
0.472287 0.0750099 -0.0856882 66 
0.471325 0.0749652 -0.0846207 75 
0.471702 0.0749799 -0.0837938 67 
0.473364 0.0750515 -0.0831902 71 
0.474052 0.07508 -0.0824127 71 
0.474374 0.0750923 -0.0815703 72 
0.473714 0.075061 -0.0805613 76 
0.473975 0.0750705 -0.0797091 76 
0.474176 0.0750774 -0.0788464 78 
0.47561 0.0751389 -0.0781847 83 
0.475257 0.0751213 -0.0772297 80 
0.475831 0.0751447 -0.0764243 81 
0.476594 0.0751764 -0.0756468 80 
0.47649 0.0751698 -0.0747318 80 
0.476634 0.0751742 -0.073856 77 
0.47765 0.0752171 -0.0731123 80 
0.478545 0.0752547 -0.0723472 78 
0.477695 0.075215 -0.0713203 89 
0.478279 0.0752389 -0.070507 90 
0.479492 0.0752905 -0.0697827 87 
0.478079 0.0752259 -0.0686797 88 
0.478105 0.0752251 -0.0677849 92 
0.478194 0.075227 -0.0668992 92 
0.479346 0.0752759 -0.0661591 92 
0.479123 0.075264 -0.0652293 96 
0.479152 0.0752633 -0.0643342 94 
0.478806 0.075246 -0.0633901 91 
0.479588 0.0752785 -0.0625936 95 
0.478993 0.0752501 -0.0616189 93 
0.479149 0.075255 -0.0607413 93 
0.479307 0.07526 -0.0598635 91 
0.478902 0.0752401 -0.058917 94 
0.479625 0.07527 -0.0581075 91 
0.479159 0.0752473 -0.0571552 89 
0.480385 0.0752995 -0.0564019 92 
0.479543 0.0752603 -0.0554075 92 
0.481214 0.0753321 -0.0546995 92 
0.480559 0.0753011 -0.053728 101 
0.479657 0.0752592 -0.0527323 103 
0.480009 0.0752728 -0.0518746 108 
0.480678 0.0753003 -0.051049 107 
0.481285 0.0753251 -0.0502149 108 
0.482338 0.0753696 -0.049424 104 
0.480992 0.0753081 -0.0483906 105 
0.481855 0.0753442 -0.0475783 109 
0.482026 0.0753497 -0.0466967 116 
0.481187 0.0753106 -0.04572 116 
0.481548 0.0753245 -0.044857 117 
0.481594 0.0753246 -0.0439646 120 
0.481264 0.0753079 -0.0430389 127 
0.480934 0.0752914 -0.0421147 130 
0.480731 0.0752804 -0.0412028 135 
0.481347 0.0753056 -0.0403596 128 
0.481398 0.0753058 -0.0394686 127 
0.481323 0.0753004 -0.0385677 124 
0.480809 0.0752757 -0.0376334 127 
0.480673 0.0752677 -0.0367297 135 
0.481355 0.0752958 -0.0358868 135 
0.481284 0.0752906 -0.0349876 134 
0.480647 0.0752605 -0.0340494 134 
0.481017 0.0752749 -0.0331821 130 
0.480823 0.0752643 -0.0322764 129 
0.481509 0.0752925 -0.031428 129 
0.482768 0.075346 -0.0306129 130 
0.481438 0.0752853 -0.0296369 134 
0.480555 0.0752444 -0.0286922 132 
0.479739 0.0752064 -0.0277548 131 
0.479051 0.0751741 -0.0268275 132 
0.479425 0.0751886 -0.0259591 132 
0.480426 0.0752307 -0.0251216 128 
0.479988 0.0752094 -0.0242097 131 
0.479365 0.0751799 -0.0232907 130 
0.478496 0.0751396 -0.0223629 129 
0.477941 0.0751132 -0.0214522 133 
0.479626 0.0751854 -0.0206373 134 
0.479256 0.0751671 -0.0197342 141 
0.478018 0.0751106 -0.0187995 146 
0.477591 0.0750898 -0.0178989 149 
0.477722 0.0750936 -0.0170191 145 
0.477421 0.0750783 -0.0161249 147 
0.477306 0.0750713 -0.0152376 144 
0.476637 0.0750398 -0.0143348 145 
0.476524 0.0750329 -0.0134496 138 
0.475981 0.075007 -0.0125541 145 
0.476117 0.075011 -0.0116764 142 
0.475331 0.0749744 -0.0107786 150 
0.475283 0.0749703 -0.00989817 147 
0.474747 0.0749447 -0.00900931 153 
0.473481 0.0748871 -0.00811095 149 
0.473862 0.0749019 -0.00724032 148 
0.473635 0.0748899 -0.00636095 148 
0.472559 0.0748406 -0.00547374 147 
0.472154 0.0748208 -0.00459617 136 
0.472233 0.0748224 -0.0037233 135 
0.471709 0.0747973 -0.00284732 131 
0.471126 0.0747698 -0.00197312 132 
0.47169 0.0747926 -0.00110221 128 
0.471833 0.0747969 -0.000229571 123 
0.471976 0.0748012 0.000643605 123 
0.471818 0.0747923 0.00151595 126 
0.471541 0.0747782 0.00238695 114 
0.471023 0.0747535 0.00325496 110 
0.47135 0.0747658 0.00412964 111 
0.471679 0.0747783 0.00500558 114 
0.472129 0.0747961 0.00588447 110 
0.472945 0.0748299 0.00677082 109 
0.472428 0.0748053 0.00763684 105 
0.472882 0.0748232 0.00851984 107 
0.473217 0.0748359 0.00940204 99 
0.473248 0.0748353 0.0102785 97 
0.474866 0.0749044 0.0111949 94 
0.473556 0.0748449 0.0120387 100 
0.473956 0.0748604 0.0129268 96 
0.473747 0.0748493 0.0137978 102 
0.475494 0.074924 0.0147316 100 
0.474734 0.0748886 0.015586 100 
0.473307 0.0748241 0.0164137 100 
0.473832 0.0748451 0.0173102 102 
0.475952 0.0749361 0.0182724 103 
0.475623 0.0749197 0.0191404 103 
0.474438 0.0748657 0.0199701 100 
0.475336 0.0749031 0.0208901 106 
0.477041 0.0749758 0.0218517 100 
0.476775 0.0749622 0.0227229 105 
0.477128 0.0749756 0.0236248 102 
0.477854 0.0750055 0.0245479 107 
0.477775 0.075 0.0254299 105 
0.478505 0.07503 0.0263574 108 
0.480741 0.0751259 0.0273758 107 
0.480162 0.0750985 0.028233 112 
0.479336 0.0750603 0.0290728 109 
0.479823 0.0750797 0.0299939 118 
0.480689 0.0751156 0.0309418 118 
0.482127 0.0751765 0.031932 116 
0.481612 0.075152 0.0327917 117 
0.482614 0.0751938 0.0337581 117 
0.483367 0.0752247 0.0347102 117 
0.483105 0.0752112 0.035589 118 
0.48348 0.0752256 0.0365161 118 
0.484302 0.0752595 0.0374801 121 
0.483596 0.0752266 0.038324 128 
0.483655 0.0752272 0.0392287 124 
0.484864 0.075278 0.0402311 118 
0.485054 0.0752843 0.0411501 122 
0.484988 0.0752794 0.0420475 119 
0.484411 0.0752521 0.0428989 121 
0.486013 0.0753201 0.0439488 126 
0.4864 0.075335 0.044891 125 
0.486659 0.0753443 0.0458226 123 
0.486662 0.0753423 0.0467304 118 
0.487829 0.0753913 0.0477543 125 
0.48738 0.0753696 0.0486191 127 
0.488033 0.0753961 0.0495962 125 
0.489014 0.0754369 0.0506105 128 
0.4885 0.0754124 0.051469 120 
0.489224 0.0754419 0.0524605 116 
0.488711 0.0754175 0.0533181 123 
0.492393 0.0755763 0.0546465 119 
0.490233 0.0754798 0.05532 113 
0.491031 0.0755126 0.0563302 108 
0.491636 0.0755369 0.0573207 111 
0.491847 0.0755441 0.0582666 111 
0.492389 0.0755657 0.059254 113 
0.491414 0.075521 0.0600558 114 
0.493348 0.0756033 0.0612201 111 
0.494629 0.0756572 0.0623088 111 
0.494848 0.0756646 0.063265 103 
0.496072 0.075716 0.0643546 104 
0.496563 0.0757353 0.0653513 106 
0.496449 0.0757282 0.0662686 104 
0.497212 0.0757594 0.067306 106 
0.49656 0.0757288 0.0681501 103 
0.497528 0.0757689 0.0692202 108 
0.49654 0.0757237 0.0700152 109 
0.496768 0.0757315 0.0709826 103 
0.497266 0.0757512 0.071991 109 
0.498105 0.0757856 0.0730523 105 
0.498405 0.0757966 0.074036 102 
0.499795 0.0758551 0.0751874 99 
0.499075 0.0758215 0.0760193 96 
0.501708 0.0759342 0.0773718 92 
0.499206 0.075823 0.0779241 91 
0.499102 0.0758163 0.0788505 93 
0.500296 0.0758662 0.0799868 88 
0.499237 0.075818 0.0807596 90 
0.499 0.0758055 0.0816647 90 
0.499923 0.0758436 0.0827637 93 
0.502159 0.0759388 0.0840888 97 
0.501371 0.0759023 0.0849052 98 
0.500928 0.0758809 0.085779 105 
0.501312 0.0758955 0.0867961 110 
0.501904 0.0759191 0.087852 115 
0.500432 0.0758529 0.0885418 118 
0.500611 0.0758585 0.0895247 117 
0.501273 0.0758852 0.0905969 119 
0.500767 0.075861 0.0914567 129 
0.50088 0.0758638 0.0924306 129 
0.500651 0.0758516 0.0933408 129 
0.500148 0.0758276 0.0941987 126 
0.500538 0.0758424 0.0952268 127 
0.50093 0.0758573 0.0962572 133 
0.500291 0.0758274 0.0970877 133 
0.500341 0.0758274 0.0980525 134 
0.500735 0.0758424 0.0990868 138 
0.501062 0.0758544 0.10011 134 
0.500494 0.0758276 0.100952 129 
0.500134 0.0758098 0.101836 127 
0.499502 0.0757801 0.102662 119 
0.499419 0.0757743 0.103602 120 
0.499473 0.0757746 0.104571 125 
0.498298 0.0757213 0.105278 127 
0.497332 0.0756772 0.106026 122 
0.496844 0.0756538 0.106876 117 
0.497445 0.0756778 0.107962 114 
0.497027 0.0756574 0.108826 112 
0.497018 0.0756549 0.10978 113 
0.495856 0.0756023 0.110476 113 
0.496458 0.0756262 0.111567 116 
0.495705 0.0755914 0.112352 113 
0.494215 0.0755246 0.112965 119 
0.494142 0.0755192 0.113902 124 
0.494069 0.0755139 0.114839 114 
0.493058 0.0754679 0.115555 114 
0.492318 0.0754336 0.116332 124 
0.492381 0.0754342 0.1173 123 
0.492445 0.0754348 0.118269 124 
0.492711 0.0754442 0.119288 130 
0.491507 0.0753898 0.119948 129 
0.491373 0.0753818 0.120868 132 
0.49031 0.0753336 0.121557 127 
0.489714 0.0753056 0.122359 120 
0.489847 0.0753092 0.123345 125 
0.488857 0.0752641 0.124045 121 
0.488595 0.0752506 0.12493 113 
0.48939 0.0752829 0.126088 107 
0.489924 0.0753039 0.127182 106 
0.489199 0.0752703 0.127947 106 
0.48861 0.0752426 0.128746 108 
0.487037 0.0751723 0.12928 109 
0.488357 0.0752274 0.130588 102 
0.48764 0.0751941 0.131349 102 
0.486728 0.0751525 0.132055 97 
0.488709 0.0752362 0.133554 91 
0.488917 0.075243 0.13457 88 
0.488199 0.0752097 0.135329 84 
0.488407 0.0752166 0.136346 85 
0.487495 0.0751749 0.137048 90 
0.487308 0.0751647 0.137954 88 
0.486925 0.0751459 0.138804 87 
0.488123 0.0751956 0.140109 94 
0.487872 0.0751826 0.140998 96 
0.488746 0.0752182 0.142216 88 
0.488363 0.0751994 0.143069 91 
0.488974 0.0752237 0.144215 96 
0.489988 0.0752654 0.145485 93 
0.489738 0.0752524 0.14638 92 
0.489956 0.0752596 0.147416 93 
0.490642 0.0752871 0.148596 89 
0.491465 0.0753205 0.149821 90 
0.491149 0.0753046 0.1507 87 
0.489899 0.0752484 0.151288 84 
0.493077 0.0753835 0.153255 82 
0.49175 0.075324 0.153819 80 
0.491504 0.0753111 0.154721 85 
0.491998 0.0753303 0.155858 85 
0.493035 0.0753729 0.157172 79 
0.49306 0.0753717 0.158164 78 
0.494172 0.0754175 0.15951 78 
0.493926 0.0754047 0.160418 77 
0.493478 0.0753831 0.16126 73 
0.494594 0.0754291 0.162617 71 
0.49476 0.0754339 0.163664 76 
0.493699 0.0753859 0.164302 75 
0.495572 0.0754645 0.165923 76 
0.495877 0.0754755 0.167023 72 
0.496046 0.0754805 0.168078 70 
0.496285 0.0754885 0.169159 69 
0.495631 0.0754581 0.169933 72 
0.49642 0.0754899 0.171207 65 
0.497975 0.0755547 0.17275 66 
0.497457 0.0755301 0.173575 68 
0.497493 0.0755293 0.174593 73 
0.498918 0.0755886 0.176106 69 
0.497983 0.0755459 0.176783 69 
0.49816 0.0755513 0.177856 70 
0.497713 0.0755297 0.178705 68 
0.497197 0.0755052 0.179529 72 
0.49807 0.0755405 0.180858 75 
0.497902 0.075531 0.18181 83 
0.498778 0.0755665 0.183147 79 
0.497429 0.075506 0.183663 71 
0.497471 0.0755056 0.184693 76 
0.498558 0.0755501 0.186116 68 
0.496863 0.0754748 0.186497 68 
0.497601 0.0755043 0.187793 67 
0.496881 0.075471 0.188537 61 
0.497899 0.0755125 0.189945 64 
0.498433 0.0755332 0.191172 63 
0.497643 0.0754969 0.191889 61 
0.496717 0.0754547 0.192551 63 
0.496555 0.0754454 0.19351 69 
0.495771 0.0754094 0.194224 63 
0.494783 0.0753645 0.194855 66 
0.496006 0.0754148 0.196361 65 
0.494603 0.0753522 0.196825 59 
0.492114 0.0752428 0.196848 52 
0.493944 0.0753192 0.198604 46 
0.4942 0.0753279 0.19973 44 
0.495078 0.0753633 0.201112 43 
0.49375 0.0753039 0.201595 39 
0.491813 0.0752183 0.201823 41 
0.492069 0.075227 0.202951 41 
0.492942 0.0752622 0.204337 45 
0.493407 0.0752799 0.205558 47 
0.49346 0.0752798 0.206609 52 
0.492003 0.0752149 0.207023 53 
0.492331 0.0752266 0.20819 51 
0.491768 0.0752002 0.208979 52 
0.49196 0.0752061 0.21009 57 
0.488477 0.0750541 0.209622 59 
0.490158 0.075124 0.211373 57 
0.49069 0.0751445 0.212632 50 
0.490609 0.0751387 0.213628 53 
0.491418 0.0751711 0.215014 49 
0.492161 0.0752007 0.216376 51 
0.492426 0.0752097 0.21753 49 
0.490839 0.0751393 0.217863 48 
0.490351 0.075116 0.218681 63 
0.490888 0.0751367 0.219959 48 
0.492735 0.0752136 0.221831 51 
0.489915 0.0750902 0.221596 57 
0.240373 0.0668039 -0.116924 7 
0.860354 0.0995875 -0.410801 6 
0.325377 0.0712949 -0.155509 7 
0.555134 0.0834405 -0.262817 8 
0.457503 0.0782763 -0.215821 8 
0.454132 0.0780959 -0.213276 8 
0.474371 0.0791635 -0.221712 8 
0.590276 0.0852873 -0.274396 6 
0.460746 0.0784389 -0.213427 11 
0.227469 0.0661118 -0.106497 8 
0.462993 0.0785532 -0.212501 10 
0.464461 0.0786286 -0.212189 10 
0.458593 0.0783164 -0.208557 7 
0.460516 0.0784158 -0.208454 9 
0.460339 0.0784042 -0.207404 8 
0.384991 0.0744227 -0.172916 7 
0.464778 0.0786342 -0.207435 7 
0.259561 0.0677969 -0.116455 7 
0.460357 0.0783964 -0.20354 10 
0.252424 0.0674178 -0.112294 8 
0.609608 0.0862714 -0.266686 7 
0.167418 0.0629311 -0.0756666 8 
0.458471 0.0782881 -0.19887 10 
0.461652 0.0784539 -0.199277 9 
0.461178 0.0784267 -0.19811 10 
0.220685 0.0657365 -0.0959391 8 
0.451196 0.0778956 -0.191969 10 
0.234759 0.0664766 -0.100767 7 
0.465334 0.0786372 -0.196009 11 
0.439966 0.0772969 -0.184478 7 
0.458901 0.0782936 -0.191409 11 
0.452756 0.0779673 -0.187924 11 
0.450468 0.0778446 -0.186047 12 
0.450196 0.0778281 -0.185003 12 
0.450954 0.077866 -0.18438 11 
0.457834 0.0782266 -0.186228 8 
0.463588 0.0785278 -0.187597 11 
0.455337 0.0780907 -0.18334 9 
0.462647 0.0784738 -0.185311 9 
0.453854 0.0780083 -0.180877 13 
0.449736 0.0777892 -0.178321 9 
0.454874 0.0780578 -0.17941 10 
0.463607 0.0785158 -0.181881 14 
0.458188 0.0782282 -0.178828 10 
0.451119 0.0778537 -0.175161 11 
0.453956 0.078001 -0.175326 10 
0.453916 0.0779968 -0.174382 11 
0.455793 0.0780936 -0.174167 12 
0.444111 0.0774763 -0.168824 11 
0.456064 0.0781037 -0.172407 10 
0.452208 0.0778985 -0.170037 12 
0.453206 0.077949 -0.169486 14 
0.451164 0.0778394 -0.167809 13 
0.449991 0.0777756 -0.16646 11 
0.452925 0.0779279 -0.166618 15 
0.452602 0.0779089 -0.165581 13 
0.449662 0.0777521 -0.1636 18 
0.453913 0.0779737 -0.164217 16 
0.453131 0.0779305 -0.163018 14 
0.450869 0.0778094 -0.161297 22 
0.451235 0.0778266 -0.160515 20 
0.449728 0.0777453 -0.159074 21 
0.454668 0.078003 -0.159892 23 
0.45097 0.0778065 -0.15769 19 
0.455065 0.0780198 -0.158196 20 
0.451876 0.07785 -0.156185 18 
0.454713 0.0779972 -0.156245 20 
0.453819 0.0779481 -0.155027 23 
0.454941 0.078005 -0.154494 23 
0.456707 0.0780958 -0.154174 22 
0.453329 0.0779162 -0.152132 28 
0.453129 0.0779036 -0.151157 25 
0.453044 0.0778971 -0.150222 27 
0.453475 0.0779176 -0.149457 26 
0.454538 0.0779715 -0.148897 30 
0.454454 0.077965 -0.147962 24 
0.457378 0.0781166 -0.147995 32 
0.45257 0.0778619 -0.145547 27 
0.453059 0.0778856 -0.144801 32 
0.452977 0.0778792 -0.143873 27 
0.453753 0.077918 -0.143215 23 
0.456145 0.0780416 -0.143059 23 
0.457339 0.0781022 -0.142523 21 
0.457198 0.0780927 -0.141572 25 
0.455555 0.0780044 -0.140163 24 
0.456804 0.0780679 -0.13964 24 
0.460578 0.078264 -0.139875 24 
0.457281 0.0780889 -0.137975 35 
0.455583 0.0779977 -0.136565 30 
0.45718 0.0780795 -0.136138 29 
0.459022 0.0781741 -0.135777 35 
0.457603 0.0780976 -0.134458 35 
0.458281 0.0781312 -0.133753 38 
0.459254 0.0781801 -0.13313 36 
0.458418 0.0781342 -0.131987 36 
0.459332 0.0781802 -0.131346 35 
0.457568 0.0780856 -0.129945 27 
0.459472 0.0781834 -0.129581 36 
0.460509 0.0782358 -0.128968 32 
0.459613 0.0781868 -0.127817 36 
0.461947 0.0783071 -0.127558 35 
0.4614 0.0782764 -0.126504 34 
0.460738 0.0782396 -0.125422 30 
0.460723 0.0782368 -0.124518 34 
0.462062 0.0783049 -0.123975 31 
0.46252 0.0783269 -0.123194 33 
0.460682 0.0782285 -0.121808 37 
0.465467 0.0784773 -0.122159 36 
0.462068 0.0782971 -0.120372 40 
0.464545 0.0784249 -0.120109 38 
0.46299 0.0783413 -0.118808 45 
0.463927 0.0783884 -0.118146 44 
0.464511 0.078417 -0.117391 44 
0.462427 0.0783058 -0.11597 44 
0.46177 0.0782693 -0.11491 45 
0.464007 0.0783844 -0.114564 45 
0.462637 0.0783107 -0.113331 48 
0.463457 0.0783516 -0.112633 48 
0.464161 0.0783864 -0.111905 53 
0.464571 0.0784058 -0.111105 51 
0.465697 0.0784628 -0.110473 53 
0.464143 0.0783794 -0.10921 50 
0.464435 0.0783927 -0.108382 57 
0.465562 0.0784496 -0.107745 54 
0.465737 0.0784567 -0.106888 49 
0.466033 0.0784702 -0.106057 54 
0.467048 0.0785213 -0.105388 58 
0.466446 0.0784877 -0.104356 57 
0.468247 0.0785799 -0.103856 61 
0.466444 0.0784836 -0.102562 60 
0.467162 0.0785191 -0.101822 56 
0.469332 0.0786306 -0.101391 55 
0.467463 0.0785308 -0.100093 61 
0.467705 0.0785414 -0.0992477 59 
0.468007 0.0785552 -0.0984148 63 
0.469337 0.0786227 -0.097794 58 
0.469583 0.0786335 -0.0969461 58 
0.468981 0.0786 -0.0959258 65 
0.470257 0.0786647 -0.0952862 62 
0.470687 0.0786851 -0.0944736 65 
0.470936 0.0786961 -0.093624 63 
0.471307 0.0787135 -0.092798 66 
0.472781 0.0787884 -0.0921847 60 
0.472605 0.0787772 -0.0912495 64 
0.47341 0.0788172 -0.0905021 68 
0.472253 0.0787548 -0.0893832 65 
0.47312 0.078798 -0.0886458 71 
0.473621 0.0788221 -0.0878382 64 
0.47265 0.0787694 -0.0867607 70 
0.474074 0.0788417 -0.0861194 70 
0.474517 0.0788628 -0.0852982 80 
0.475271 0.0789001 -0.0845307 81 
0.474049 0.0788343 -0.0834155 80 
0.475112 0.0788877 -0.0827003 72 
0.473954 0.0788253 -0.0816019 77 
0.47576 0.0789175 -0.0810093 73 
0.474416 0.0788453 -0.0798838 77 
0.47573 0.0789119 -0.0792032 80 
0.475005 0.078872 -0.0781847 87 
0.477444 0.0789972 -0.0776805 87 
0.477088 0.0789766 -0.0767214 80 
0.477731 0.0790081 -0.0759216 76 
0.478564 0.0790495 -0.0751494 81 
0.476961 0.0789639 -0.0739994 78 
0.477918 0.0790117 -0.0732451 81 
0.478127 0.0790206 -0.0723754 80 
0.477713 0.078997 -0.0714127 84 
0.478173 0.079019 -0.0705802 79 
0.47851 0.0790345 -0.0697284 90 
0.478098 0.0790109 -0.0687688 93 
0.478499 0.0790298 -0.0679256 98 
0.479717 0.0790913 -0.0671949 93 
0.478677 0.0790351 -0.0661505 95 
0.478893 0.0790443 -0.0652801 97 
0.480242 0.0791125 -0.0645601 99 
0.478326 0.0790106 -0.0634065 98 
0.479421 0.0790657 -0.0626505 98 
0.479013 0.0790424 -0.0616988 102 
0.479735 0.079078 -0.0608911 102 
0.47939 0.079058 -0.0599489 101 
0.479675 0.0790708 -0.0590851 92 
0.479081 0.0790378 -0.058115 88 
0.479681 0.079067 -0.0572886 95 
0.479905 0.0790767 -0.0564165 96 
0.480067 0.0790831 -0.0555368 98 
0.481112 0.0791355 -0.0547564 99 
0.480583 0.0791059 -0.0537978 105 
0.480118 0.0790796 -0.0528485 111 
0.480661 0.0791059 -0.0520092 104 
0.480575 0.0790994 -0.0511019 103 
0.480364 0.0790864 -0.0501824 102 
0.480784 0.0791062 -0.0493279 102 
0.480008 0.0790638 -0.0483531 104 
0.480429 0.0790837 -0.0474983 109 
0.48104 0.0791134 -0.0466604 118 
0.482097 0.0791664 -0.0458624 124 
0.481446 0.0791305 -0.0449035 124 
0.480295 0.0790686 -0.0439021 119 
0.480343 0.079069 -0.0430111 120 
0.479888 0.0790434 -0.0420767 117 
0.480188 0.079057 -0.0412081 126 
0.481119 0.0791034 -0.0403909 123 
0.480791 0.0790843 -0.0394686 121 
0.480213 0.0790522 -0.0385279 123 
0.481525 0.0791184 -0.0377355 130 
0.481263 0.0791027 -0.0368197 126 
0.479869 0.0790283 -0.0358222 124 
0.479422 0.079003 -0.0348977 122 
0.48023 0.079043 -0.0340626 124 
0.479846 0.079021 -0.0331438 123 
0.479402 0.0789959 -0.0322226 125 
0.47996 0.0790229 -0.0313676 124 
0.47958 0.0790011 -0.0304522 127 
0.480203 0.0790315 -0.029599 132 
0.479198 0.0789773 -0.0286482 133 
0.479508 0.0789914 -0.027776 135 
0.47882 0.0789536 -0.026848 138 
0.480322 0.0790296 -0.0260387 133 
0.480071 0.0790146 -0.0251344 130 
0.47907 0.0789606 -0.0241943 129 
0.47876 0.0789425 -0.0232907 131 
0.4792 0.0789633 -0.0224225 130 
0.478268 0.0789129 -0.0214929 135 
0.478459 0.0789209 -0.0206138 133 
0.479275 0.0789612 -0.0197592 139 
0.478907 0.0789401 -0.0188564 141 
0.477855 0.0788835 -0.0179303 147 
0.477366 0.0788561 -0.0170276 147 
0.476755 0.0788224 -0.0161229 142 
0.476764 0.0788209 -0.0152395 143 
0.47665 0.078813 -0.0143526 141 
0.476414 0.0787987 -0.0134629 137 
0.475993 0.0787749 -0.0125696 136 
0.475944 0.0787704 -0.0116864 136 
0.475403 0.0787403 -0.0107931 138 
0.475109 0.0787231 -0.00990656 146 
0.474878 0.0787091 -0.0090223 148 
0.474159 0.0786699 -0.00813121 146 
0.47393 0.078656 -0.0072497 149 
0.473276 0.0786201 -0.0063639 140 
0.472746 0.0785907 -0.00548183 140 
0.472521 0.078577 -0.00460432 137 
0.472661 0.0785823 -0.00373005 141 
0.472499 0.0785719 -0.00285385 140 
0.472398 0.0785647 -0.00197843 136 
0.472359 0.0785607 -0.00110346 132 
0.472381 0.0785599 -0.000228567 135 
0.472464 0.0785622 0.000646579 132 
0.472731 0.0785741 0.00152289 120 
0.472695 0.0785702 0.00239825 119 
0.473085 0.0785884 0.00327704 118 
0.47226 0.0785438 0.00414498 112 
0.47253 0.0785557 0.00502302 118 
0.473348 0.0785961 0.00590972 113 
0.474048 0.0786304 0.00679762 119 
0.47365 0.0786078 0.00766888 117 
0.474413 0.0786453 0.00856129 106 
0.474077 0.0786259 0.00943318 100 
0.474109 0.0786256 0.0103124 102 
0.47549 0.0786951 0.0112255 103 
0.475339 0.0786853 0.0121027 105 
0.473964 0.0786121 0.0129443 101 
0.475224 0.0786753 0.0138614 108 
0.475567 0.0786911 0.0147535 107 
0.474989 0.0786592 0.0156155 106 
0.474842 0.0786496 0.0164909 124 
0.476296 0.0787228 0.0174267 109 
0.477511 0.0787837 0.0183586 102 
0.477675 0.0787902 0.0192512 104 
0.475122 0.0786561 0.0200262 101 
0.476333 0.0787168 0.0209628 104 
0.477987 0.0788003 0.021925 104 
0.479153 0.0788585 0.0228694 103 
0.477764 0.0787847 0.0236881 105 
0.479994 0.078898 0.024693 104 
0.478914 0.0788402 0.0255252 107 
0.478961 0.0788406 0.0264174 112 
0.480639 0.0789253 0.0274052 109 
0.480122 0.0788965 0.028267 108 
0.481683 0.0789752 0.0292564 110 
0.482114 0.0789954 0.0301793 119 
0.483435 0.0790617 0.0311627 119 
0.482789 0.0790262 0.0320178 121 
0.48367 0.0790697 0.0329771 113 
0.484107 0.0790903 0.0339082 114 
0.48378 0.0790713 0.0347849 117 
0.484667 0.0791151 0.0357521 123 
0.485622 0.0791624 0.036728 123 
0.485488 0.0791534 0.0376217 127 
0.485355 0.0791445 0.0385151 125 
0.485158 0.0791323 0.0394031 129 
0.4867 0.0792098 0.0404376 120 
0.487215 0.0792344 0.0413893 121 
0.486761 0.0792089 0.0422576 121 
0.488837 0.0793139 0.0433526 119 
0.487861 0.0792615 0.0441748 117 
0.488512 0.0792931 0.0451463 124 
0.48858 0.0792945 0.0460646 123 
0.488582 0.0792926 0.0469772 126 
0.488521 0.0792873 0.0478836 125 
0.488655 0.0792922 0.04881 126 
0.489379 0.0793275 0.0497979 119 
0.490959 0.0794069 0.050879 122 
0.489719 0.0793409 0.0516644 120 
0.491568 0.0794341 0.0527819 114 
0.491511 0.0794291 0.0536955 112 
0.492049 0.0794548 0.0546762 113 
0.492722 0.0794874 0.0556748 113 
0.494531 0.0795785 0.0568084 112 
0.494678 0.079584 0.0577525 109 
0.495831 0.0796413 0.0588185 108 
0.493971 0.0795434 0.0595214 109 
0.494454 0.0795662 0.0605079 113 
0.495542 0.0796202 0.0615728 115 
0.496232 0.0796536 0.0625913 115 
0.495712 0.0796247 0.063456 113 
0.496337 0.0796548 0.0644695 113 
0.497844 0.0797303 0.0656035 108 
0.499225 0.0797993 0.0667265 102 
0.498362 0.0797528 0.0675474 102 
0.498725 0.0797693 0.0685358 103 
0.498137 0.0797369 0.069392 109 
0.500414 0.079852 0.0706554 115 
0.499345 0.0797949 0.0714438 105 
0.499577 0.0798047 0.0724192 105 
0.498445 0.0797443 0.0731934 105 
0.498542 0.0797471 0.0741484 96 
0.500553 0.0798485 0.0753958 95 
0.500378 0.0798374 0.0763142 92 
0.501372 0.0798864 0.0774147 91 
0.502301 0.0799321 0.0785094 89 
0.503305 0.0799816 0.0796198 92 
0.502024 0.0799135 0.0803649 90 
0.501093 0.0798635 0.0811631 88 
0.50251 0.0799342 0.0823467 92 
0.50034 0.0798204 0.0829357 86 
0.501134 0.0798591 0.0840187 90 
0.501172 0.0798589 0.0849759 93 
0.500729 0.079834 0.0858504 101 
0.500425 0.0798162 0.086748 107 
0.50026 0.0798056 0.0876694 117 
0.500164 0.0797985 0.0886031 115 
0.501515 0.0798658 0.0897984 124 
0.499906 0.0797809 0.0904589 132 
0.50043 0.0798058 0.0915074 127 
0.500751 0.0798201 0.0925204 130 
0.501141 0.079838 0.0935483 133 
0.501464 0.0798524 0.0945654 129 
0.502204 0.0798883 0.0956643 135 
0.50025 0.0797857 0.0962438 135 
0.500919 0.0798179 0.0973304 141 
0.500417 0.07979 0.0981886 146 
0.500606 0.0797975 0.0991831 145 
0.499762 0.079752 0.0999709 136 
0.498922 0.0797067 0.100757 132 
0.498838 0.0797002 0.101695 128 
0.49848 0.0796797 0.102577 123 
0.498534 0.0796803 0.103544 120 
0.499274 0.0797161 0.104657 117 
0.496598 0.0795766 0.105046 112 
0.496722 0.0795808 0.106026 109 
0.496506 0.0795676 0.106935 120 
0.495411 0.0795092 0.10765 120 
0.495739 0.0795239 0.108676 116 
0.495256 0.079497 0.109523 118 
0.495247 0.0794944 0.110476 127 
0.494361 0.0794468 0.11123 120 
0.493546 0.0794028 0.111998 114 
0.493674 0.0794072 0.112981 112 
0.493735 0.0794082 0.113949 113 
0.492857 0.079361 0.114698 117 
0.493053 0.0793689 0.115698 122 
0.491844 0.0793047 0.116364 125 
0.49271 0.079347 0.117525 126 
0.492708 0.0793447 0.11848 127 
0.492639 0.079339 0.119419 124 
0.491433 0.0792751 0.120079 126 
0.490699 0.0792353 0.120852 118 
0.490699 0.0792331 0.121806 119 
0.489239 0.0791562 0.122393 121 
0.488645 0.0791236 0.123194 119 
0.489441 0.0791622 0.12435 118 
0.489974 0.0791873 0.125441 110 
0.488058 0.079087 0.1259 102 
0.48945 0.0791562 0.127216 102 
0.489056 0.0791339 0.128069 102 
0.488929 0.0791252 0.128991 102 
0.489398 0.0791471 0.130073 100 
0.489272 0.0791384 0.130997 101 
0.487956 0.0790689 0.131599 99 
0.489088 0.0791247 0.132865 97 
0.487971 0.0790653 0.133518 90 
0.488046 0.079067 0.134496 89 
0.487396 0.0790316 0.135274 86 
0.488462 0.079084 0.136532 82 
0.488407 0.079079 0.137478 90 
0.490347 0.079176 0.138992 85 
0.489227 0.0791166 0.139638 86 
0.490039 0.0791559 0.140837 93 
0.489453 0.0791238 0.141634 89 
0.490201 0.0791598 0.14282 94 
0.489616 0.0791277 0.143617 88 
0.490366 0.0791639 0.144808 88 
0.491187 0.0792037 0.146024 91 
0.491271 0.0792058 0.147023 91 
0.491222 0.0792011 0.147982 94 
0.490973 0.0791861 0.148881 93 
0.490523 0.0791609 0.149719 84 
0.491684 0.0792181 0.151052 82 
0.49238 0.0792514 0.152246 80 
0.491525 0.0792055 0.15296 83 
0.493237 0.0792908 0.154477 80 
0.492853 0.079269 0.15534 79 
0.492945 0.0792714 0.156353 81 
0.493921 0.079319 0.15765 75 
0.494082 0.0793251 0.15869 81 
0.495544 0.0793975 0.160153 71 
0.494613 0.0793477 0.160841 69 
0.495668 0.0793993 0.162179 69 
0.495148 0.0793705 0.163001 72 
0.494425 0.0793314 0.163755 72 
0.495207 0.0793691 0.16501 71 
0.495375 0.0793754 0.166062 70 
0.496645 0.0794379 0.167489 70 
0.496401 0.0794232 0.168406 64 
0.499697 0.0795892 0.170536 64 
0.499872 0.0795958 0.171604 71 
0.498999 0.079549 0.172311 71 
0.500504 0.0796235 0.173845 75 
0.49963 0.0795766 0.17455 78 
0.500298 0.0796084 0.175797 67 
0.501462 0.0796655 0.177224 69 
0.500446 0.0796114 0.177878 61 
0.500907 0.0796326 0.17906 72 
0.499263 0.0795465 0.179484 72 
0.500989 0.0796322 0.181125 72 
0.503439 0.0797548 0.183039 72 
0.501708 0.0796642 0.183429 79 
0.501751 0.0796641 0.184468 69 
0.500806 0.0796136 0.185141 66 
0.501344 0.0796387 0.186365 72 
0.502807 0.079711 0.187938 72 
0.501506 0.0796423 0.188476 70 
0.502332 0.0796821 0.189816 73 
0.502805 0.0797039 0.191027 70 
0.501221 0.0796209 0.191451 67 
0.499435 0.0795276 0.191792 70 
0.498641 0.0794848 0.192511 71 
0.500235 0.0795637 0.194158 62 
0.49958 0.079528 0.194931 68 
0.500193 0.0795569 0.196202 64 
0.498765 0.0794818 0.196669 65 
0.497275 0.0794036 0.197107 61 
0.497465 0.079411 0.198211 51 
0.497585 0.0794148 0.199288 59 
0.499814 0.0795259 0.201218 46 
0.493524 0.0792034 0.199702 43 
0.496623 0.0793588 0.20199 44 
0.496187 0.0793343 0.202842 40 
0.496798 0.0793631 0.204125 41 
0.496084 0.0793244 0.204864 42 
0.495164 0.0792753 0.205514 50 
0.495844 0.0793075 0.20683 43 
0.493197 0.0791706 0.206753 48 
0.495954 0.0793085 0.208947 50 
0.492411 0.0791259 0.208481 53 
0.493983 0.0792035 0.210181 47 
0.491765 0.0790884 0.210266 58 
0.493127 0.0791554 0.211884 54 
0.491396 0.079065 0.21217 53 
0.492758 0.0791319 0.213795 56 
0.492747 0.079129 0.214826 55 
0.49246 0.0791121 0.215737 51 
0.493347 0.0791548 0.217166 53 
0.491614 0.0790644 0.217439 50 
0.491055 0.0790337 0.218228 56 
0.491939 0.0790762 0.219662 65 
0.493104 0.0791331 0.221226 57 
0.492474 0.0790987 0.221986 57 
0.49413 0.0791805 0.223782 56 
1.74199 0.159974 -0.836718 6 
0.242694 0.0688618 -0.11773 6 
0.327826 0.0740316 -0.156925 7 
0.575171 0.089056 -0.272597 8 
0.395758 0.0781546 -0.187206 7 
0.407137 0.0788439 -0.191659 8 
0.174912 0.0647414 -0.084653 7 
0.239106 0.0686369 -0.112964 7 
0.320351 0.0735682 -0.149306 9 
0.468035 0.0825338 -0.216081 7 
0.451944 0.0815546 -0.207748 11 
0.467161 0.0824763 -0.213702 6 
0.360638 0.0760075 -0.164663 6 
0.462732 0.082203 -0.209734 7 
0.456189 0.0818036 -0.205827 10 
0.459533 0.0820044 -0.206356 10 
0.635407 0.0926761 -0.283592 6 
0.458464 0.0819352 -0.203949 8 
0.457457 0.0818719 -0.202542 9 
0.466062 0.0823918 -0.205345 8 
0.45446 0.0816857 -0.199317 10 
0.452833 0.0815848 -0.197659 8 
0.395449 0.0781018 -0.172003 7 
0.465711 0.0823616 -0.201289 10 
0.456141 0.081779 -0.196229 9 
0.450731 0.0814488 -0.192977 7 
0.450858 0.0814543 -0.19209 13 
0.46214 0.0821363 -0.195898 11 
0.447341 0.0812369 -0.188739 11 
0.461373 0.0820855 -0.193654 11 
0.460961 0.0820584 -0.192525 11 
0.4496 0.0813675 -0.18688 9 
0.452143 0.0815195 -0.186991 11 
0.454654 0.0816696 -0.187079 10 
0.453328 0.0815871 -0.185599 11 
0.451377 0.0814668 -0.183872 8 
0.45487 0.0816763 -0.184344 11 
0.450947 0.0814365 -0.181834 9 
0.454374 0.081642 -0.182268 9 
0.459038 0.0819224 -0.183178 11 
0.457041 0.0817993 -0.181446 9 
0.449869 0.0813628 -0.177693 11 
0.531463 0.0863027 -0.208629 6 
0.458387 0.0818744 -0.179149 11 
0.459887 0.0819632 -0.178787 10 
0.454838 0.0816553 -0.175905 11 
0.449448 0.0813268 -0.172915 14 
0.457981 0.0818414 -0.175236 9 
0.461627 0.08206 -0.175677 9 
0.451276 0.0814313 -0.170844 14 
0.460408 0.081982 -0.173336 11 
0.451431 0.0814365 -0.169059 12 
0.442585 0.080899 -0.164869 9 
0.449366 0.0813074 -0.16646 10 
0.460664 0.081989 -0.169678 13 
0.454804 0.0816322 -0.166609 15 
0.45471 0.0816245 -0.165651 11 
0.455022 0.0816413 -0.164841 16 
0.452562 0.0814904 -0.163038 18 
0.454547 0.0816083 -0.162827 20 
0.453127 0.0815204 -0.161405 18 
0.45344 0.0815372 -0.160598 18 
0.45433 0.081589 -0.159993 15 
0.463076 0.0821158 -0.162116 16 
0.451681 0.0814247 -0.157243 21 
0.450057 0.0813245 -0.155775 18 
0.456873 0.0817345 -0.157197 19 
0.454691 0.0816005 -0.155536 21 
0.453163 0.0815061 -0.154106 19 
0.454631 0.0815927 -0.153688 17 
0.454601 0.0815889 -0.152765 27 
0.45365 0.0815293 -0.151538 30 
0.455353 0.0816302 -0.15119 28 
0.45573 0.0816509 -0.150401 32 
0.454661 0.0815842 -0.149141 27 
0.457011 0.0817242 -0.148992 29 
0.456053 0.0816642 -0.147771 30 
0.452515 0.0814484 -0.145729 26 
0.456813 0.081706 -0.146192 32 
