ply
format ascii 1.0
comment Created by CloudCompare v2.11 alpha (Anoia)
comment Created 2025/12/9 18:26
obj_info Generated by CloudCompare!
element vertex 1448
property float x
property float y
property float z
property float scalar_Scalar_field
end_header
0.418884 -0.207111 0.0167833 94 
0.420194 -0.206552 0.0179129 96 
0.421694 -0.205911 0.0190511 104 
0.421286 -0.206089 0.0201589 94 
0.422886 -0.205405 0.0213076 93 
0.422114 -0.205739 0.0224078 98 
0.422897 -0.205406 0.0235442 96 
0.423133 -0.205308 0.024669 100 
0.423922 -0.204972 0.025811 99 
0.424254 -0.204832 0.026942 99 
0.424496 -0.204731 0.0280714 97 
0.425848 -0.204154 0.0292412 94 
0.428887 -0.202854 0.0304796 99 
0.427271 -0.203549 0.031547 103 
0.429015 -0.202804 0.0327472 101 
0.428147 -0.203179 0.0338411 97 
0.427562 -0.203433 0.0349445 98 
0.428377 -0.203086 0.0361122 95 
0.428448 -0.203059 0.0372464 100 
0.429175 -0.20275 0.038415 107 
0.428781 -0.202922 0.0395265 100 
0.429981 -0.20241 0.0407254 92 
0.429307 -0.202701 0.0418212 87 
0.433162 -0.201052 0.0431848 87 
0.430311 -0.202277 0.0441503 87 
0.431618 -0.201719 0.0453696 90 
0.430664 -0.202131 0.0464456 90 
0.432734 -0.201246 0.0477231 91 
0.433963 -0.200722 0.0489504 93 
0.436543 -0.199619 0.05028 95 
0.432051 -0.201547 0.0510977 97 
0.433471 -0.200941 0.0523464 96 
0.432424 -0.201393 0.0534086 94 
0.435859 -0.199923 0.0548255 89 
0.433469 -0.200951 0.0557787 93 
0.437983 -0.199018 0.0573029 97 
0.43357 -0.200913 0.058077 100 
0.43348 -0.200954 0.0592145 99 
0.433297 -0.201036 0.0603435 96 
0.433781 -0.200831 0.0615336 93 
0.4336 -0.200911 0.0626633 96 
0.434088 -0.200705 0.0638569 96 
0.433719 -0.200866 0.0649686 95 
0.435167 -0.200248 0.0662615 99 
0.436143 -0.199832 0.0675122 101 
0.435296 -0.200198 0.0685768 102 
0.434931 -0.200358 0.0696897 100 
0.435047 -0.200311 0.0708536 107 
0.435261 -0.200222 0.0720291 104 
0.435476 -0.200133 0.073206 104 
0.437911 -0.199092 0.0746386 105 
0.436681 -0.199622 0.0756539 103 
0.437675 -0.199198 0.0769286 98 
0.438869 -0.19869 0.0782318 97 
0.437542 -0.199261 0.0792308 94 
0.439322 -0.198501 0.0806126 93 
0.439259 -0.198531 0.0817682 90 
0.439295 -0.198519 0.0829367 94 
0.439917 -0.198255 0.0841826 87 
0.43937 -0.198492 0.085276 97 
0.441269 -0.197681 0.0866978 99 
0.440429 -0.198044 0.0877523 93 
0.44106 -0.197776 0.0890086 88 
0.439638 -0.198389 0.0899778 90 
0.442627 -0.19711 0.0915739 86 
0.442972 -0.196965 0.0927982 82 
0.443913 -0.196565 0.0941123 75 
0.44456 -0.196291 0.0953869 66 
0.248194 -0.280447 0.0668993 55 
0.252361 -0.278663 0.0683124 58 
0.233977 -0.286543 0.0662595 56 
0.273464 -0.269623 0.073193 63 
0.279874 -0.266879 0.0750418 64 
0.27092 -0.270718 0.074445 81 
0.267587 -0.272148 0.0747281 88 
0.264216 -0.273595 0.0749916 92 
0.259986 -0.275409 0.0750986 104 
0.25859 -0.27601 0.0756674 123 
0.25635 -0.276971 0.0760867 135 
0.253473 -0.278206 0.076387 143 
0.251947 -0.278862 0.0769125 149 
0.250912 -0.279307 0.0775189 153 
0.249104 -0.280084 0.0779832 157 
0.24757 -0.280743 0.07849 161 
0.243895 -0.28232 0.0785988 172 
0.242693 -0.282836 0.0791511 178 
0.24092 -0.283598 0.0795919 181 
0.239902 -0.284036 0.0801688 187 
0.239177 -0.284349 0.0807977 190 
0.238005 -0.284853 0.081338 189 
0.237937 -0.284884 0.0820893 194 
0.236128 -0.285661 0.0824971 196 
0.235739 -0.285829 0.0831811 201 
0.233434 -0.286819 0.0834778 195 
0.234683 -0.286285 0.0844891 197 
0.232114 -0.287388 0.0847209 197 
0.230752 -0.287973 0.0851931 204 
0.230336 -0.288153 0.0858584 205 
0.230193 -0.288216 0.0865805 205 
0.228149 -0.289094 0.0868957 201 
0.227469 -0.289387 0.0874975 206 
0.22706 -0.289564 0.0881561 207 
0.227652 -0.289312 0.0890335 207 
0.224988 -0.290455 0.0891909 206 
0.225421 -0.290272 0.0900318 210 
0.223693 -0.291014 0.090386 209 
0.22213 -0.291685 0.0907714 209 
0.221101 -0.292128 0.0912736 206 
0.221078 -0.292139 0.092006 206 
0.220944 -0.292198 0.0927126 209 
0.218193 -0.293379 0.0928003 208 
0.217186 -0.293812 0.093293 208 
0.218737 -0.29315 0.0943973 210 
0.216598 -0.294067 0.0946133 209 
0.217413 -0.29372 0.0955439 206 
0.216085 -0.294291 0.0959492 206 
0.214946 -0.29478 0.0963966 208 
0.216189 -0.29425 0.0974375 210 
0.214977 -0.294771 0.0978629 210 
0.214741 -0.294873 0.0985328 210 
0.213789 -0.295283 0.099018 211 
0.214092 -0.295155 0.099825 211 
0.212113 -0.296004 0.100038 211 
0.212164 -0.295984 0.100777 204 
0.211791 -0.296146 0.101405 209 
0.21149 -0.296277 0.10205 208 
0.210485 -0.296709 0.102506 206 
0.20966 -0.297064 0.103006 208 
0.210097 -0.296878 0.103849 207 
0.208995 -0.297352 0.10427 206 
0.208629 -0.297511 0.104891 207 
0.207606 -0.297951 0.105327 209 
0.207588 -0.29796 0.106043 208 
0.207813 -0.297866 0.106829 208 
0.207208 -0.298126 0.107378 201 
0.205712 -0.298769 0.107669 203 
0.205729 -0.298763 0.108393 193 
0.205918 -0.298684 0.109168 183 
0.205183 -0.299 0.109672 187 
0.205543 -0.298848 0.110499 187 
0.20635 -0.298504 0.111462 184 
0.206472 -0.298454 0.112222 187 
0.205324 -0.298947 0.112598 190 
0.204898 -0.299131 0.11319 189 
0.204473 -0.299315 0.113781 178 
0.204016 -0.299513 0.114361 171 
0.204784 -0.299186 0.115322 157 
0.20419 -0.299442 0.115858 152 
0.203937 -0.299552 0.116501 155 
0.20399 -0.299531 0.117241 161 
0.204589 -0.299276 0.118156 169 
0.204541 -0.299298 0.118866 184 
0.204118 -0.299481 0.119454 190 
0.203764 -0.299635 0.120064 186 
0.204705 -0.299233 0.121098 178 
0.203839 -0.299606 0.12154 177 
0.203758 -0.299643 0.122239 158 
0.204359 -0.299387 0.123167 158 
0.204756 -0.299219 0.12403 157 
0.205053 -0.299094 0.124861 170 
0.204869 -0.299174 0.12553 179 
0.205132 -0.299063 0.126352 184 
0.205189 -0.299041 0.127105 180 
0.205556 -0.298885 0.127966 180 
0.205407 -0.298951 0.128649 175 
0.20581 -0.29878 0.129526 177 
0.205661 -0.298846 0.13021 173 
0.206724 -0.298393 0.131327 176 
0.206714 -0.298399 0.132063 166 
0.20782 -0.297927 0.133203 165 
0.208266 -0.297738 0.134109 164 
0.208678 -0.297563 0.135005 167 
0.209198 -0.297343 0.135943 161 
0.210466 -0.296802 0.13716 158 
0.211386 -0.29641 0.138254 152 
0.212095 -0.296108 0.139275 149 
0.21234 -0.296005 0.140124 142 
0.213091 -0.295686 0.141166 131 
0.214684 -0.295006 0.142533 125 
0.217069 -0.293987 0.144211 124 
0.219376 -0.293002 0.14587 109 
0.221373 -0.292149 0.147421 91 
0.223779 -0.291121 0.14914 83 
0.224549 -0.290794 0.150229 62 
0.228064 -0.289291 0.152405 46 
0.161729 -0.317682 0.126969 41 
0.176898 -0.311191 0.133639 37 
0.419653 -0.207309 0.231957 38 
0.154257 -0.320884 0.125939 34 
0.427981 -0.203752 0.237804 35 
0.214042 -0.295303 0.15149 32 
0.118937 -0.336003 0.113533 33 
0.419656 -0.207323 0.238083 36 
0.42656 -0.204372 0.242191 31 
0.419757 -0.207286 0.240583 35 
0.426573 -0.204372 0.244688 35 
0.423817 -0.205555 0.244767 35 
0.423352 -0.205757 0.24581 40 
0.425358 -0.204902 0.247912 35 
0.418206 -0.207965 0.246081 32 
0.416083 -0.208876 0.246395 28 
0.418598 -0.207803 0.248718 34 
0.421609 -0.206518 0.251271 29 
0.418995 -0.207639 0.251365 24 
0.131101 -0.330817 0.126164 24 
0.0949355 -0.346292 0.111051 21 
0.110266 -0.339734 0.118246 24 
0.453986 -0.192681 0.272024 20 
0.427238 -0.204128 0.261288 25 
0.423713 -0.205639 0.260955 25 
0.424879 -0.205144 0.262743 21 
0.414387 -0.209635 0.259205 25 
0.421404 -0.206636 0.263668 25 
0.424851 -0.205165 0.266516 25 
0.427667 -0.203963 0.269088 25 
0.423658 -0.205681 0.26849 28 
0.422637 -0.206121 0.269275 21 
0.426204 -0.204598 0.272219 30 
0.426715 -0.204383 0.273733 25 
0.421389 -0.206664 0.272475 27 
0.432143 -0.202067 0.278878 23 
0.424307 -0.205422 0.276405 28 
0.424914 -0.205166 0.277971 25 
0.430479 -0.202788 0.281945 22 
0.426717 -0.204401 0.281403 51 
0.431438 -0.202385 0.284995 30 
0.429026 -0.203419 0.285104 29 
0.421931 -0.206457 0.28289 27 
0.245333 -0.284574 -0.186089 8 
0.376555 -0.229342 -0.252777 7 
0.403974 -0.217804 -0.265689 7 
0.107625 -0.342541 -0.113816 8 
0.745523 -0.0740498 -0.437492 7 
0.297629 -0.262576 -0.20715 7 
0.695391 -0.0951648 -0.406184 7 
0.377022 -0.229166 -0.24482 8 
2.17195 0.526274 -1.14052 8 
0.0644215 -0.360732 -0.0890928 7 
0.377324 -0.229047 -0.241473 7 
0.388556 -0.224323 -0.245822 7 
0.0932394 -0.348608 -0.101396 8 
0.372101 -0.231254 -0.235446 8 
0.118567 -0.337952 -0.112353 9 
1.51625 0.250244 -0.786282 6 
0.110356 -0.34141 -0.107343 8 
0.136761 -0.3303 -0.119164 7 
0.378372 -0.228629 -0.232694 9 
0.189452 -0.308131 -0.142546 8 
0.313132 -0.256088 -0.199719 7 
0.243599 -0.28535 -0.166264 8 
0.215706 -0.297089 -0.152492 8 
0.187819 -0.308826 -0.138876 7 
0.250378 -0.282504 -0.166827 8 
0.15253 -0.323677 -0.121403 8 
0.165166 -0.318362 -0.126461 8 
1.65437 0.30825 -0.804667 10 
0.385908 -0.225486 -0.224584 11 
0.387203 -0.224944 -0.224004 8 
0.399336 -0.219842 -0.228276 7 
0.300701 -0.261346 -0.183155 8 
0.443143 -0.201417 -0.24534 7 
0.548561 -0.157066 -0.290655 8 
0.418644 -0.21173 -0.232002 9 
0.0766514 -0.355616 -0.0825211 10 
0.27913 -0.270433 -0.168966 7 
0.41378 -0.213786 -0.226213 10 
0.307902 -0.258332 -0.179477 8 
0.00521344 -0.385671 -0.0515421 8 
0.278736 -0.270607 -0.165133 7 
0.401165 -0.219105 -0.216014 8 
1.65546 0.308562 -0.745314 8 
2.24153 0.555104 -0.988188 7 
0.411174 -0.214903 -0.216643 10 
0.391575 -0.223151 -0.20731 9 
0.387177 -0.225004 -0.204338 8 
0.727666 -0.0817748 -0.343205 7 
0.388639 -0.224394 -0.202641 8 
0.665918 -0.107759 -0.314267 7 
0.119471 -0.337622 -0.0923374 7 
0.164053 -0.318871 -0.109401 8 
0.426354 -0.208541 -0.213123 8 
0.0979194 -0.346691 -0.0822931 8 
0.0800034 -0.354228 -0.0749015 8 
0.305739 -0.259283 -0.162094 9 
0.391654 -0.223148 -0.194661 13 
0.905227 -0.00713776 -0.393539 7 
0.337668 -0.245861 -0.171526 9 
0.242478 -0.285899 -0.134049 11 
0.654965 -0.112413 -0.290826 11 
0.334326 -0.247274 -0.167179 7 
0.0946674 -0.34807 -0.0765193 8 
1.33244 0.172507 -0.541007 10 
0.387939 -0.224733 -0.184126 13 
0.529181 -0.165334 -0.235463 8 
0.406253 -0.217036 -0.188621 8 
0.379741 -0.228189 -0.177728 10 
0.380781 -0.227754 -0.176997 10 
1.64832 0.305302 -0.636908 9 
0.389204 -0.224218 -0.177807 9 
0.389377 -0.224148 -0.176741 8 
0.385958 -0.225588 -0.174396 11 
0.376344 -0.229634 -0.169875 16 
0.380607 -0.227844 -0.170276 14 
0.384619 -0.226159 -0.170571 12 
1.21354 0.122404 -0.458261 12 
0.375236 -0.23011 -0.165106 14 
0.377984 -0.228958 -0.164956 14 
0.391533 -0.223263 -0.168476 10 
0.377002 -0.229376 -0.162429 13 
0.372685 -0.231194 -0.159883 15 
0.503794 -0.176068 -0.202682 13 
0.375039 -0.230209 -0.158499 14 
0.382766 -0.226963 -0.159962 15 
0.381593 -0.227459 -0.158475 21 
0.38425 -0.226345 -0.158241 21 
0.387015 -0.225185 -0.158032 17 
0.381662 -0.227438 -0.155202 20 
0.385365 -0.225884 -0.155288 21 
0.384024 -0.22645 -0.153758 21 
0.3815 -0.227514 -0.151862 21 
0.383757 -0.226568 -0.151475 28 
0.380764 -0.227829 -0.149446 19 
0.389391 -0.224205 -0.151019 26 
0.385366 -0.225899 -0.148676 22 
0.391007 -0.223531 -0.149295 27 
0.383585 -0.226654 -0.14594 25 
0.390002 -0.223959 -0.146773 24 
0.388647 -0.224531 -0.145263 28 
0.386977 -0.225236 -0.143665 23 
0.384437 -0.226306 -0.14182 29 
0.382877 -0.226965 -0.140272 26 
0.389519 -0.224175 -0.141108 32 
0.385749 -0.225763 -0.138922 29 
0.384425 -0.226322 -0.137451 30 
0.384224 -0.226409 -0.136304 34 
0.385625 -0.225823 -0.13561 32 
0.384704 -0.226212 -0.134262 36 
0.387966 -0.224844 -0.134078 36 
0.384709 -0.226216 -0.132089 36 
0.387971 -0.224847 -0.131892 35 
0.387126 -0.225205 -0.130571 37 
0.388385 -0.224679 -0.129819 36 
0.390057 -0.223979 -0.129173 33 
0.388559 -0.224611 -0.127682 30 
0.391297 -0.223463 -0.12731 36 
0.386879 -0.225323 -0.125064 36 
0.388383 -0.224693 -0.124366 39 
0.387222 -0.225184 -0.12298 39 
0.390927 -0.223629 -0.122836 41 
0.389919 -0.224055 -0.12149 40 
0.39087 -0.223658 -0.120638 43 
0.387839 -0.224935 -0.118796 41 
0.390247 -0.223926 -0.118303 46 
0.387468 -0.225096 -0.116538 43 
0.386159 -0.225649 -0.11514 40 
0.388634 -0.224611 -0.114654 46 
0.390317 -0.223907 -0.113971 45 
0.387141 -0.225244 -0.112138 46 
0.38632 -0.225592 -0.110868 52 
0.386703 -0.225433 -0.10988 52 
0.388216 -0.2248 -0.10915 54 
0.387153 -0.22525 -0.10783 56 
0.387862 -0.224954 -0.106914 57 
0.385922 -0.225772 -0.105405 55 
0.38623 -0.225645 -0.1044 54 
0.384305 -0.226457 -0.102907 57 
0.386528 -0.225525 -0.102321 52 
0.388126 -0.224857 -0.101592 54 
0.387072 -0.225302 -0.100293 59 
0.387144 -0.225274 -0.0992374 57 
0.386897 -0.225381 -0.0981144 57 
0.388904 -0.22454 -0.0974584 55 
0.387369 -0.225188 -0.0960714 52 
0.388815 -0.224583 -0.0952934 58 
0.390757 -0.22377 -0.0946094 61 
0.391162 -0.223602 -0.0936134 65 
0.390429 -0.223913 -0.0923934 66 
0.390917 -0.22371 -0.0914144 65 
0.39035 -0.223951 -0.0902304 63 
0.390921 -0.223714 -0.0892662 61 
0.392719 -0.222961 -0.0885303 66 
0.390929 -0.223716 -0.0871212 63 
0.393221 -0.222756 -0.0864694 62 
0.392572 -0.223031 -0.085275 58 
0.3916 -0.223442 -0.0840257 61 
0.39104 -0.22368 -0.0828538 59 
0.39391 -0.222477 -0.0822865 59 
0.393839 -0.222509 -0.0811981 59 
0.390829 -0.223776 -0.0796071 63 
0.392635 -0.22302 -0.0788439 64 
0.39029 -0.224008 -0.0773797 57 
0.393811 -0.222531 -0.0768945 58 
0.394074 -0.222423 -0.0758639 62 
0.39401 -0.222453 -0.0747799 62 
0.3937 -0.222586 -0.0736577 65 
0.39331 -0.222752 -0.0725246 68 
0.391373 -0.223568 -0.0711539 67 
0.391721 -0.223425 -0.0701407 68 
0.394197 -0.222388 -0.0694476 65 
0.395126 -0.222 -0.0685147 70 
0.392528 -0.223094 -0.0670607 74 
0.394767 -0.222156 -0.0663178 70 
0.394712 -0.222182 -0.065239 70 
0.392693 -0.223032 -0.0638844 69 
0.395101 -0.222024 -0.0631521 70 
0.393981 -0.222496 -0.0619287 71 
0.395907 -0.22169 -0.0611198 64 
0.396106 -0.221609 -0.0600748 64 
0.394986 -0.222082 -0.0588572 68 
0.396425 -0.221481 -0.0579732 64 
0.395471 -0.221884 -0.0567813 67 
0.395345 -0.22194 -0.0556965 71 
0.39654 -0.22144 -0.0547743 72 
0.398075 -0.220798 -0.0538884 73 
0.396623 -0.221411 -0.0526435 75 
0.397163 -0.221186 -0.0516363 78 
0.397456 -0.221066 -0.050599 78 
0.396425 -0.221502 -0.0494123 78 
0.396471 -0.221485 -0.0483488 73 
0.397596 -0.221015 -0.0474021 74 
0.399395 -0.220262 -0.0465226 74 
0.395216 -0.22202 -0.045014 84 
0.396092 -0.221655 -0.0440384 81 
0.399467 -0.22024 -0.0433096 86 
0.397605 -0.221024 -0.0420542 88 
0.398492 -0.220655 -0.0410704 90 
0.398299 -0.220738 -0.0399819 97 
0.399107 -0.220402 -0.0389864 91 
0.399333 -0.220309 -0.0379356 95 
0.400146 -0.219971 -0.0369357 94 
0.400459 -0.219842 -0.0358899 93 
0.399768 -0.220134 -0.0347589 91 
0.401595 -0.21937 -0.0338369 97 
0.401324 -0.219486 -0.0327404 96 
0.400634 -0.219779 -0.0316127 99 
0.402302 -0.219081 -0.0306664 96 
0.402034 -0.219196 -0.029571 97 
0.402442 -0.219027 -0.0285254 99 
0.402261 -0.219106 -0.0274373 99 
0.402672 -0.218936 -0.0263901 101 
0.403339 -0.218659 -0.0253583 100 
0.403924 -0.218416 -0.0243188 98 
0.403917 -0.218422 -0.0232406 104 
0.407588 -0.216883 -0.0223817 101 
0.404841 -0.218039 -0.021139 102 
0.406033 -0.217541 -0.0201261 95 
0.406802 -0.217221 -0.0190859 95 
0.407059 -0.217116 -0.0180164 93 
0.407059 -0.217119 -0.0169334 96 
0.409476 -0.216106 -0.0159651 94 
0.407751 -0.216833 -0.0147991 101 
0.407582 -0.216907 -0.0137078 99 
0.408191 -0.216654 -0.0126494 100 
0.409321 -0.216182 -0.0116092 105 
0.408378 -0.216581 -0.0104871 102 
0.407697 -0.216869 -0.00937819 109 
0.408743 -0.216433 -0.00832969 105 
0.408668 -0.216467 -0.00724199 102 
0.410328 -0.215773 -0.00620549 101 
0.409215 -0.216243 -0.00508679 96 
0.408539 -0.216529 -0.00398359 103 
0.411508 -0.215285 -0.00296799 104 
0.411702 -0.215207 -0.00188149 101 
0.409806 -0.216005 -0.000754191 106 
0.411655 -0.215232 0.000300979 104 
0.411503 -0.215298 0.00139398 107 
0.411789 -0.215181 0.00248055 101 
0.412777 -0.214769 0.00356042 106 
0.412716 -0.214797 0.00465382 101 
0.412394 -0.214935 0.00574881 97 
0.413037 -0.214668 0.00683756 100 
0.414742 -0.213955 0.00792564 101 
0.414332 -0.21413 0.00902282 93 
0.414631 -0.214007 0.010119 99 
0.418312 -0.212465 0.0112265 101 
0.417187 -0.21294 0.0123249 96 
0.420185 -0.211684 0.0134476 96 
0.417533 -0.2128 0.0145314 93 
0.422076 -0.210896 0.0156841 93 
0.420128 -0.211716 0.0167703 100 
0.421891 -0.210979 0.0179047 103 
0.421755 -0.211039 0.0190138 103 
0.42344 -0.210335 0.0201571 107 
0.424495 -0.209895 0.0212941 102 
0.424362 -0.209953 0.0224078 93 
0.423409 -0.210356 0.0235005 96 
0.425937 -0.209298 0.024684 93 
0.425073 -0.209663 0.0257788 89 
0.42651 -0.209063 0.026942 93 
0.425371 -0.209544 0.0280255 96 
0.425522 -0.209483 0.02915 100 
0.429567 -0.207789 0.0304203 100 
0.425921 -0.209321 0.0314049 104 
0.428112 -0.208405 0.0326161 107 
0.426696 -0.209002 0.0336799 103 
0.428152 -0.208393 0.0348684 103 
0.427757 -0.208562 0.0359753 100 
0.428663 -0.208185 0.0371449 97 
0.431447 -0.207019 0.038415 92 
0.427693 -0.208597 0.0393471 91 
0.429348 -0.207905 0.0405642 95 
0.431016 -0.207209 0.0417888 90 
0.433262 -0.206269 0.0430548 91 
0.431738 -0.206911 0.0440982 88 
0.434848 -0.205609 0.04543 90 
0.433697 -0.206095 0.0464953 91 
0.434162 -0.205903 0.0476653 92 
0.43349 -0.206187 0.0487582 93 
0.432349 -0.206669 0.0498151 94 
0.434522 -0.20576 0.0511117 94 
0.433096 -0.206361 0.0521449 94 
0.434041 -0.205967 0.0533569 98 
0.432903 -0.206447 0.0544069 97 
0.433851 -0.206053 0.055623 95 
0.434423 -0.205815 0.0568118 102 
0.434998 -0.205577 0.0580033 103 
0.432819 -0.206494 0.0589557 102 
0.434153 -0.205937 0.0602151 103 
0.433496 -0.206215 0.0612973 100 
0.432465 -0.206651 0.0623419 92 
0.432287 -0.206728 0.0634646 95 
0.43315 -0.206369 0.0646888 99 
0.433732 -0.206127 0.0658888 100 
0.433938 -0.206044 0.0670529 103 
0.435192 -0.205521 0.0683275 106 
0.437222 -0.204672 0.0696897 107 
0.434849 -0.205671 0.0705844 113 
0.436783 -0.204862 0.0719443 112 
0.433941 -0.206057 0.0727765 106 
0.436831 -0.204848 0.0742524 110 
0.438494 -0.204153 0.0755977 100 
0.439102 -0.203901 0.0768253 97 
0.437394 -0.20462 0.077777 99 
0.437713 -0.204489 0.0789703 102 
0.440262 -0.203423 0.0804428 101 
0.437586 -0.204548 0.0812651 98 
0.439263 -0.203847 0.0826365 97 
0.439009 -0.203957 0.083763 95 
0.440115 -0.203496 0.0850691 93 
0.442303 -0.202581 0.0865259 93 
0.441464 -0.202936 0.0875783 95 
0.44229 -0.202592 0.0888587 95 
0.440673 -0.203273 0.0897991 92 
0.439552 -0.203746 0.090804 86 
0.442626 -0.20246 0.0924125 85 
0.443363 -0.202154 0.0936908 72 
0.441061 -0.203122 0.0945199 59 
0.284031 -0.268966 0.0720278 57 
0.283177 -0.269326 0.0727451 60 
0.283089 -0.269365 0.0735775 64 
0.28138 -0.270083 0.0741564 64 
0.276753 -0.272026 0.0742668 78 
0.272132 -0.273965 0.0743598 87 
0.270655 -0.274586 0.074945 99 
0.265843 -0.276606 0.0749762 103 
0.264412 -0.277208 0.075551 125 
0.261294 -0.278517 0.0758362 142 
0.25985 -0.279124 0.0763944 158 
0.257519 -0.280103 0.0767941 160 
0.256504 -0.280531 0.0774143 161 
0.253728 -0.281697 0.07772 171 
0.252121 -0.282372 0.0782236 166 
0.250571 -0.283024 0.0787312 176 
0.248733 -0.283796 0.0791803 182 
0.247295 -0.284401 0.0796962 186 
0.245152 -0.285301 0.080075 191 
0.244033 -0.285772 0.0806387 193 
0.243212 -0.286118 0.0812551 192 
0.242022 -0.286619 0.0817974 199 
0.240717 -0.287168 0.0823127 200 
0.239502 -0.287679 0.0828409 199 
0.238416 -0.288136 0.0833904 199 
0.238959 -0.28791 0.0842628 198 
0.236707 -0.288856 0.0845707 196 
0.234999 -0.289574 0.0849814 202 
0.236133 -0.289101 0.0859738 200 
0.234351 -0.289849 0.0863617 205 
0.232901 -0.290459 0.0868128 208 
0.233706 -0.290123 0.0877391 197 
0.231829 -0.290912 0.088092 208 
0.230866 -0.291317 0.0886361 204 
0.229211 -0.292013 0.089025 206 
0.228647 -0.292251 0.0896489 209 
0.227893 -0.292569 0.0902285 206 
0.227486 -0.292741 0.0908838 207 
0.225861 -0.293424 0.0912608 207 
0.225459 -0.293594 0.0919122 210 
0.225513 -0.293574 0.0926679 210 
0.224961 -0.293807 0.0932828 211 
0.222685 -0.294763 0.0934896 210 
0.222588 -0.294805 0.0942056 212 
0.22309 -0.294596 0.0950652 214 
0.222322 -0.29492 0.0956202 209 
0.220152 -0.295831 0.0958304 211 
0.220315 -0.295764 0.0966062 212 
0.22 -0.295898 0.0972645 211 
0.218221 -0.296646 0.0975558 214 
0.218749 -0.296426 0.0984219 214 
0.218072 -0.296712 0.0989844 209 
0.218089 -0.296706 0.0997225 213 
0.217016 -0.297158 0.100179 213 
0.216707 -0.297289 0.100831 209 
0.215606 -0.297752 0.101275 209 
0.216019 -0.297581 0.102115 208 
0.215317 -0.297877 0.102659 208 
0.214438 -0.298247 0.103154 205 
0.213671 -0.29857 0.103676 210 
0.212943 -0.298877 0.104206 207 
0.213315 -0.298723 0.105036 206 
0.213547 -0.298628 0.105829 209 
0.210845 -0.299761 0.105804 208 
0.211108 -0.299653 0.106603 208 
0.211091 -0.299662 0.107324 206 
0.210268 -0.300008 0.107815 203 
0.210286 -0.300003 0.108546 194 
0.210409 -0.299953 0.109307 186 
0.210463 -0.299932 0.110049 190 
0.210587 -0.299882 0.110813 184 
0.210361 -0.299978 0.111474 188 
0.21052 -0.299913 0.11225 189 
0.210435 -0.299951 0.112953 192 
0.209371 -0.300398 0.113361 191 
0.209217 -0.300465 0.114041 184 
0.209376 -0.3004 0.114818 182 
0.20957 -0.30032 0.115607 185 
0.209347 -0.300416 0.116267 179 
0.209472 -0.300365 0.117036 185 
0.210543 -0.299918 0.118104 181 
0.209549 -0.300336 0.118522 178 
0.20971 -0.300271 0.119305 184 
0.209417 -0.300395 0.119944 185 
0.209159 -0.300505 0.120593 180 
0.209181 -0.300498 0.121333 175 
0.20868 -0.300709 0.121903 171 
0.208807 -0.300658 0.122677 166 
0.208376 -0.30084 0.123268 158 
0.210288 -0.300041 0.124641 159 
0.210346 -0.300019 0.125399 172 
0.210476 -0.299966 0.126181 177 
0.209375 -0.300429 0.126547 178 
0.210947 -0.299772 0.127824 183 
0.211149 -0.29969 0.128635 181 
0.211174 -0.299681 0.129387 180 
0.211128 -0.299702 0.130115 175 
0.21126 -0.299649 0.130905 179 
0.211818 -0.299417 0.131848 176 
0.212379 -0.299184 0.132795 170 
0.212656 -0.299069 0.133643 168 
0.213796 -0.298594 0.134803 172 
0.214293 -0.298388 0.135737 168 
0.2153 -0.297968 0.136859 160 
0.215656 -0.29782 0.137747 161 
0.215905 -0.297718 0.138598 156 
0.217365 -0.297109 0.1399 150 
0.218875 -0.296478 0.141228 148 
0.219391 -0.296264 0.142189 141 
0.221486 -0.295389 0.143751 119 
0.223953 -0.294358 0.145463 108 
0.226455 -0.293312 0.1472 95 
0.227349 -0.29294 0.148331 82 
0.228168 -0.292598 0.149438 64 
0.258652 -0.279837 0.162091 67 
0.25705 -0.28051 0.162323 61 
0.260387 -0.279114 0.164495 42 
0.15144 -0.324732 0.122392 40 
0.421331 -0.211735 0.230512 41 
0.419655 -0.21244 0.231058 43 
0.422825 -0.211115 0.233559 39 
0.42433 -0.210488 0.235397 42 
0.419095 -0.212683 0.234486 45 
0.421422 -0.211712 0.236663 45 
0.422079 -0.211439 0.238161 43 
0.419564 -0.212495 0.238344 41 
0.425483 -0.21002 0.242042 42 
0.422374 -0.211325 0.241974 45 
0.421723 -0.2116 0.242932 40 
0.419305 -0.212616 0.243137 36 
0.427326 -0.209261 0.247789 36 
0.426095 -0.209779 0.248508 35 
0.424396 -0.210494 0.249021 35 
0.419897 -0.21238 0.248313 37 
0.426036 -0.209813 0.252222 33 
0.424054 -0.210646 0.252603 32 
0.42597 -0.209847 0.254692 27 
0.418642 -0.212918 0.252701 28 
0.247543 -0.284538 0.17803 24 
0.417372 -0.213455 0.254606 23 
0.421303 -0.211813 0.257607 27 
0.419355 -0.212631 0.257973 27 
0.164172 -0.319441 0.143961 24 
0.426004 -0.209854 0.26349 32 
0.427368 -0.209286 0.265374 30 
0.426912 -0.209481 0.266428 30 
0.424356 -0.210553 0.266509 35 
0.42324 -0.211023 0.26725 29 
0.429984 -0.208204 0.271659 34 
0.425482 -0.210091 0.27082 34 
0.422276 -0.211436 0.270573 31 
0.421736 -0.211665 0.271577 29 
0.426238 -0.209784 0.274981 28 
0.421793 -0.211648 0.274125 27 
0.43301 -0.206957 0.280781 27 
0.431965 -0.207397 0.281565 29 
0.427621 -0.209218 0.280745 54 
0.422296 -0.211449 0.279428 26 
0.428467 -0.20887 0.28372 33 
0.424078 -0.21071 0.282843 30 
0.939437 -0.00229974 -0.54444 8 
1.11871 0.0715012 -0.634561 8 
0.368758 -0.237261 -0.246556 8 
0.11136 -0.34323 -0.115091 8 
0.390472 -0.228327 -0.255273 8 
0.468139 -0.196356 -0.293338 9 
0.337216 -0.250257 -0.226115 8 
0.251303 -0.285627 -0.182152 8 
0.128947 -0.335998 -0.120882 7 
0.638309 -0.126316 -0.372447 8 
0.763384 -0.0748328 -0.432644 8 
0.475587 -0.19331 -0.288784 10 
0.00708945 -0.38616 -0.0610216 8 
0.402608 -0.223357 -0.250453 8 
0.302536 -0.264553 -0.200778 9 
0.377437 -0.233724 -0.235883 12 
0.114122 -0.342111 -0.10911 8 
0.718933 -0.0931637 -0.397103 7 
0.200927 -0.306386 -0.148738 7 
0.32023 -0.257282 -0.204214 6 
0.0185334 -0.381457 -0.0634461 7 
0.473453 -0.194222 -0.274025 8 
0.386039 -0.230204 -0.231838 8 
1.02193 0.0315173 -0.526838 12 
0.147033 -0.328578 -0.119581 9 
0.385798 -0.230311 -0.228232 9 
0.411259 -0.219835 -0.238726 10 
0.0212914 -0.380328 -0.0621822 9 
1.89171 0.389452 -0.909907 6 
0.0673924 -0.36136 -0.0813253 8 
0.402805 -0.223326 -0.230066 13 
0.129544 -0.335785 -0.107492 8 
0.398518 -0.225096 -0.225772 8 
0.129187 -0.335935 -0.106161 9 
0.391375 -0.228042 -0.220265 9 
0.407768 -0.221298 -0.226276 9 
0.387616 -0.229594 -0.216299 7 
0.384825 -0.230746 -0.213935 7 
0.496603 -0.184752 -0.26101 9 
0.166139 -0.320738 -0.118268 7 
0.657652 -0.118488 -0.327094 7 
0.414525 -0.218536 -0.221959 8 
0.39433 -0.226849 -0.212222 10 
0.554217 -0.161062 -0.2783 8 
0.419396 -0.21654 -0.220373 8 
0.0293274 -0.377038 -0.0590095 9 
0.386174 -0.230215 -0.204204 9 
0.916447 -0.0120328 -0.421689 8 
0.225602 -0.296288 -0.136418 8 
0.893707 -0.0214008 -0.407791 6 
0.0760104 -0.357837 -0.0752717 9 
0.0924164 -0.351088 -0.0812181 7 
0.0241894 -0.379157 -0.054523 9 
0.436202 -0.209653 -0.21616 7 
0.119373 -0.340002 -0.0901514 9 
0.315862 -0.259168 -0.166312 9 
0.371459 -0.236297 -0.187076 11 
0.383612 -0.2313 -0.190708 10 
0.0532794 -0.367197 -0.0631076 9 
0.391849 -0.227917 -0.19163 9 
0.211611 -0.302066 -0.12169 9 
0.554782 -0.160895 -0.251454 8 
0.389129 -0.229044 -0.187181 11 
0.371337 -0.236366 -0.179354 12 
0.396695 -0.225938 -0.187748 11 
0.946168 8.92454e-05 -0.391568 9 
0.411603 -0.219811 -0.190971 12 
0.386218 -0.230256 -0.180459 12 
0.391866 -0.227935 -0.181402 9 
0.434052 -0.210585 -0.195605 10 
0.378516 -0.233432 -0.174317 9 
0.376652 -0.234201 -0.172545 11 
0.396645 -0.22598 -0.178583 10 
0.38234 -0.231867 -0.17237 11 
0.384188 -0.231109 -0.171914 14 
0.301756 -0.265017 -0.141951 11 
0.374089 -0.235269 -0.166177 15 
0.378606 -0.233413 -0.166653 13 
0.380035 -0.232828 -0.166048 17 
0.382822 -0.231685 -0.165902 17 
0.390265 -0.228626 -0.167328 17 
0.382379 -0.231872 -0.163547 17 
0.381842 -0.232096 -0.162266 11 
0.400329 -0.224496 -0.16733 17 
0.386678 -0.230113 -0.161671 13 
0.384129 -0.231163 -0.159725 13 
0.379639 -0.233013 -0.157157 18 
0.382184 -0.231969 -0.156892 16 
0.381022 -0.232449 -0.155422 18 
0.38152 -0.232247 -0.15449 20 
0.382494 -0.231849 -0.153708 20 
0.383712 -0.231351 -0.152999 23 
0.38334 -0.231507 -0.151787 27 
0.384163 -0.231171 -0.150951 25 
0.387966 -0.22961 -0.151034 23 
0.38184 -0.232131 -0.148047 27 
0.387781 -0.229691 -0.148775 26 
0.384759 -0.230937 -0.146758 25 
0.38535 -0.230696 -0.145843 23 
0.386906 -0.230059 -0.145216 25 
0.383027 -0.231657 -0.142967 27 
0.383854 -0.231319 -0.142125 23 
0.383254 -0.231569 -0.140861 26 
0.390037 -0.228782 -0.141749 26 
0.382694 -0.231804 -0.138529 29 
0.381942 -0.232116 -0.13723 26 
0.386272 -0.230338 -0.137382 28 
0.389375 -0.229065 -0.13717 24 
0.385391 -0.230706 -0.134958 29 
0.388889 -0.229271 -0.134846 35 
0.38175 -0.232208 -0.131782 33 
0.386718 -0.230169 -0.132067 35 
0.384764 -0.230974 -0.130449 34 
0.388657 -0.229376 -0.130418 36 
0.385971 -0.230483 -0.12861 37 
0.385937 -0.2305 -0.127519 35 
0.388151 -0.229592 -0.127021 32 
0.385953 -0.230499 -0.12536 37 
0.387766 -0.229756 -0.12475 40 
0.385973 -0.230496 -0.123205 36 
0.389076 -0.229223 -0.122918 38 
0.385279 -0.230786 -0.120872 44 
0.38999 -0.228852 -0.120979 45 
0.389721 -0.228966 -0.119826 45 
0.390181 -0.228779 -0.118856 41 
0.390237 -0.228759 -0.117785 43 
0.385713 -0.230621 -0.115603 46 
0.387529 -0.229877 -0.114966 43 
0.391793 -0.228127 -0.114907 49 
0.386847 -0.230163 -0.112652 46 
0.388512 -0.229481 -0.111968 52 
0.38737 -0.229953 -0.110625 51 
0.387994 -0.229699 -0.109695 56 
0.388058 -0.229676 -0.108635 55 
0.389653 -0.229023 -0.107921 58 
0.389961 -0.228899 -0.106914 60 
0.387294 -0.229998 -0.105244 54 
0.386323 -0.230399 -0.10396 54 
0.389519 -0.229088 -0.103588 54 
0.385825 -0.230609 -0.101717 54 
0.387011 -0.230124 -0.100904 62 
0.388123 -0.22967 -0.100072 54 
0.391343 -0.228349 -0.0996784 57 
0.39004 -0.228887 -0.0983324 56 
0.387224 -0.230047 -0.0966804 59 
0.388983 -0.229327 -0.0959724 58 
0.390754 -0.228601 -0.0952604 64 
0.388255 -0.229631 -0.0936904 57 
0.389459 -0.229139 -0.0928614 58 
0.391155 -0.228445 -0.0921244 55 
0.391155 -0.228447 -0.0910524 57 
0.390267 -0.228815 -0.0898124 65 
0.391078 -0.228484 -0.0888973 65 
0.390759 -0.228618 -0.0877679 62 
0.392793 -0.227785 -0.0870759 61 
0.392473 -0.227919 -0.0859453 61 
0.391343 -0.228386 -0.0846701 63 
0.392162 -0.228052 -0.0837486 59 
0.39209 -0.228084 -0.0826667 63 
0.393158 -0.227648 -0.0817848 55 
0.390251 -0.228845 -0.0802123 57 
0.391394 -0.228378 -0.0793437 58 
0.392869 -0.227774 -0.0785268 56 
0.392477 -0.227938 -0.0773933 53 
0.390711 -0.228666 -0.0760356 54 
0.39316 -0.227662 -0.075371 55 
0.394403 -0.227154 -0.074503 55 
0.390523 -0.228751 -0.0728186 64 
0.391998 -0.228148 -0.0719883 63 
0.391129 -0.228507 -0.0707904 66 
0.393016 -0.227735 -0.0700165 65 
0.392471 -0.227961 -0.0688696 68 
0.391119 -0.228519 -0.0676058 68 
0.39066 -0.22871 -0.0664785 75 
0.391333 -0.228436 -0.0655167 70 
0.392089 -0.228128 -0.0645645 66 
0.394643 -0.227082 -0.0638615 66 
0.394182 -0.227274 -0.0627322 69 
0.393154 -0.227699 -0.0615278 68 
0.395392 -0.226782 -0.060766 62 
0.393953 -0.227376 -0.05951 64 
0.392362 -0.228032 -0.0582403 64 
0.395743 -0.226646 -0.0576139 72 
0.395124 -0.226902 -0.0564703 68 
0.399125 -0.225262 -0.0559021 73 
0.394629 -0.227111 -0.0542822 68 
0.395817 -0.226626 -0.0533623 75 
0.394793 -0.227049 -0.0521772 78 
0.394346 -0.227235 -0.0510634 74 
0.39529 -0.22685 -0.0501101 74 
0.394599 -0.227136 -0.0489705 74 
0.395792 -0.226649 -0.0480409 75 
0.397156 -0.226091 -0.0471252 70 
0.396381 -0.226412 -0.0459781 75 
0.397668 -0.225886 -0.0450483 77 
0.395415 -0.226814 -0.0437537 83 
0.396289 -0.226458 -0.04278 86 
0.396507 -0.226371 -0.0417391 90 
0.397551 -0.225945 -0.0407765 91 
0.397772 -0.225856 -0.0397331 94 
0.398989 -0.225359 -0.0387802 89 
0.397475 -0.225983 -0.037578 92 
0.400024 -0.22494 -0.0367379 95 
0.401171 -0.224471 -0.0357679 92 
0.3989 -0.225406 -0.034508 95 
0.401214 -0.224459 -0.0336312 102 
0.401196 -0.224469 -0.03256 102 
0.400928 -0.224581 -0.0314697 98 
0.401833 -0.224212 -0.0304692 96 
0.403079 -0.223703 -0.0294904 100 
0.402982 -0.223746 -0.0284107 100 
0.402548 -0.223926 -0.0273084 104 
0.403464 -0.223553 -0.0262989 108 
0.403033 -0.223733 -0.0251979 106 
0.403024 -0.223739 -0.0241255 103 
0.404622 -0.223085 -0.023152 102 
0.404362 -0.223195 -0.0220619 103 
0.40495 -0.222956 -0.0210218 97 
0.406137 -0.222471 -0.0200125 97 
0.40469 -0.223068 -0.0188582 102 
0.404604 -0.223106 -0.0177797 97 
0.405878 -0.222585 -0.0167687 103 
0.406049 -0.222518 -0.0157006 100 
0.406649 -0.222274 -0.0146514 99 
0.405376 -0.2228 -0.0135188 104 
0.406317 -0.222416 -0.0124829 104 
0.406409 -0.222381 -0.0114099 105 
0.408901 -0.22136 -0.0104261 111 
0.40728 -0.222028 -0.00928739 109 
0.408663 -0.221463 -0.00825519 110 
0.407216 -0.22206 -0.00712919 107 
0.407657 -0.221881 -0.00606419 105 
0.411555 -0.220284 -0.00509149 99 
0.409062 -0.22131 -0.00394229 102 
0.411501 -0.220311 -0.00291749 101 
0.409528 -0.221124 -0.00178959 103 
0.411192 -0.220444 -0.000739291 104 
0.412169 -0.220045 0.000329419 106 
0.410455 -0.220751 0.00144269 99 
0.411345 -0.220388 0.00251487 101 
0.411805 -0.220202 0.00359539 109 
0.412878 -0.219765 0.00467215 108 
0.413605 -0.219469 0.00575564 102 
0.413722 -0.219423 0.00684514 105 
0.414455 -0.219125 0.00793321 104 
0.418291 -0.217553 0.00902095 102 
0.414608 -0.219068 0.0101169 94 
0.416407 -0.218332 0.0112143 95 
0.419469 -0.217078 0.0123253 95 
0.418079 -0.217651 0.0134175 92 
0.420174 -0.216794 0.0145355 90 
0.41923 -0.217184 0.0156284 93 
0.421067 -0.216433 0.0167539 95 
0.421651 -0.216196 0.0178679 100 
0.420976 -0.216476 0.0189629 101 
0.422829 -0.215718 0.0201034 101 
0.42324 -0.215552 0.021221 102 
0.423835 -0.21531 0.0223446 94 
0.426906 -0.214053 0.0235327 95 
0.425857 -0.214486 0.0246217 97 
0.426095 -0.214391 0.025744 92 
0.426703 -0.214144 0.0268788 92 
0.428976 -0.213214 0.0280714 97 
0.427188 -0.213951 0.0291305 103 
0.427157 -0.213966 0.0302478 106 
0.426299 -0.214321 0.0313328 102 
0.426455 -0.21426 0.0324561 100 
0.427255 -0.213934 0.0336081 100 
0.427506 -0.213834 0.0347386 104 
0.427944 -0.213657 0.035879 99 
0.428939 -0.213251 0.0370488 97 
0.430591 -0.212576 0.0382564 99 
0.431786 -0.212089 0.0394465 96 
0.429714 -0.212941 0.0404611 95 
0.429883 -0.212875 0.0415958 93 
0.432109 -0.211964 0.0428534 89 
0.430412 -0.212663 0.0438796 90 
0.430213 -0.212748 0.044994 87 
0.433481 -0.21141 0.0463344 94 
0.433754 -0.2113 0.0474864 96 
0.433181 -0.211538 0.048581 102 
0.434684 -0.210924 0.0498219 100 
0.433451 -0.211433 0.050868 101 
0.431755 -0.212132 0.0518746 98 
0.430724 -0.212558 0.052926 92 
0.432408 -0.211869 0.0541893 96 
0.433916 -0.211253 0.0554453 101 
0.433729 -0.211333 0.0565661 97 
0.432884 -0.211682 0.0576301 105 
0.433171 -0.211567 0.0587902 103 
0.43346 -0.211452 0.0599518 102 
0.434223 -0.211141 0.0611583 105 
0.433194 -0.211566 0.0622004 102 
0.43377 -0.211332 0.0633922 93 
0.433688 -0.211369 0.0645223 97 
0.435597 -0.210589 0.0658508 105 
0.435802 -0.210507 0.0670142 110 
0.435154 -0.210776 0.0680901 106 
0.435552 -0.210616 0.0692744 106 
0.436715 -0.210141 0.0705432 109 
0.438077 -0.209586 0.0718388 113 
0.437428 -0.209854 0.0729154 113 
0.438412 -0.209454 0.0741757 110 
0.437574 -0.2098 0.0752291 106 
0.437505 -0.209831 0.0763703 104 
0.438975 -0.209231 0.0776961 103 
0.441133 -0.208349 0.0791122 102 
0.439713 -0.208934 0.0800936 100 
0.438397 -0.209477 0.0810829 100 
0.443576 -0.207355 0.0828991 95 
0.441855 -0.208064 0.083839 95 
0.440727 -0.208529 0.0848506 99 
0.440476 -0.208635 0.0859757 95 
0.440711 -0.208542 0.0871665 101 
0.441045 -0.208408 0.0883723 92 
0.439249 -0.209147 0.0892811 86 
0.439777 -0.208933 0.0905139 85 
0.441473 -0.208241 0.0919178 73 
0.439098 -0.209217 0.0927332 65 
0.431623 -0.212286 0.0927823 56 
0.281424 -0.273882 0.0713745 61 
0.25832 -0.283359 0.0687093 61 
0.282053 -0.273629 0.0731486 69 
0.281513 -0.273852 0.073905 79 
0.279926 -0.274505 0.0744942 94 
0.27643 -0.275941 0.0747723 99 
0.272128 -0.277707 0.0749061 107 
0.269424 -0.278817 0.075285 121 
0.266151 -0.280162 0.0755587 143 
0.265049 -0.280615 0.0761842 162 
0.262302 -0.281744 0.0765261 163 
0.260633 -0.28243 0.0770423 157 
0.258752 -0.283203 0.0775156 165 
0.256624 -0.284078 0.0779379 165 
0.255354 -0.2846 0.0785049 174 
0.254356 -0.285012 0.079116 178 
0.251624 -0.286133 0.0794079 180 
0.250301 -0.286678 0.0799483 182 
0.248859 -0.287271 0.0804616 185 
0.248618 -0.287372 0.0811952 191 
0.24685 -0.288098 0.0816382 196 
0.24556 -0.288629 0.082166 197 
0.244654 -0.289003 0.0827636 195 
0.243337 -0.289544 0.0832774 195 
0.242855 -0.289744 0.0839516 203 
0.2411 -0.290465 0.0843693 198 
0.240337 -0.29078 0.0849811 198 
0.240638 -0.290658 0.0858075 205 
0.239309 -0.291205 0.0862992 204 
0.238191 -0.291665 0.0868298 200 
0.236358 -0.292418 0.087206 202 
0.236014 -0.292561 0.0878914 204 
0.236429 -0.292393 0.0887386 204 
0.236245 -0.29247 0.0894583 208 
0.233839 -0.293458 0.0896919 204 
0.233461 -0.293615 0.0903635 209 
0.233517 -0.293594 0.0911306 205 
0.230602 -0.294791 0.0912308 204 
0.229651 -0.295183 0.091765 208 
0.229705 -0.295162 0.0925258 210 
0.228376 -0.295709 0.0929676 205 
0.228277 -0.295751 0.0936912 205 
0.228562 -0.295636 0.094505 208 
0.227241 -0.29618 0.0949397 208 
0.226307 -0.296564 0.0954622 211 
0.224326 -0.297378 0.0957285 214 
0.224793 -0.297188 0.0965827 209 
0.224172 -0.297445 0.0971724 211 
0.223964 -0.297532 0.0978623 206 
0.223719 -0.297634 0.0985425 209 
0.22273 -0.298041 0.0990349 211 
0.221524 -0.298537 0.0994689 212 
0.221948 -0.298365 0.100315 207 
0.221116 -0.298708 0.10084 213 
0.220397 -0.299004 0.101391 209 
0.219938 -0.299194 0.102008 211 
0.219553 -0.299354 0.102642 206 
0.219279 -0.299468 0.103306 205 
0.219115 -0.299537 0.103998 201 
0.217497 -0.300201 0.104297 205 
0.21806 -0.299973 0.105184 208 
0.217752 -0.300101 0.105834 210 
0.217735 -0.30011 0.106564 209 
0.217138 -0.300356 0.107134 206 
0.216148 -0.300763 0.107591 200 
0.215485 -0.301037 0.108137 193 
0.214718 -0.301353 0.108651 192 
0.21488 -0.301288 0.109428 190 
0.2149 -0.301282 0.110166 189 
0.214776 -0.301334 0.110863 194 
0.214546 -0.30143 0.111529 191 
0.214638 -0.301395 0.112289 196 
0.214017 -0.301651 0.112838 193 
0.213327 -0.301935 0.113365 186 
0.212887 -0.302117 0.113965 175 
0.213155 -0.302009 0.114778 164 
0.214029 -0.301653 0.115778 167 
0.214228 -0.301573 0.116574 171 
0.214 -0.301668 0.11724 168 
0.214201 -0.301588 0.118039 174 
0.215082 -0.301229 0.119053 181 
0.21396 -0.30169 0.119438 187 
0.214161 -0.30161 0.12024 185 
0.213934 -0.301705 0.120907 184 
0.213885 -0.301726 0.12163 182 
0.213944 -0.301704 0.122389 173 
0.213896 -0.301725 0.123114 160 
0.213884 -0.301732 0.123851 163 
0.214947 -0.301299 0.124944 167 
0.21472 -0.301393 0.125613 175 
0.214924 -0.301312 0.126426 176 
0.214914 -0.301318 0.127168 184 
0.215371 -0.301132 0.128069 187 
0.21612 -0.300827 0.129073 178 
0.216436 -0.3007 0.129932 179 
0.217045 -0.300452 0.130893 180 
0.21609 -0.300845 0.131314 182 
0.217282 -0.300359 0.132483 179 
0.217456 -0.300289 0.1333 174 
0.21807 -0.30004 0.134273 176 
0.218982 -0.299668 0.135357 172 
0.219566 -0.299431 0.136327 169 
0.220226 -0.299162 0.137328 163 
0.221601 -0.298601 0.138592 160 
0.222083 -0.298405 0.139536 153 
0.223284 -0.297915 0.140748 146 
0.224572 -0.29739 0.141997 140 
0.225715 -0.296923 0.143199 131 
0.227915 -0.296024 0.144802 123 
0.231488 -0.294563 0.146933 102 
0.232042 -0.294338 0.147936 72 
0.261413 -0.282312 0.159932 62 
0.261375 -0.28233 0.160777 71 
0.259991 -0.282899 0.161104 76 
0.261206 -0.282403 0.162434 68 
0.260471 -0.282706 0.163009 48 
0.164696 -0.321928 0.126406 38 
0.4213 -0.216854 0.228407 48 
0.424001 -0.215751 0.230699 42 
0.420644 -0.217128 0.230574 47 
0.423904 -0.215796 0.233104 43 
0.424654 -0.215492 0.234632 44 
0.421568 -0.216759 0.2346 40 
0.417872 -0.218275 0.234305 43 
0.419531 -0.217599 0.236202 46 
0.41815 -0.218167 0.236848 45 
0.42074 -0.21711 0.239143 43 
0.423263 -0.21608 0.241423 40 
0.424491 -0.21558 0.24317 41 
0.423933 -0.215811 0.244167 40 
0.423471 -0.216003 0.245204 42 
0.420026 -0.217417 0.244965 40 
0.42115 -0.21696 0.246675 40 
0.420136 -0.217378 0.247468 36 
0.424358 -0.215652 0.250531 36 
0.425411 -0.215224 0.25223 28 
0.42017 -0.217373 0.251175 29 
0.421861 -0.216684 0.253154 29 
0.213868 -0.301833 0.162486 24 
0.415232 -0.219403 0.252678 27 
0.425869 -0.215052 0.258666 27 
0.417463 -0.218496 0.256135 29 
0.416927 -0.218719 0.257125 30 
0.423937 -0.215852 0.261543 32 
0.416042 -0.219087 0.259188 31 
0.421814 -0.216727 0.26307 32 
0.424285 -0.215719 0.265457 33 
0.421295 -0.216946 0.265326 30 
0.422257 -0.216555 0.267022 36 
0.418637 -0.21804 0.266581 30 
0.42524 -0.21534 0.27093 34 
0.42756 -0.214393 0.273288 32 
0.423398 -0.2161 0.272581 29 
0.42523 -0.215353 0.274714 28 
0.421664 -0.216816 0.27427 32 
0.422259 -0.216576 0.275815 36 
0.42561 -0.215207 0.278697 59 
0.426792 -0.214727 0.280542 31 
0.421883 -0.216739 0.279419 34 
0.426959 -0.214665 0.283173 32 
0.0492974 -0.370451 -0.0851579 7 
0.384545 -0.235503 -0.254772 8 
0.0842075 -0.356402 -0.101533 6 
0.521526 -0.180369 -0.322077 7 
2.18587 0.489586 -1.16607 6 
0.0720144 -0.361313 -0.0940744 8 
0.153535 -0.328502 -0.133616 7 
1.73096 0.306436 -0.92206 7 
0.457597 -0.206119 -0.282825 7 
0.383918 -0.235778 -0.245035 7 
0.357397 -0.246456 -0.230815 11 
0.320859 -0.261165 -0.211827 7 
0.791006 -0.0719378 -0.440489 7 
0.174786 -0.319961 -0.139247 7 
0.127823 -0.338863 -0.116171 9 
0.0585785 -0.366731 -0.0831409 7 
0.0465934 -0.371556 -0.0771965 7 
0.590212 -0.152776 -0.33411 7 
0.382348 -0.236436 -0.233788 10 
0.100114 -0.350021 -0.10041 7 
0.101597 -0.349426 -0.100563 7 
0.308015 -0.266359 -0.195613 7 
0.00597544 -0.387905 -0.0569075 7 
0.0708374 -0.361807 -0.0851293 8 
0.457268 -0.206303 -0.261393 7 
0.667472 -0.121716 -0.356663 8 
0.389724 -0.23349 -0.227923 9 
0.403956 -0.227766 -0.23322 7 
0.868359 -0.0408907 -0.442379 7 
0.0351445 -0.376175 -0.0669844 8 
0.392117 -0.232538 -0.224339 8 
0.245608 -0.291494 -0.158093 6 
0.0422555 -0.373317 -0.068839 8 
0.325288 -0.259437 -0.191414 10 
0.384899 -0.235454 -0.216515 11 
0.398407 -0.230022 -0.221263 7 
0.108986 -0.346473 -0.0952814 6 
0.317795 -0.262462 -0.184128 7 
0.392708 -0.232323 -0.215292 10 
0.203521 -0.308443 -0.133515 6 
0.280433 -0.277501 -0.165299 10 
0.0632355 -0.364886 -0.0737997 7 
0.278027 -0.278473 -0.16247 7 
0.157071 -0.327138 -0.111308 9 
0.288063 -0.27444 -0.16483 9 
0.533973 -0.17551 -0.265791 11 
1.01306 0.0172273 -0.462414 7 
0.337328 -0.254628 -0.182211 8 
0.245143 -0.291715 -0.143713 8 
0.30601 -0.267231 -0.167477 9 
0.0909505 -0.353747 -0.0807021 8 
0.379618 -0.237625 -0.195053 7 
0.144141 -0.332353 -0.100497 8 
0.0299784 -0.378275 -0.0559989 9 
0.493635 -0.191769 -0.236733 11 
0.130866 -0.337697 -0.0935594 8 
0.377183 -0.238619 -0.188525 9 
1.18694 0.0871003 -0.502666 10 
0.355422 -0.247377 -0.177918 8 
0.0936894 -0.352656 -0.0773087 6 
0.462487 -0.204317 -0.216671 8 
0.0812554 -0.357659 -0.0717397 8 
0.369312 -0.241801 -0.178926 9 
0.440219 -0.213283 -0.204447 9 
0.209035 -0.30627 -0.117188 11 
0.38713 -0.234642 -0.182279 8 
0.371464 -0.240946 -0.175385 11 
0.327877 -0.258479 -0.158341 11 
0.38314 -0.236255 -0.177467 9 
0.374013 -0.239928 -0.173053 13 
0.375871 -0.239183 -0.172633 10 
0.38285 -0.236379 -0.174038 11 
0.375664 -0.239272 -0.170376 14 
0.382239 -0.236631 -0.171611 14 
0.379106 -0.237893 -0.169407 19 
0.377951 -0.23836 -0.167909 13 
0.379213 -0.237856 -0.167255 12 
0.382531 -0.236524 -0.167305 12 
0.380655 -0.237281 -0.165562 11 
0.383673 -0.23607 -0.165495 13 
0.384566 -0.235714 -0.164697 12 
0.379064 -0.237929 -0.161744 17 
0.386843 -0.234804 -0.163255 13 
0.373323 -0.240243 -0.157659 10 
0.378579 -0.238132 -0.158319 17 
0.382599 -0.236518 -0.158551 15 
0.379402 -0.237806 -0.156416 24 
0.37927 -0.237862 -0.155288 17 
0.377276 -0.238666 -0.153562 20 
0.383324 -0.236237 -0.154414 25 
0.376093 -0.239147 -0.151028 24 
0.385281 -0.235455 -0.152848 24 
0.385228 -0.235479 -0.151737 23 
0.379582 -0.237752 -0.148888 21 
0.383774 -0.236069 -0.149103 22 
0.385791 -0.235261 -0.148633 24 
0.385183 -0.235508 -0.147355 25 
0.381736 -0.236897 -0.145222 24 
0.389175 -0.233908 -0.146376 28 
0.39091 -0.233214 -0.145796 22 
0.387228 -0.234697 -0.143606 28 
0.387503 -0.234589 -0.142595 25 
0.386977 -0.234803 -0.141351 24 
0.391209 -0.233104 -0.141489 28 
0.390109 -0.233549 -0.140075 26 
0.390714 -0.233309 -0.139153 29 
0.389295 -0.233882 -0.137656 30 
0.384142 -0.235956 -0.135114 30 
0.384736 -0.235719 -0.134201 36 
0.385333 -0.235482 -0.133287 32 
0.386649 -0.234956 -0.132568 34 
0.389339 -0.233877 -0.132221 34 
0.389625 -0.233765 -0.131211 35 
0.384082 -0.235996 -0.128632 41 
0.388026 -0.234413 -0.12861 38 
0.384886 -0.235678 -0.126696 36 
0.38788 -0.234477 -0.126407 34 
0.386093 -0.235198 -0.124861 40 
0.387578 -0.234604 -0.124168 37 
0.387548 -0.234618 -0.123082 39 
0.386085 -0.235209 -0.121632 46 
0.387812 -0.234517 -0.120993 42 
0.387865 -0.234499 -0.119929 50 
0.387041 -0.234833 -0.118648 46 
0.387096 -0.234813 -0.117587 45 
0.38827 -0.234344 -0.1168 49 
0.384986 -0.235666 -0.11493 48 
0.386868 -0.234912 -0.114313 49 
0.385894 -0.235306 -0.113011 45 
0.390595 -0.23342 -0.11305 47 
0.387526 -0.234656 -0.111255 49 
0.38711 -0.234826 -0.110088 49 
0.387332 -0.234739 -0.10907 52 
0.387157 -0.234812 -0.107961 51 
0.386586 -0.235044 -0.106764 57 
0.388485 -0.234284 -0.106122 57 
0.388391 -0.234324 -0.105032 53 
0.38782 -0.234556 -0.103838 60 
0.386457 -0.235106 -0.102475 52 
0.386765 -0.234985 -0.101477 58 
0.387392 -0.234735 -0.100547 53 
0.388421 -0.234325 -0.0997004 56 
0.389455 -0.233912 -0.0988504 58 
0.39001 -0.233691 -0.0978974 58 
0.387845 -0.234564 -0.0963864 59 
0.387761 -0.2346 -0.0953064 61 
0.390239 -0.233607 -0.0947414 59 
0.389755 -0.233804 -0.0935784 59 
0.390879 -0.233355 -0.0927344 60 
0.391121 -0.233261 -0.0917144 60 
0.389354 -0.233973 -0.0903064 51 
0.392498 -0.232713 -0.0898434 55 
0.390965 -0.233331 -0.0884855 56 
0.391938 -0.232943 -0.0876018 57 
0.388251 -0.234426 -0.0858553 55 
0.392515 -0.232716 -0.0855745 56 
0.389223 -0.234041 -0.0839141 56 
0.391158 -0.233267 -0.0831996 57 
0.389241 -0.234039 -0.0817989 52 
0.391822 -0.233005 -0.0811901 58 
0.39386 -0.232189 -0.0804777 51 
0.388638 -0.234289 -0.0785221 57 
0.390331 -0.233611 -0.077751 60 
0.390346 -0.233608 -0.0766947 53 
0.389801 -0.233829 -0.0755469 61 
0.390861 -0.233406 -0.0746618 61 
0.391201 -0.233272 -0.0736577 62 
0.390016 -0.233751 -0.0724118 68 
0.389556 -0.233938 -0.0712842 70 
0.390539 -0.233546 -0.0703809 67 
0.38992 -0.233797 -0.0692309 66 
0.390665 -0.233501 -0.0682881 69 
0.392219 -0.232879 -0.0674623 74 
0.391197 -0.233292 -0.0662552 74 
0.391627 -0.233122 -0.0652612 74 
0.393189 -0.232497 -0.0644264 81 
0.392087 -0.232942 -0.0632135 80 
0.390509 -0.233578 -0.06194 76 
0.393929 -0.232208 -0.0613511 82 
0.393556 -0.23236 -0.060242 72 
0.394401 -0.232023 -0.0592952 73 
0.394273 -0.232077 -0.0582192 68 
0.395695 -0.231509 -0.0573417 72 
0.393373 -0.232444 -0.0559888 75 
0.391797 -0.233079 -0.0547378 78 
0.392319 -0.232872 -0.0537486 79 
0.392198 -0.232923 -0.0526807 75 
0.392966 -0.232617 -0.051718 74 
0.393252 -0.232505 -0.0506969 82 
0.394431 -0.232034 -0.0497763 75 
0.394233 -0.232116 -0.0486978 76 
0.393064 -0.232588 -0.0475143 75 
0.394489 -0.232019 -0.0466143 79 
0.394375 -0.232067 -0.0455468 79 
0.394425 -0.232049 -0.0444969 79 
0.394883 -0.231868 -0.0434885 82 
0.39526 -0.231719 -0.0424706 83 
0.395722 -0.231537 -0.0414595 95 
0.39545 -0.231648 -0.0403771 89 
0.397388 -0.230873 -0.0395021 94 
0.398928 -0.230257 -0.0385833 98 
0.398822 -0.230302 -0.0375116 96 
0.398799 -0.230314 -0.0364478 98 
0.399273 -0.230126 -0.0354268 95 
0.399087 -0.230203 -0.0343492 95 
0.399565 -0.230014 -0.0333264 95 
0.402125 -0.228989 -0.0324671 95 
0.399861 -0.2299 -0.0312251 96 
0.401341 -0.229309 -0.030274 97 
0.400744 -0.229551 -0.0291651 100 
0.401981 -0.229057 -0.0281894 103 
0.404065 -0.228223 -0.0272676 108 
0.401958 -0.229071 -0.026056 107 
0.402952 -0.228675 -0.0250552 104 
0.403111 -0.228613 -0.0239979 105 
0.403104 -0.228619 -0.02293 107 
0.402847 -0.228725 -0.0218474 100 
0.403681 -0.228393 -0.0208284 103 
0.404688 -0.227991 -0.0198158 105 
0.405869 -0.227519 -0.0188086 100 
0.405022 -0.227862 -0.017693 106 
0.404432 -0.228102 -0.0165937 103 
0.405531 -0.227663 -0.0155764 105 
0.406127 -0.227426 -0.0145322 100 
0.40664 -0.227223 -0.0134821 102 
0.40673 -0.227189 -0.0124128 105 
0.406822 -0.227155 -0.0113432 105 
0.407085 -0.227052 -0.0102798 107 
0.405905 -0.227528 -0.00916469 109 
0.406764 -0.227186 -0.00812199 110 
0.408481 -0.2265 -0.00710259 101 
0.407384 -0.226943 -0.00599449 96 
0.407483 -0.226905 -0.00492339 102 
0.409981 -0.225905 -0.00391209 100 
0.409397 -0.226142 -0.00281959 101 
0.409845 -0.225965 -0.00175139 107 
0.409692 -0.226029 -0.000669991 106 
0.410832 -0.225574 0.000388719 108 
0.410338 -0.225776 0.00147657 106 
0.412696 -0.224832 0.0025251 104 
0.414028 -0.2243 0.00359442 104 
0.413705 -0.224432 0.00468403 100 
0.413471 -0.224528 0.0057717 99 
0.413936 -0.224344 0.00685488 101 
0.414404 -0.22416 0.00793991 98 
0.416454 -0.223339 0.00902514 95 
0.416223 -0.223435 0.0101164 95 
0.418556 -0.222501 0.0112143 90 
0.417441 -0.222951 0.0123045 95 
0.418098 -0.22269 0.0134026 95 
0.419738 -0.222035 0.0145122 94 
0.421478 -0.221339 0.0156294 97 
0.421431 -0.221361 0.0167305 94 
0.424271 -0.220224 0.0178747 96 
0.422869 -0.220789 0.0189583 97 
0.424363 -0.220192 0.0200913 92 
0.422243 -0.221046 0.0211545 92 
0.422473 -0.220956 0.0222633 93 
0.428351 -0.2186 0.0235143 87 
0.428221 -0.218655 0.0246267 91 
0.431608 -0.217299 0.0258407 88 
