0.416088,-0.177035,0.0856477,159
0.416254,-0.177133,0.0865367,155
0.416659,-0.177368,0.087481,156
0.416495,-0.177276,0.0882971,154
0.416332,-0.177184,0.0891131,151
0.416406,-0.177229,0.0899844,148
0.416339,-0.177193,0.0908232,148
0.417222,-0.177703,0.0918888,144
0.417299,-0.177749,0.0927646,145
0.417901,-0.178098,0.0937691,146
0.416454,-0.177268,0.0942744,145
0.41734,-0.17778,0.095351,138
0.417514,-0.177882,0.0962542,136
0.415786,-0.17689,0.09668,134
0.416814,-0.177484,0.0977985,135
0.417657,-0.177971,0.0988748,135
0.416451,-0.177279,0.0994257,136
0.416198,-0.177136,0.100221,133
0.416374,-0.17724,0.101127,140
0.416218,-0.177152,0.101948,141
0.4173,-0.177777,0.103099,142
0.416096,-0.177087,0.103639,148
0.415752,-0.176891,0.104408,147
0.416262,-0.177186,0.10541,152
0.415965,-0.177018,0.106193,155
0.415243,-0.176605,0.106856,152
0.415422,-0.17671,0.107769,150
0.415317,-0.176652,0.108603,155
0.414598,-0.17624,0.109263,153
0.413647,-0.175695,0.109853,155
0.413121,-0.175395,0.110563,150
0.412504,-0.175042,0.111244,143
0.412076,-0.174798,0.111979,140
0.412254,-0.174903,0.112892,143
0.411129,-0.174258,0.113418,139
0.410196,-0.173723,0.113996,142
0.409727,-0.173455,0.114712,134
0.409582,-0.173374,0.115525,137
0.409483,-0.173319,0.116353,142
0.408649,-0.172842,0.116953,141
0.408277,-0.172629,0.117694,144
0.407585,-0.172234,0.118333,139
0.407626,-0.172259,0.119202,131
0.407575,-0.172232,0.120042,125
0.405437,-0.171004,0.120214,130
0.405703,-0.17116,0.121152,132
0.405518,-0.171055,0.121946,135
0.404702,-0.170588,0.122534,132
0.404789,-0.17064,0.123415,135
0.404966,-0.170744,0.124328,127
0.404467,-0.170459,0.125017,121
0.405231,-0.170901,0.126129,124
0.404823,-0.170668,0.126847,128
0.405227,-0.170903,0.127842,125
0.405361,-0.170983,0.128747,134
0.40527,-0.170932,0.129574,128
0.404502,-0.170493,0.130167,129
0.404456,-0.170469,0.13101,118
0.404727,-0.170627,0.131965,113
0.404682,-0.170603,0.13281,108
0.404457,-0.170476,0.133591,111
0.404368,-0.170427,0.13442,112
0.405228,-0.170924,0.135593,111
0.405321,-0.17098,0.136492,112
0.40487,-0.170722,0.137192,115
0.405371,-0.171013,0.138242,112
0.405374,-0.171017,0.139111,115
0.404291,-0.170396,0.139574,118
0.404928,-0.170765,0.14068,121
0.405658,-0.171188,0.141824,110
0.405208,-0.170931,0.142524,112
0.404533,-0.170544,0.143136,105
0.404855,-0.170732,0.14413,114
0.405314,-0.170999,0.145179,109
0.405685,-0.171214,0.146196,105
0.406147,-0.171483,0.147251,105
0.405561,-0.171147,0.147897,106
0.405705,-0.171232,0.148829,98
0.405621,-0.171186,0.149673,100
0.405765,-0.171272,0.150608,98
0.406597,-0.171753,0.151822,100
0.407204,-0.172105,0.152949,96
0.407167,-0.172086,0.153818,99
0.407361,-0.1722,0.154781,100
0.408388,-0.172794,0.156091,103
0.407797,-0.172455,0.156734,108
0.407854,-0.172491,0.157646,110
0.407357,-0.172207,0.158326,106
0.408109,-0.172642,0.159531,111
0.408678,-0.172972,0.160664,107
0.409017,-0.173169,0.161702,109
0.408471,-0.172857,0.162362,106
0.409697,-0.173566,0.163785,106
0.408917,-0.173119,0.164345,107
0.410241,-0.173884,0.16582,96
0.409974,-0.173732,0.166604,95
0.410271,-0.173906,0.167636,94
0.410994,-0.174324,0.168858,91
0.411294,-0.174499,0.169897,85
0.410131,-0.173832,0.170283,80
0.41076,-0.174196,0.171471,89
0.410824,-0.174236,0.172407,85
0.410134,-0.173841,0.173002,81
0.411285,-0.174506,0.174435,74
0.411778,-0.174792,0.175573,71
0.411654,-0.174723,0.176429,62
0.412578,-0.175258,0.177771,63
0.412933,-0.175464,0.178853,61
0.413529,-0.17581,0.180051,64
0.414465,-0.176351,0.181413,58
0.413763,-0.17595,0.182005,61
0.413833,-0.175992,0.182961,58
0.414193,-0.176202,0.184057,62
0.414795,-0.176551,0.185273,60
0.414867,-0.176595,0.186236,67
0.415814,-0.177143,0.187625,68
0.415352,-0.176879,0.188332,67
0.415279,-0.176839,0.189228,67
0.415498,-0.176968,0.190269,69
0.414891,-0.176621,0.190903,67
0.415257,-0.176834,0.192019,70
0.415623,-0.177048,0.193138,65
0.416089,-0.177319,0.19431,72
0.416165,-0.177365,0.195288,67
0.415703,-0.177101,0.195994,66
0.416563,-0.177599,0.197373,69
0.415124,-0.176772,0.197579,72
0.416571,-0.177608,0.199265,84
0.41655,-0.177599,0.2002,77
0.415013,-0.176716,0.200348,74
0.415481,-0.176988,0.201536,73
0.206895,-0.0582213,-0.100458,7
1.05159,-0.551285,-0.564343,7
0.411376,-0.177588,-0.210126,8
0.417673,-0.181266,-0.212612,8
0.857702,-0.438128,-0.451066,6
2.9836,-1.6791,-1.60435,6
0.405214,-0.174001,-0.203065,7
0.413276,-0.178709,-0.206449,8
0.138267,-0.0181623,-0.062478,8
0.229753,-0.0715763,-0.108219,8
0.399405,-0.170619,-0.196324,8
0.156569,-0.0288512,-0.070465,7
0.411524,-0.177699,-0.200843,8
0.309718,-0.118267,-0.14718,9
0.412305,-0.178159,-0.199385,8
0.401261,-0.171714,-0.192769,8
1.1056,-0.582914,-0.55478,10
0.297661,-0.111234,-0.138347,7
0.397799,-0.1697,-0.188304,9
0.405885,-0.174423,-0.191494,8
0.400416,-0.171233,-0.187834,10
0.405398,-0.174144,-0.189429,12
0.400037,-0.171016,-0.185852,7
0.406904,-0.175028,-0.188359,11
0.407195,-0.1752,-0.187592,11
0.40247,-0.172444,-0.184363,9
0.404997,-0.173922,-0.184699,12
0.399212,-0.170546,-0.180985,9
0.401064,-0.17163,-0.180991,17
0.400764,-0.171457,-0.179954,15
0.403677,-0.17316,-0.180458,12
0.402963,-0.172745,-0.179221,12
0.400854,-0.171517,-0.177327,16
0.403584,-0.173113,-0.177726,11
0.404925,-0.173899,-0.177462,11
0.402254,-0.172341,-0.175318,14
0.400471,-0.171302,-0.1736,14
0.402151,-0.172286,-0.173492,12
0.40271,-0.172615,-0.172862,10
0.408847,-0.176201,-0.174782,13
0.397744,-0.169719,-0.168826,11
0.407668,-0.175517,-0.172445,8
0.400666,-0.17143,-0.168393,11
0.417076,-0.181015,-0.174868,10
0.40241,-0.172453,-0.167411,17
0.399653,-0.170845,-0.165306,11
0.403352,-0.173008,-0.166062,12
0.403643,-0.17318,-0.165307,19
0.404846,-0.173885,-0.164948,12
0.402192,-0.172337,-0.162911,16
0.405068,-0.174019,-0.163274,13
0.400486,-0.171346,-0.160423,16
0.403336,-0.173012,-0.160767,18
0.400218,-0.171193,-0.158564,16
0.402746,-0.172672,-0.158761,15
0.405217,-0.174117,-0.158923,18
0.404737,-0.173839,-0.157841,22
0.404986,-0.173988,-0.157066,20
0.403285,-0.172996,-0.155485,22
0.406862,-0.175088,-0.15608,23
0.406655,-0.174969,-0.155113,23
0.407737,-0.175603,-0.154672,26
0.402703,-0.172665,-0.151757,20
0.405352,-0.174215,-0.151951,22
0.409942,-0.176898,-0.152908,23
0.406176,-0.174701,-0.150529,23
0.407256,-0.175334,-0.150079,28
0.406729,-0.175029,-0.148995,28
0.408736,-0.176203,-0.148902,25
0.4055,-0.174315,-0.146768,28
0.408833,-0.176265,-0.147181,30
0.407935,-0.175742,-0.145959,28
0.408654,-0.176164,-0.145357,30
0.408958,-0.176344,-0.144596,35
0.408846,-0.176281,-0.143677,34
0.407858,-0.175706,-0.142432,39
0.408854,-0.176291,-0.14193,35
0.408882,-0.176309,-0.141066,34
0.409838,-0.17687,-0.140544,35
0.4115,-0.177843,-0.140275,34
0.413271,-0.17888,-0.140039,27
0.412733,-0.178568,-0.138964,29
0.412009,-0.178147,-0.137825,25
0.413027,-0.178745,-0.13731,26
0.412822,-0.178627,-0.136359,30
0.413513,-0.179033,-0.135724,29
0.411802,-0.178035,-0.134248,31
0.413102,-0.178797,-0.133825,31
0.412804,-0.178625,-0.132846,29
0.415109,-0.179975,-0.13276,34
0.412633,-0.17853,-0.131038,38
0.414936,-0.179878,-0.130942,33
0.41741,-0.181326,-0.130895,40
0.415383,-0.180144,-0.129336,41
0.415894,-0.180444,-0.128628,39
0.416886,-0.181026,-0.128076,36
0.416536,-0.180825,-0.127082,37
0.416475,-0.180791,-0.126184,36
0.417471,-0.181375,-0.125627,33
0.415686,-0.180335,-0.124177,30
0.415865,-0.180442,-0.12336,32
0.417146,-0.181192,-0.122889,36
0.417663,-0.181497,-0.122175,37
0.417124,-0.181184,-0.12113,32
0.418752,-0.182137,-0.120757,42
0.41879,-0.182162,-0.11989,44
0.41975,-0.182725,-0.119304,40
0.419206,-0.18241,-0.118261,39
0.420461,-0.183145,-0.117759,41
0.419382,-0.182517,-0.116559,41
0.420638,-0.183254,-0.116053,45
0.422345,-0.184253,-0.115673,46
0.421209,-0.183592,-0.114461,40
0.421201,-0.18359,-0.11358,40
0.420073,-0.182933,-0.112379,41
0.420944,-0.183444,-0.111751,42
0.421769,-0.183928,-0.111107,43
0.421128,-0.183556,-0.11005,49
0.422642,-0.184443,-0.109593,49
0.420193,-0.183014,-0.108042,47
0.421212,-0.183612,-0.107447,52
0.422334,-0.18427,-0.106876,48
0.421694,-0.183898,-0.105828,48
0.420472,-0.183186,-0.104628,45
0.420082,-0.18296,-0.103654,52
0.418631,-0.182115,-0.102405,57
0.418054,-0.18178,-0.10139,56
0.41974,-0.182767,-0.100959,58
0.417862,-0.181672,-0.0996135,59
0.418487,-0.18204,-0.0989086,59
0.416909,-0.18112,-0.0976501,63
0.41615,-0.180678,-0.0966024,62
0.415821,-0.180488,-0.0956641,70
0.415304,-0.180188,-0.094682,66
0.414366,-0.179642,-0.093601,68
0.414417,-0.179674,-0.0927614,69
0.413812,-0.179323,-0.0917666,70
0.413396,-0.179082,-0.0908193,67
0.412424,-0.178516,-0.0897448,72
0.413129,-0.17893,-0.0890616,67
0.413043,-0.178882,-0.0881951,66
0.410182,-0.177212,-0.0867026,69
0.410788,-0.177568,-0.0859989,71
0.411119,-0.177764,-0.0852321,70
0.409338,-0.176725,-0.0840009,77
0.408527,-0.176253,-0.0829888,75
0.408311,-0.176129,-0.0821083,78
0.408094,-0.176005,-0.0812293,69
0.408015,-0.17596,-0.0803805,77
0.407303,-0.175546,-0.0794007,80
0.406055,-0.174819,-0.078314,80
0.40571,-0.174619,-0.0774172,85
0.405858,-0.174708,-0.0766219,84
0.405558,-0.174535,-0.0757371,85
0.405483,-0.174493,-0.0748983,89
0.404829,-0.174113,-0.0739471,90
0.405379,-0.174437,-0.0732317,89
0.404994,-0.174213,-0.0723357,86
0.405099,-0.174277,-0.0715344,95
0.405116,-0.174289,-0.0707165,89
0.405847,-0.174719,-0.0700306,85
0.405284,-0.174392,-0.0691062,88
0.404235,-0.173781,-0.0680971,91
0.405187,-0.174339,-0.0674487,91
0.406144,-0.174901,-0.0667974,95
0.404602,-0.174002,-0.065709,93
0.405022,-0.17425,-0.0649636,94
0.403934,-0.173615,-0.0639616,96
0.405331,-0.174434,-0.0633795,102
0.404507,-0.173955,-0.062426,105
0.404574,-0.173996,-0.061621,112
0.404951,-0.174218,-0.0608659,109
0.404485,-0.173948,-0.0599762,106
0.404686,-0.174068,-0.0591928,101
0.405065,-0.174292,-0.0584362,109
0.404911,-0.174204,-0.0575976,103
0.404847,-0.174168,-0.0567733,114
0.404961,-0.174237,-0.0559758,111
0.405031,-0.17428,-0.0551717,111
0.406305,-0.175028,-0.0545399,108
0.405662,-0.174654,-0.0536328,111
0.405912,-0.174802,-0.0528526,110
0.407643,-0.175816,-0.0522739,109
0.406459,-0.175126,-0.0512962,111
0.406488,-0.175145,-0.0504843,115
0.406427,-0.175112,-0.0496609,112
0.406725,-0.175288,-0.0488839,122
0.407069,-0.175491,-0.0481117,117
0.408044,-0.176064,-0.0474162,121
0.408211,-0.176163,-0.0466186,127
0.408197,-0.176157,-0.0457991,126
0.408275,-0.176205,-0.0449905,121
0.408443,-0.176305,-0.0441922,124
0.408566,-0.17638,-0.0433885,116
0.408781,-0.176507,-0.0425945,119
0.409041,-0.176662,-0.0418048,123
0.409848,-0.177136,-0.0410723,132
0.40961,-0.176999,-0.0402277,135
0.410238,-0.177368,-0.0394726,143
0.410457,-0.177498,-0.0386743,142
0.410357,-0.177442,-0.037844,140
0.410668,-0.177626,-0.0370537,138
0.411209,-0.177945,-0.0362837,146
0.411293,-0.177996,-0.0354699,134
0.412021,-0.178424,-0.0347133,142
0.412337,-0.178611,-0.0339179,141
0.412331,-0.17861,-0.033094,137
0.412926,-0.17896,-0.03232,137
0.412598,-0.17877,-0.0314693,137
0.413148,-0.179094,-0.030689,133
0.413515,-0.179311,-0.0298925,141
0.413558,-0.179338,-0.0290706,145
0.414345,-0.1798,-0.0283022,149
0.414808,-0.180074,-0.027508,147
0.414993,-0.180184,-0.0266931,148
0.4156,-0.180541,-0.0259052,153
0.416022,-0.18079,-0.025103,154
0.415974,-0.180765,-0.0242706,143
0.41668,-0.18118,-0.0234829,149
0.417625,-0.181735,-0.0227059,143
0.41953,-0.182851,-0.0219775,144
0.418483,-0.182241,-0.0210857,140
0.418105,-0.182022,-0.0202324,146
0.418822,-0.182443,-0.0194336,144
0.419637,-0.182922,-0.0186364,148
0.420024,-0.183151,-0.017817,151
0.420077,-0.183184,-0.016982,155
0.420226,-0.183274,-0.0161507,153
0.419992,-0.183139,-0.0153044,153
0.420767,-0.183594,-0.0144949,150
0.420726,-0.183573,-0.013655,145
0.421843,-0.184228,-0.0128515,141
0.420549,-0.183474,-0.0119733,145
0.420462,-0.183425,-0.0111331,147
0.421483,-0.184024,-0.0103207,144
0.421734,-0.184174,-0.00948661,152
0.421214,-0.183871,-0.00863571,154
0.420792,-0.183627,-0.00778887,160
0.420996,-0.183748,-0.006954,158
0.421153,-0.183842,-0.00611761,159
0.421455,-0.184021,-0.0052823,159
0.421662,-0.184144,-0.00444478,159
0.421483,-0.184042,-0.00360346,159
0.421642,-0.184138,-0.00276475,152
0.421513,-0.184064,-0.00192442,151
0.421384,-0.183991,-0.00108464,144
0.422319,-0.18454,-0.000244332,154
0.421562,-0.184099,0.000594664,150
0.420761,-0.183633,0.00143019,149
0.420347,-0.183392,0.00226519,139
0.420557,-0.183518,0.00310443,139
0.419379,-0.182831,0.00392831,135
0.418399,-0.182259,0.00474991,146
0.41899,-0.182607,0.00559253,144
0.417444,-0.181705,0.00639892,153
0.416334,-0.181057,0.00720757,151
0.416121,-0.180935,0.00803165,151
0.415533,-0.180593,0.00884567,145
0.415229,-0.180417,0.0096648,142
0.415252,-0.180433,0.0104922,140
0.414576,-0.180039,0.011298,145
0.414088,-0.179756,0.0121072,140
0.412954,-0.179095,0.0128917,146
0.412472,-0.178814,0.0136957,145
0.412129,-0.178616,0.0145034,154
0.411787,-0.178418,0.0153096,143
0.411309,-0.17814,0.0161086,147
0.411016,-0.177971,0.0169141,149
0.410495,-0.177668,0.0177074,150
0.410113,-0.177446,0.0185057,145
0.409913,-0.177332,0.019312,156
0.409397,-0.177032,0.0201003,158
0.410335,-0.177583,0.020969,155
0.40837,-0.176435,0.0216709,148
0.4084,-0.176455,0.0224863,142
0.408476,-0.176501,0.0233048,142
0.408462,-0.176495,0.024118,143
0.408177,-0.176331,0.024913,142
0.408029,-0.176246,0.0257164,145
0.407567,-0.175978,0.0264968,148
0.40823,-0.176368,0.0273586,154
0.407319,-0.175837,0.0281036,157
0.407487,-0.175937,0.0289293,152
0.407163,-0.175749,0.0297163,151
0.408142,-0.176325,0.0306098,150
0.408764,-0.176691,0.0314774,139
0.407943,-0.176213,0.0322225,139
0.40816,-0.176342,0.0330567,139
0.407207,-0.175786,0.0337853,142
0.406528,-0.175391,0.0345356,142
0.406834,-0.175572,0.0353773,144
0.407097,-0.175728,0.0362162,139
0.406464,-0.175359,0.0369671,137
0.406727,-0.175515,0.0378069,133
0.406007,-0.175096,0.0385457,132
0.405824,-0.174991,0.0393387,133
0.405864,-0.175017,0.0401554,144
0.405638,-0.174887,0.040943,144
0.406796,-0.175567,0.0418859,139
0.407153,-0.175778,0.042742,137
0.406971,-0.175674,0.0435369,137
0.406387,-0.175334,0.0442834,140
0.406476,-0.175388,0.0451091,139
0.407463,-0.175968,0.0460466,141
0.407148,-0.175786,0.0468249,137
0.407689,-0.176104,0.0477115,141
0.407555,-0.176028,0.0485131,147
0.407962,-0.176269,0.0493859,142
0.407603,-0.176061,0.0501579,137
0.409463,-0.177152,0.0512314,129
0.408286,-0.176465,0.0518922,133
0.408471,-0.176575,0.05274,129
0.409611,-0.177245,0.0537256,130
0.409981,-0.177464,0.0546046,124
0.408894,-0.176829,0.0552707,124
0.40831,-0.17649,0.0560078,123
0.409042,-0.17692,0.0569423,119
0.408731,-0.17674,0.0577197,120
0.409284,-0.177066,0.058631,127
0.410021,-0.1775,0.0595744,126
0.409847,-0.177401,0.060375,133
0.410131,-0.177569,0.0612495,139
0.409957,-0.177469,0.0620504,143
0.410562,-0.177826,0.062981,139
0.409704,-0.177325,0.0636668,142
0.410309,-0.177682,0.0646003,140
0.410046,-0.17753,0.065386,137
0.410425,-0.177754,0.0662836,134
0.410346,-0.17771,0.067102,132
0.410588,-0.177854,0.0679782,132
0.412865,-0.17919,0.0692269,128
0.41149,-0.178387,0.0698122,127
0.410998,-0.178101,0.0705566,128
0.411475,-0.178382,0.0714822,125
0.412416,-0.178935,0.0724992,122
0.412897,-0.179219,0.0734317,115
0.413054,-0.179313,0.0743034,119
0.412514,-0.178999,0.0750385,124
0.41337,-0.179503,0.0760506,126
0.413903,-0.179817,0.0770017,134
0.413922,-0.179831,0.0778507,138
0.414975,-0.180449,0.0789136,140
0.414525,-0.180188,0.0796681,146
0.414594,-0.180231,0.0805302,145
0.416125,-0.18113,0.0817049,151
0.415533,-0.180785,0.0824296,155
0.41584,-0.180967,0.0833476,153
0.415674,-0.180872,0.0841638,150
0.415273,-0.18064,0.0849274,149
0.415061,-0.180518,0.0857322,157
0.415228,-0.180618,0.0866221,162
0.415489,-0.180773,0.087535,159
0.416701,-0.181485,0.0886689,156
0.415636,-0.180864,0.0892782,151
0.416661,-0.181466,0.0903745,149
0.416736,-0.181512,0.0912507,148
0.417241,-0.181811,0.0922308,148
0.417175,-0.181774,0.0930754,149
0.417252,-0.181821,0.0939552,150
0.41671,-0.181506,0.0946833,143
0.415931,-0.181052,0.095351,139
0.416247,-0.181239,0.0962899,140
0.416659,-0.181483,0.0972553,136
0.416167,-0.181197,0.0979923,128
0.416485,-0.181385,0.0989361,131
0.416279,-0.181267,0.099746,132
0.41617,-0.181205,0.100581,132
0.41606,-0.181143,0.101416,136
0.416428,-0.181361,0.102377,137
0.415748,-0.180965,0.10306,143
0.416069,-0.181155,0.104011,142
0.416152,-0.181206,0.1049,143
0.415854,-0.181034,0.105685,157
0.415415,-0.180779,0.106429,152
0.415214,-0.180664,0.107239,156
0.415489,-0.180827,0.108183,152
0.415384,-0.180768,0.10902,153
0.414285,-0.180126,0.109573,153
0.41338,-0.179598,0.110178,153
0.413276,-0.17954,0.111012,157
0.41247,-0.179069,0.111641,144
0.412743,-0.179232,0.112585,142
0.412267,-0.178955,0.113308,139
0.411186,-0.178323,0.113849,136
0.411365,-0.178431,0.114765,135
0.410846,-0.178129,0.115471,133
0.409496,-0.17734,0.11592,129
0.409628,-0.17742,0.116822,137
0.409299,-0.177229,0.117581,138
0.408326,-0.176662,0.118138,136
0.407954,-0.176446,0.11888,129
0.407262,-0.176043,0.11952,134
0.406392,-0.175535,0.120101,137
0.405933,-0.175268,0.12081,135
0.405566,-0.175055,0.121548,130
0.405743,-0.175161,0.122463,131
0.404744,-0.174578,0.122992,123
0.405872,-0.175242,0.124223,124
0.404016,-0.174156,0.124463,120
0.403834,-0.174051,0.125258,125
0.403741,-0.173999,0.126083,125
0.404009,-0.174159,0.127031,132
0.404278,-0.174318,0.127981,130
0.404773,-0.174611,0.129011,124
0.404095,-0.174216,0.129637,126
0.404275,-0.174323,0.13056,129
0.404184,-0.174273,0.13139,130
0.404365,-0.174381,0.132316,124
0.40414,-0.174251,0.133099,115
0.404006,-0.174175,0.133914,113
0.404187,-0.174283,0.134843,105
0.404279,-0.17434,0.135741,113
0.404281,-0.174343,0.136607,111
0.404013,-0.174188,0.137375,114
0.404151,-0.174271,0.138293,113
0.404154,-0.174275,0.139161,113
0.403977,-0.174173,0.139963,111
0.404297,-0.174363,0.140952,108
0.403984,-0.174183,0.141704,108
0.404396,-0.174426,0.142731,108
0.403813,-0.174086,0.143379,108
0.404634,-0.17457,0.144567,110
0.404639,-0.174575,0.145443,105
0.404191,-0.174315,0.146142,107
0.404879,-0.174721,0.147287,104
0.405114,-0.17486,0.148257,109
0.405532,-0.175108,0.149301,109
0.406502,-0.175679,0.150569,109
0.405136,-0.174881,0.150902,103
0.405099,-0.174861,0.151767,101
0.405382,-0.175029,0.152763,100
0.406538,-0.175709,0.154119,97
0.406594,-0.175744,0.155028,99
0.40619,-0.17551,0.155747,104
0.406522,-0.175707,0.156772,102
0.406441,-0.175662,0.157626,108
0.406821,-0.175887,0.158675,104
0.407295,-0.176167,0.159766,105
0.408375,-0.176803,0.161119,101
0.407227,-0.176132,0.161523,105
0.407518,-0.176304,0.162542,104
0.408088,-0.176642,0.163685,103
0.408149,-0.176679,0.164608,103
0.40877,-0.177046,0.165779,103
0.409769,-0.177634,0.167119,99
0.409268,-0.177342,0.167801,91
0.409988,-0.177767,0.169026,88
0.409957,-0.177751,0.169918,88
0.410493,-0.178068,0.171066,86
0.409944,-0.177748,0.171726,88
0.410622,-0.178148,0.172943,89
0.409366,-0.177414,0.17328,83
0.41099,-0.178369,0.174935,71
0.411912,-0.178912,0.176274,75
0.411836,-0.17887,0.177156,66
0.411427,-0.178632,0.177882,69
0.411352,-0.17859,0.178764,61
0.411801,-0.178856,0.179894,60
0.412252,-0.179123,0.181027,53
0.413618,-0.179927,0.182599,61
0.413207,-0.179688,0.183329,60
0.413759,-0.180014,0.18452,61
0.414072,-0.1802,0.185599,66
0.413516,-0.179876,0.186259,74
0.414216,-0.180289,0.18753,67
0.413949,-0.180136,0.188332,70
0.414653,-0.180551,0.18961,65
0.413805,-0.180056,0.190125,66
0.413733,-0.180016,0.191023,69
0.413855,-0.18009,0.192019,68
0.414026,-0.180193,0.19304,69
0.414441,-0.180438,0.194187,65
0.413884,-0.180114,0.194844,69
0.415079,-0.180818,0.196391,71
0.416086,-0.181411,0.19785,70
0.416557,-0.18169,0.199038,70
0.414968,-0.18076,0.199164,84
0.415388,-0.181008,0.200327,73
0.415319,-0.180971,0.201238,74
0.414224,-0.180331,0.201613,71
1.16626,-0.630262,-0.633287,7
0.41842,-0.185833,-0.215728,6
0.209809,-0.0618539,-0.101361,7
0.416434,-0.184658,-0.21272,7
0.281119,-0.10424,-0.138474,7
0.407892,-0.179586,-0.206183,6
0.217934,-0.0666884,-0.103803,8
0.408517,-0.179963,-0.204655,8
0.386719,-0.167009,-0.192085,7
0.700589,-0.35356,-0.358703,7
0.415029,-0.183841,-0.20531,9
0.498692,-0.233569,-0.248528,8
0.411598,-0.181807,-0.201621,9
0.412326,-0.182242,-0.201066,10
0.409654,-0.180656,-0.198741,9
0.313405,-0.123448,-0.148184,7
0.40948,-0.180557,-0.196796,7
0.408353,-0.17989,-0.195293,8
0.251203,-0.0864792,-0.114763,10
0.144408,-0.0229941,-0.0622934,7
0.503947,-0.23672,-0.240902,7
0.406891,-0.17903,-0.190873,9
0.406249,-0.178651,-0.189636,10
0.359868,-0.151082,-0.165662,8
0.398307,-0.173935,-0.183877,10
0.286835,-0.107672,-0.128282,8
0.213025,-0.0637942,-0.0921445,7
0.401492,-0.175835,-0.182757,10
0.400963,-0.175523,-0.181603,11
0.400527,-0.175266,-0.180497,11
0.358115,-0.150055,-0.159231,9
0.40182,-0.17604,-0.179329,14
0.402197,-0.176266,-0.178614,12
0.400093,-0.175017,-0.176722,10
0.401548,-0.175885,-0.176519,9
0.401609,-0.175924,-0.175656,11
0.403441,-0.177015,-0.17562,11
0.400426,-0.175225,-0.173325,11
0.837949,-0.435348,-0.375561,9
0.400236,-0.175117,-0.171465,10
0.39794,-0.173754,-0.169531,10
0.403068,-0.176805,-0.170985,10
0.411686,-0.181931,-0.173996,14
0.399281,-0.174558,-0.167502,9
0.405176,-0.178065,-0.169262,15
0.32446,-0.130076,-0.132508,9
0.405671,-0.178365,-0.167697,13
0.405322,-0.178159,-0.166651,13
0.401434,-0.17585,-0.164056,14
0.403533,-0.1771,-0.164091,13
0.401969,-0.176172,-0.162528,12
0.405123,-0.17805,-0.163009,21
0.405006,-0.177983,-0.162071,12
0.399659,-0.174806,-0.158904,15
0.401512,-0.17591,-0.158818,16
0.401983,-0.176192,-0.15814,14
0.405501,-0.178286,-0.15874,21
0.405797,-0.178465,-0.15798,22
0.40463,-0.177773,-0.156612,26
0.409734,-0.180811,-0.157838,21
0.40472,-0.177831,-0.154889,22
0.405153,-0.178092,-0.154186,24
0.407937,-0.179749,-0.154436,23
0.40438,-0.177636,-0.152116,21
0.404358,-0.177625,-0.151231,27
0.406071,-0.178646,-0.151039,24
0.406784,-0.179073,-0.150443,27
0.407546,-0.179528,-0.149863,22
0.408961,-0.180372,-0.149537,25
0.407365,-0.179425,-0.148032,23
0.40716,-0.179306,-0.147074,27
0.406267,-0.178777,-0.145853,27
0.407719,-0.179643,-0.145533,31
0.407054,-0.179249,-0.144403,34
0.407173,-0.179322,-0.143573,37
0.407845,-0.179724,-0.142951,32
0.407503,-0.179524,-0.141947,38
0.409336,-0.180616,-0.141753,35
0.409922,-0.180967,-0.141092,37
0.408788,-0.180295,-0.139798,31
0.410212,-0.181144,-0.139441,30
0.412589,-0.18256,-0.139424,29
0.411958,-0.182187,-0.138315,30
0.413168,-0.182909,-0.137867,26
0.413103,-0.182873,-0.136961,28
0.412802,-0.182696,-0.135973,29
0.410391,-0.181264,-0.134248,30
0.412438,-0.182484,-0.134087,33
0.412187,-0.182337,-0.133122,32
0.413446,-0.183088,-0.132678,37
0.414,-0.18342,-0.131988,32
0.41233,-0.182429,-0.130542,35
0.415255,-0.184172,-0.130653,40
0.414954,-0.183995,-0.129671,34
0.413373,-0.183056,-0.128265,38
0.414878,-0.183954,-0.127887,32
0.414057,-0.183468,-0.126739,30
0.416142,-0.184711,-0.126542,33
0.416321,-0.184819,-0.12572,33
0.41626,-0.184786,-0.124821,32
0.416728,-0.185066,-0.124091,34
0.416909,-0.185176,-0.123268,35
0.415938,-0.184601,-0.122084,33
0.419158,-0.186519,-0.122213,32
0.418371,-0.186053,-0.121086,39
0.418748,-0.186279,-0.120321,35
0.41777,-0.1857,-0.119142,39
0.418825,-0.18633,-0.118583,34
0.420227,-0.187166,-0.118125,38
0.420266,-0.187192,-0.117255,41
0.421826,-0.188123,-0.116835,42
0.419178,-0.186549,-0.115171,43
0.420095,-0.187097,-0.114561,45
0.420527,-0.187356,-0.113806,46
0.419545,-0.186774,-0.112644,52
0.420415,-0.187295,-0.112015,49
0.421339,-0.187846,-0.111397,45
0.419479,-0.186742,-0.109995,45
0.420643,-0.187437,-0.109444,51
0.42015,-0.187146,-0.10843,45
0.421171,-0.187756,-0.107834,51
0.423383,-0.189074,-0.107557,47
0.42048,-0.187349,-0.105893,53
0.419505,-0.186771,-0.104758,48
0.418873,-0.186398,-0.103718,55
0.41892,-0.186428,-0.102861,58
0.419113,-0.186545,-0.102041,55
0.419693,-0.186893,-0.101321,55
0.417907,-0.185832,-0.0999934,55
0.417427,-0.185549,-0.0990058,56
0.416998,-0.185295,-0.0980334,57
0.416046,-0.184731,-0.0969332,67
0.415289,-0.184283,-0.0958859,65
0.414441,-0.183781,-0.0948204,66
0.413363,-0.183142,-0.0937033,65
0.413274,-0.183091,-0.092829,71
0.412811,-0.182817,-0.0918666,70
0.412676,-0.182739,-0.0909842,70
0.413009,-0.18294,-0.0902122,75
0.412176,-0.182446,-0.0891692,69
0.411439,-0.18201,-0.0881526,69
0.410938,-0.181713,-0.087193,69
0.410484,-0.181446,-0.0862469,70
0.410677,-0.181563,-0.0854473,71
0.409261,-0.180722,-0.0842926,74
0.407993,-0.17997,-0.0831768,75
0.407912,-0.179924,-0.0823236,74
0.407741,-0.179824,-0.0814519,77
0.406485,-0.179079,-0.0803519,76
0.406137,-0.178874,-0.0794478,75
0.40561,-0.178562,-0.0785087,80
0.405488,-0.178492,-0.0776553,79
0.405098,-0.178262,-0.0767486,89
0.405067,-0.178246,-0.075916,86
0.40526,-0.178363,-0.0751283,87
0.404204,-0.177736,-0.0740952,88
0.404308,-0.1778,-0.0732921,92
0.404146,-0.177706,-0.0724379,91
0.404251,-0.177771,-0.0716354,94
0.404445,-0.177889,-0.0708497,87
0.404997,-0.178219,-0.0701297,93
0.404257,-0.177781,-0.0691712,86
0.40432,-0.17782,-0.0683614,88
0.403451,-0.177305,-0.0673854,86
0.403647,-0.177424,-0.0666014,89
0.403533,-0.177359,-0.065763,91
0.403952,-0.17761,-0.065017,97
0.402822,-0.17694,-0.0640065,98
0.402667,-0.176849,-0.0631647,107
0.403881,-0.177574,-0.0625505,102
0.403592,-0.177405,-0.061686,101
0.403615,-0.17742,-0.0608731,106
0.403239,-0.177199,-0.0599973,109
0.403174,-0.177162,-0.059172,111
0.404215,-0.177784,-0.0585184,118
0.403841,-0.177563,-0.0576448,118
0.40502,-0.178267,-0.0570066,124
0.404467,-0.17794,-0.056107,117
0.404004,-0.177667,-0.0552234,115
0.404474,-0.177948,-0.054476,112
0.404411,-0.177913,-0.0536516,119
0.404482,-0.177958,-0.0528464,114
0.406205,-0.178986,-0.0522677,109
0.405562,-0.178605,-0.0513625,111
0.4051,-0.178332,-0.0504843,116
0.405977,-0.178856,-0.0497834,111
0.407083,-0.179517,-0.0491084,115
0.406215,-0.179003,-0.0481795,113
0.40647,-0.179156,-0.0473939,112
0.40731,-0.179659,-0.046679,119
0.407837,-0.179975,-0.0459232,117
0.406878,-0.179406,-0.0449905,111
0.407405,-0.179722,-0.0442338,117
0.40789,-0.180012,-0.0434702,117
0.407607,-0.179846,-0.0426195,121
0.408409,-0.180326,-0.0418885,122
0.409489,-0.180971,-0.0411839,127
0.40866,-0.18048,-0.0402751,132
0.408787,-0.180557,-0.039468,135
0.408959,-0.180662,-0.0386652,137
0.409041,-0.180713,-0.0378529,138
0.409033,-0.180711,-0.0370319,138
0.409298,-0.18087,-0.0362367,141
0.410889,-0.18182,-0.0355622,131
0.411066,-0.181928,-0.0347543,141
0.411013,-0.181899,-0.0339259,140
0.411283,-0.182061,-0.0331253,142
0.41206,-0.182526,-0.0323659,137
0.412194,-0.182608,-0.0315512,135
0.412282,-0.182663,-0.0307325,132
0.413018,-0.183104,-0.0299633,138
0.412737,-0.182938,-0.0291153,138
0.41343,-0.183353,-0.0283391,154
0.413103,-0.18316,-0.0274885,150
0.414171,-0.183798,-0.0267342,152
0.414309,-0.183883,-0.0259144,147
0.414636,-0.18408,-0.025106,151
0.414963,-0.184277,-0.0242964,149
0.415667,-0.184698,-0.0235079,144
0.415668,-0.184701,-0.0226763,140
0.416328,-0.185096,-0.0218811,144
0.417323,-0.185691,-0.0211008,139
0.418466,-0.186374,-0.0203238,143
0.418708,-0.18652,-0.0194983,145
0.419524,-0.187009,-0.0186985,146
0.418859,-0.186615,-0.0178297,148
0.420013,-0.187305,-0.0170404,150
0.419731,-0.187138,-0.0161889,148
0.419641,-0.187087,-0.0153459,153
0.419743,-0.18715,-0.0145103,152
0.420086,-0.187357,-0.0136823,151
0.420334,-0.187507,-0.01285,142
0.420295,-0.187485,-0.0120082,140
0.421268,-0.188068,-0.0111941,136
0.420554,-0.187644,-0.0103338,141
0.420227,-0.187452,-0.00948552,139
0.42125,-0.188063,-0.00866637,156
0.421503,-0.188216,-0.00782869,155
0.420742,-0.187765,-0.0069735,162
0.421334,-0.18812,-0.00614065,155
0.42096,-0.187899,-0.00529377,155
0.420925,-0.187881,-0.00445183,159
0.421084,-0.187978,-0.00361152,156
0.421437,-0.188191,-0.00277159,154
0.421259,-0.188087,-0.00192839,153
0.421759,-0.188387,-0.00108673,150
0.421824,-0.188428,-0.000243354,150
0.42126,-0.188094,0.000598328,144
0.420361,-0.187561,0.00143581,146
0.420139,-0.18743,0.0022745,133
0.41939,-0.186986,0.00310719,136
0.418168,-0.18626,0.00393111,135
0.418331,-0.186359,0.00476909,145
0.417638,-0.185949,0.00559405,144
0.417326,-0.185766,0.00642304,146
0.416733,-0.185414,0.00724497,142
0.418367,-0.18639,0.00811466,150
0.416729,-0.185416,0.00891059,137
0.415434,-0.184647,0.00970872,141
0.414334,-0.183994,0.010507,143
0.414125,-0.183871,0.0113284,143
0.412663,-0.183002,0.0121072,147
0.412226,-0.182744,0.0129162,145
0.41179,-0.182486,0.0137234,155
0.411355,-0.18223,0.0145289,155
0.411381,-0.182247,0.0153519,153
0.41072,-0.181855,0.0161448,146
0.41093,-0.181982,0.0169753,140
0.409906,-0.181374,0.0177471,146
0.409615,-0.181203,0.0185516,149
0.408644,-0.180627,0.0193192,148
0.409398,-0.181079,0.0201773,149
0.409564,-0.18118,0.0210053,151
0.408867,-0.180766,0.0217831,158
0.408399,-0.180489,0.022572,151
0.408475,-0.180537,0.0233936,144
0.408144,-0.180342,0.024189,148
0.40678,-0.179531,0.024913,147
0.406946,-0.179632,0.0257384,150
0.407338,-0.179868,0.0265809,150
0.407326,-0.179863,0.0273953,147
0.407856,-0.180181,0.0282512,152
0.408116,-0.180338,0.0290884,163
0.407293,-0.17985,0.0298394,159
0.408457,-0.180546,0.0307519,153
0.407184,-0.179789,0.0314621,136
0.408077,-0.180323,0.0323561,142
0.406403,-0.179328,0.0330246,147
0.406396,-0.179325,0.0338386,149
0.406567,-0.17943,0.0346697,145
0.406336,-0.179294,0.035463,146
0.405927,-0.179053,0.0362381,140
0.405787,-0.178971,0.0370387,145
0.405469,-0.178784,0.0378206,136
0.405108,-0.178571,0.0385969,134
0.404925,-0.178464,0.0393909,134
0.406081,-0.179155,0.0403302,140
0.406033,-0.179129,0.0411409,136
0.405628,-0.178889,0.0419112,140
0.406252,-0.179263,0.0427989,145
0.40634,-0.179318,0.0436264,147
0.407688,-0.180124,0.0446057,143
0.405934,-0.179081,0.0452126,148
0.405755,-0.178976,0.0460077,142
0.406203,-0.179245,0.0468815,141
0.406607,-0.179488,0.0477519,139
0.408188,-0.180432,0.0487781,140
0.40661,-0.179494,0.0493919,140
0.407242,-0.179873,0.0502975,144
0.40711,-0.179796,0.0511012,135
0.407068,-0.179774,0.0519174,132
0.407523,-0.180047,0.0528039,133
0.40807,-0.180375,0.053706,141
0.407939,-0.1803,0.0545119,137
0.408171,-0.18044,0.0553713,136
0.408904,-0.180879,0.0563073,128
0.406918,-0.179697,0.0568321,124
0.408236,-0.180485,0.0578598,122
0.408561,-0.180681,0.0587378,125
0.408433,-0.180607,0.0595455,127
0.40917,-0.181048,0.0604924,131
0.409499,-0.181247,0.0613763,137
0.408778,-0.180819,0.0620881,140
0.409702,-0.181372,0.063073,139
0.409804,-0.181435,0.0639228,136
0.409541,-0.18128,0.0647104,135
0.409598,-0.181317,0.0655532,133
0.409839,-0.181463,0.066429,125
0.408983,-0.180954,0.0671101,125
0.410278,-0.181729,0.0681773,129
0.410799,-0.182041,0.0691085,129
0.41109,-0.182217,0.07,130
0.410644,-0.181953,0.0707548,128
0.410982,-0.182157,0.071657,121
0.411738,-0.18261,0.0726413,126
0.411153,-0.182264,0.0733689,121
0.41434,-0.184166,0.0748351,123
0.412533,-0.183091,0.0753241,126
0.412412,-0.183021,0.076144,126
0.412617,-0.183146,0.0770301,134
0.413197,-0.183493,0.0779944,130
0.413077,-0.183424,0.0788165,140
0.413566,-0.183718,0.0797662,146
0.414809,-0.184462,0.0808785,150
0.414266,-0.18414,0.0816142,153
0.414665,-0.18438,0.0825518,153
0.414358,-0.184199,0.0833374,152
0.414147,-0.184075,0.084143,145
0.414972,-0.18457,0.0851795,145
0.415612,-0.184954,0.0861784,155
0.415638,-0.184971,0.0870408,159
0.415664,-0.184989,0.0879039,160
0.415643,-0.184979,0.0887568,157
0.416097,-0.185252,0.0897215,148
0.416506,-0.185498,0.0906778,139
0.417108,-0.185859,0.0916824,138
0.416897,-0.185736,0.0924948,142
0.416401,-0.185442,0.0932373,143
0.416049,-0.185235,0.0940136,140
0.415746,-0.185056,0.0948008,142
0.416348,-0.185418,0.0958132,142
0.414905,-0.184559,0.0963138,139
0.415458,-0.184891,0.0973156,139
0.416109,-0.185282,0.0983455,135
0.416332,-0.185417,0.0992683,131
0.416127,-0.185297,0.100081,123
0.416208,-0.185348,0.100968,125
0.415432,-0.184887,0.10163,132
0.416181,-0.185336,0.102696,135
0.416168,-0.185331,0.10356,135
0.416442,-0.185497,0.104504,133
0.41581,-0.185121,0.1052,141
0.415512,-0.184946,0.105987,149
0.41512,-0.184715,0.106746,149
0.415729,-0.18508,0.107786,150
0.415052,-0.184678,0.108465,154
0.414947,-0.184618,0.109304,151
0.414463,-0.184332,0.110035,151
0.414217,-0.184187,0.110833,150
0.413121,-0.183536,0.111383,157
0.412642,-0.183253,0.11211,156
0.412259,-0.183026,0.112863,149
0.412345,-0.18308,0.113756,144
0.411682,-0.182686,0.114424,133
0.41205,-0.182908,0.115402,131
0.411341,-0.182488,0.116054,139
0.410774,-0.182152,0.116747,133
0.410675,-0.182095,0.117583,135
0.409092,-0.181153,0.117955,138
0.408994,-0.181097,0.118789,139
0.407333,-0.180108,0.119127,138
0.407465,-0.180189,0.120031,136
0.40714,-0.179998,0.120789,130
0.406405,-0.179561,0.121413,131
0.40631,-0.179507,0.122243,130
0.405714,-0.179153,0.122909,127
0.405302,-0.17891,0.123634,127
0.405571,-0.179073,0.124585,121
0.404752,-0.178586,0.125172,125
0.404388,-0.178371,0.12591,120
0.40407,-0.178184,0.126663,125
0.404973,-0.178725,0.127833,124
0.404247,-0.178294,0.128446,126
0.404111,-0.178215,0.129261,131
0.403839,-0.178055,0.13003,129
0.403613,-0.177923,0.130813,130
0.403343,-0.177764,0.131581,121
0.403163,-0.177659,0.13238,115
0.402984,-0.177554,0.133179,115
0.403435,-0.177825,0.134205,116
0.403437,-0.177829,0.135071,117
0.403168,-0.177671,0.13584,122
0.403035,-0.177593,0.136657,127
0.402767,-0.177436,0.137425,119
0.404215,-0.178302,0.13883,114
0.403449,-0.177848,0.139414,109
0.403317,-0.177771,0.140234,111
0.403095,-0.177641,0.141021,116
0.403009,-0.177592,0.141858,113
0.402743,-0.177436,0.142627,114
0.402883,-0.177521,0.143552,103
0.403205,-0.177715,0.144549,107
0.403391,-0.177829,0.145496,104
0.403987,-0.178187,0.146605,101
0.405682,-0.179201,0.148152,103
0.403864,-0.178118,0.148311,104
0.404326,-0.178396,0.149374,104
0.404243,-0.178349,0.15022,111
0.40457,-0.178546,0.151233,107
0.404396,-0.178445,0.152045,105
0.404268,-0.178371,0.152875,103
0.404916,-0.17876,0.154025,101
0.406166,-0.179508,0.155427,100
0.405211,-0.17894,0.155919,103
0.405543,-0.179141,0.156945,111
0.406152,-0.179507,0.158091,111
0.406625,-0.179792,0.159183,104
0.406869,-0.179939,0.160179,103
0.407764,-0.180476,0.161457,99
0.407312,-0.180208,0.16216,99
0.407604,-0.180385,0.163184,97
0.407618,-0.180396,0.164089,102
0.408191,-0.180741,0.16524,97
0.407972,-0.180612,0.166045,103
0.408221,-0.180763,0.167057,89
0.408096,-0.180691,0.167905,89
0.408299,-0.180814,0.1689,87
0.408596,-0.180994,0.169939,87
0.408659,-0.181034,0.170875,84
0.40877,-0.181102,0.171833,83
0.408083,-0.180695,0.172429,82
0.409558,-0.181578,0.174014,86
0.409529,-0.181563,0.174913,79
0.409926,-0.181802,0.176011,73
0.410134,-0.181929,0.177023,64
0.410106,-0.181915,0.177927,65
0.410601,-0.182212,0.179077,63
0.411957,-0.183025,0.180639,55
0.411787,-0.182925,0.181481,56
0.410187,-0.181973,0.181641,59
0.41231,-0.183243,0.183582,59
0.411517,-0.182772,0.184126,66
0.410823,-0.182359,0.184715,65
0.412619,-0.183434,0.186517,66
0.412065,-0.183106,0.187176,67
0.412522,-0.183381,0.188332,66
0.414338,-0.184468,0.190163,68
0.413199,-0.18379,0.190534,64
0.412837,-0.183577,0.191289,67
0.414659,-0.184667,0.19314,68
0.414783,-0.184743,0.194144,71
0.413738,-0.184122,0.194556,67
0.413474,-0.183967,0.195362,68
0.415159,-0.184975,0.197166,70
0.415334,-0.185082,0.198202,65
0.415314,-0.185073,0.199139,71
0.414461,-0.184566,0.199645,84
0.414882,-0.18482,0.200812,70
0.415795,-0.185368,0.20224,72
0.416121,-0.185565,0.203365,70
0.529033,-0.256919,-0.279202,7
1.27233,-0.706592,-0.692472,6
0.278627,-0.105434,-0.138817,7
0.188215,-0.0507338,-0.0897458,6
1.14416,-0.629078,-0.612628,8
0.422849,-0.192695,-0.215099,8
0.432603,-0.198598,-0.219414,6
0.80388,-0.423228,-0.419558,7
0.402675,-0.180497,-0.201354,8
0.815136,-0.430048,-0.421796,7
0.88614,-0.473012,-0.457885,6
0.408201,-0.183847,-0.201521,9
0.409299,-0.184514,-0.201168,7
0.4607,-0.215617,-0.227227,8
0.406809,-0.183013,-0.198004,9
0.392426,-0.174312,-0.189608,11
0.215397,-0.0671961,-0.0981117,7
0.301413,-0.119246,-0.141171,9
0.361179,-0.155412,-0.170961,7
0.820218,-0.433174,-0.405167,8
0.407284,-0.183314,-0.192709,7
0.406918,-0.183096,-0.191603,7
0.2707,-0.100669,-0.122574,7
0.670529,-0.342615,-0.32212,7
0.401872,-0.180049,-0.186337,8
0.268979,-0.0996323,-0.119964,8
0.402352,-0.180344,-0.184766,7
0.405957,-0.182529,-0.185631,10
0.405088,-0.182005,-0.184295,10
0.282178,-0.107627,-0.123959,7
0.401269,-0.179699,-0.180633,12
0.401147,-0.179627,-0.179677,13
0.399227,-0.178467,-0.177861,9
0.280899,-0.106859,-0.120906,9
0.398855,-0.178247,-0.175904,12
0.400036,-0.178964,-0.175571,10
0.400276,-0.179112,-0.174794,10
1.09212,-0.597818,-0.498586,9
0.400984,-0.179545,-0.173342,13
0.397959,-0.177716,-0.171055,11
0.407767,-0.183655,-0.174678,11
0.205222,-0.0610674,-0.0822175,8
0.404188,-0.181494,-0.171242,8
0.399142,-0.178442,-0.168064,12
0.405233,-0.182131,-0.169923,11
0.403417,-0.181034,-0.168214,15
0.374155,-0.163325,-0.154306,10
0.399753,-0.178821,-0.16481,13
0.400758,-0.179431,-0.164372,11
0.403765,-0.181254,-0.164808,13
0.403328,-0.180992,-0.163729,11
0.409078,-0.184474,-0.165334,11
0.404006,-0.181407,-0.162248,10
0.402934,-0.18076,-0.160902,12
0.401373,-0.179818,-0.159353,18
0.404524,-0.181727,-0.15981,13
0.402996,-0.180805,-0.15828,19
0.403063,-0.180848,-0.157427,20
0.405366,-0.182244,-0.157506,27
0.402835,-0.180714,-0.155571,22
0.403447,-0.181087,-0.154945,21
0.404289,-0.181599,-0.15441,18
0.402949,-0.18079,-0.152983,20
0.403334,-0.181026,-0.152263,22
0.405639,-0.182423,-0.152314,23
0.40461,-0.181803,-0.15102,21
0.406421,-0.182902,-0.150864,23
0.406722,-0.183086,-0.150101,23
0.406516,-0.182964,-0.149137,28
0.406127,-0.18273,-0.148104,26
0.408231,-0.184006,-0.148044,27
0.406868,-0.183184,-0.146633,26
0.408096,-0.183929,-0.146226,25
0.405908,-0.182607,-0.144508,28
0.405889,-0.182598,-0.143625,33
0.409477,-0.184773,-0.144104,30
0.409458,-0.184763,-0.143214,33
0.410092,-0.18515,-0.142569,30
0.410354,-0.185311,-0.141783,31
0.408702,-0.184313,-0.140292,34
0.409895,-0.185037,-0.139851,33
0.408945,-0.184464,-0.138625,31
0.411548,-0.186043,-0.138688,28
0.409469,-0.184786,-0.137059,26
0.409778,-0.184976,-0.136292,28
0.41315,-0.18702,-0.13661,26
0.411808,-0.18621,-0.135253,28
0.412263,-0.186488,-0.134532,31
0.413194,-0.187053,-0.133974,32
0.412515,-0.186644,-0.132857,29
0.411368,-0.185952,-0.131584,30
0.413669,-0.187348,-0.131491,35
0.414463,-0.187831,-0.130878,36
0.413449,-0.187219,-0.129655,37
0.414815,-0.188049,-0.129231,43
0.413516,-0.187264,-0.127918,35
0.41317,-0.187058,-0.126926,32
0.414726,-0.188002,-0.126558,32
0.415,-0.18817,-0.125766,32
0.416811,-0.18927,-0.125471,35
0.415693,-0.188595,-0.124229,36
0.416161,-0.18888,-0.123497,33
0.415861,-0.188701,-0.122522,29
0.417729,-0.189835,-0.122228,34
0.41864,-0.190388,-0.121628,36
0.418191,-0.190119,-0.120605,33
0.417262,-0.189559,-0.119437,36
0.415906,-0.18874,-0.118144,40
0.417291,-0.189581,-0.117686,39
0.419221,-0.190752,-0.117386,35
0.419407,-0.190867,-0.116558,43
0.419545,-0.190953,-0.115716,40
0.419537,-0.19095,-0.114832,46
0.417927,-0.189978,-0.113482,44
0.419668,-0.191035,-0.113107,47
0.420003,-0.19124,-0.112322,44
0.42029,-0.191416,-0.111522,47
0.419309,-0.190824,-0.110364,45
0.41703,-0.189446,-0.108849,47
0.418716,-0.190469,-0.108444,53
0.418712,-0.190469,-0.107567,56
0.417741,-0.189884,-0.106426,51
0.419871,-0.191176,-0.10613,53
0.418993,-0.190647,-0.105018,48
0.418845,-0.190559,-0.104104,51
0.41807,-0.190092,-0.103026,63
0.417924,-0.190006,-0.102117,60
0.418406,-0.1903,-0.101371,53
0.416626,-0.189224,-0.100043,60
0.416914,-0.189401,-0.0992497,55
0.416245,-0.188998,-0.0982141,60
0.415056,-0.18828,-0.097052,63
0.415106,-0.188313,-0.096203,67
0.413596,-0.1874,-0.0949707,70
0.414543,-0.187976,-0.0943446,67
0.413368,-0.187267,-0.0932021,67
0.412248,-0.18659,-0.0920785,72
0.412862,-0.186964,-0.0913714,69
0.411234,-0.185981,-0.0901357,70
0.413389,-0.187288,-0.0897877,58
0.411759,-0.186303,-0.0885584,64
0.410143,-0.185326,-0.0873402,64
0.41052,-0.185557,-0.08658,69
0.408688,-0.184449,-0.0853242,66
0.409155,-0.184735,-0.0845863,62
0.406115,-0.182894,-0.0830777,70
0.406622,-0.183204,-0.0823531,75
0.406226,-0.182966,-0.0814325,76
0.405291,-0.182402,-0.0803996,78
0.40661,-0.183203,-0.0798455,82
0.405764,-0.182693,-0.0788353,85
0.405957,-0.182812,-0.0780431,80
0.404712,-0.18206,-0.0769577,85
0.405039,-0.182261,-0.076195,81
0.404293,-0.18181,-0.0752172,88
0.405967,-0.182827,-0.0747201,91
0.403254,-0.181185,-0.0733612,90
0.403225,-0.18117,-0.0725318,90
0.401959,-0.180405,-0.0714672,92
0.401667,-0.18023,-0.0705921,81
0.401948,-0.180403,-0.0698251,87
0.402362,-0.180656,-0.0690818,87
0.402071,-0.180482,-0.068209,87
0.402178,-0.180548,-0.0674091,86
0.402285,-0.180615,-0.0666092,92
0.401996,-0.180442,-0.0657398,91
0.402103,-0.18051,-0.0649407,100
0.402785,-0.180925,-0.0642395,95
0.402585,-0.180806,-0.063387,98
0.402121,-0.180527,-0.0624918,96
0.401747,-0.180302,-0.0616138,98
0.401374,-0.180078,-0.0607379,95
0.402363,-0.18068,-0.0600816,103
0.403181,-0.181178,-0.0593943,99
0.403072,-0.181114,-0.0585596,105
0.40261,-0.180836,-0.0576718,110
0.402899,-0.181014,-0.0568997,119
0.402747,-0.180924,-0.056061,110
0.404013,-0.181693,-0.055431,112
0.403063,-0.18112,-0.054476,108
0.404421,-0.181944,-0.0538535,114
0.40387,-0.181613,-0.0529581,113
0.403453,-0.181362,-0.052084,111
0.405306,-0.182487,-0.0515197,113
0.405066,-0.182344,-0.0506684,118
0.405542,-0.182635,-0.0499124,115
0.405795,-0.18279,-0.0491258,106
0.405825,-0.182811,-0.04831,117
0.405631,-0.182695,-0.0474665,119
0.40638,-0.183151,-0.0467395,121
0.406231,-0.183064,-0.0459016,115
0.406353,-0.183139,-0.0450965,113
0.407377,-0.183762,-0.0443958,116
0.407139,-0.18362,-0.0435471,116
0.407082,-0.183588,-0.04272,121
0.40793,-0.184104,-0.0419925,123
0.407738,-0.183989,-0.0411498,136
0.407818,-0.18404,-0.0403369,129
0.408171,-0.184256,-0.0395519,133
0.40857,-0.1845,-0.0387703,135
0.409472,-0.18505,-0.0380367,143
0.41015,-0.185462,-0.0372778,142
0.409913,-0.185321,-0.0364299,142
0.409997,-0.185374,-0.0356127,136
0.410586,-0.185733,-0.0348409,139
0.411131,-0.186066,-0.0340628,139
0.411033,-0.186009,-0.0332274,145
0.410568,-0.185729,-0.0323621,137
0.411345,-0.186203,-0.0315998,134
0.412172,-0.186706,-0.0308384,133
0.412771,-0.187071,-0.0300559,139
0.412768,-0.187071,-0.029226,142
0.412811,-0.1871,-0.0283996,151
0.413134,-0.187298,-0.0275929,148
0.414533,-0.188148,-0.0268584,143
0.41355,-0.187555,-0.0259605,142
0.41425,-0.187981,-0.0251746,153
0.415141,-0.188523,-0.0243976,146
0.415706,-0.188868,-0.0235975,144
0.415848,-0.188957,-0.0227707,141
0.416322,-0.189246,-0.0219618,141
0.41675,-0.189508,-0.0211485,135
0.417227,-0.189799,-0.0203359,140
0.417563,-0.190005,-0.0195145,141
0.418234,-0.190414,-0.0187074,144
0.418477,-0.190564,-0.0178784,150
0.418769,-0.190743,-0.0170505,154
0.418296,-0.190458,-0.0161908,146
0.41878,-0.190754,-0.0153695,144
0.418786,-0.19076,-0.0145291,145
0.419225,-0.191028,-0.0137033,144
0.419041,-0.190919,-0.012856,141
0.419241,-0.191042,-0.0120209,138
0.419105,-0.190962,-0.0111758,138
0.420752,-0.191963,-0.0103759,141
0.420617,-0.191884,-0.00952828,146
0.420001,-0.191512,-0.00867134,153
0.420301,-0.191696,-0.00783404,150
0.419494,-0.191209,-0.00697741,147
0.419699,-0.191336,-0.00613861,152
0.421015,-0.192136,-0.00531226,158
0.421125,-0.192205,-0.00446839,156
0.421334,-0.192334,-0.00362481,158
0.421057,-0.192168,-0.00277768,143
0.420734,-0.191974,-0.00193159,139
0.421283,-0.192309,-0.0010879,136
0.42067,-0.19194,-0.00024301,143
0.41953,-0.191251,0.000597563,142
0.42027,-0.191702,0.00144327,137
0.418798,-0.190811,0.00227558,136
0.418912,-0.190883,0.0031169,140
0.418788,-0.19081,0.00395592,130
0.418855,-0.190853,0.00479712,140
0.417777,-0.190201,0.00562013,138
0.417941,-0.190303,0.00646129,144
0.417011,-0.189741,0.00728079,142
0.416748,-0.189584,0.00811144,147
0.41625,-0.189284,0.00893517,139
0.415613,-0.188899,0.00975303,142
0.415071,-0.188573,0.010571,139
0.414861,-0.188448,0.0113971,137
0.414463,-0.188209,0.0122161,140
0.412809,-0.187208,0.0129886,149
0.412139,-0.186804,0.0137913,148
0.411841,-0.186625,0.0146061,151
0.412654,-0.187121,0.0154664,150
0.41033,-0.185713,0.0161914,146
0.409807,-0.185398,0.0169902,144
0.410109,-0.185583,0.0178269,149
0.40886,-0.184828,0.0185862,151
0.408888,-0.184847,0.0194079,154
0.408735,-0.184756,0.0202199,149
0.408673,-0.184721,0.0210365,151
0.408294,-0.184493,0.0218342,142
0.407239,-0.183855,0.0225887,147
0.406415,-0.183357,0.0233534,140
0.407707,-0.184144,0.0242544,147
0.407377,-0.183946,0.0250506,147
0.406329,-0.183312,0.0257951,146
0.406676,-0.183525,0.0266362,145
0.40617,-0.18322,0.0274154,150
0.405711,-0.182943,0.0281961,148
0.404851,-0.182424,0.0289434,154
0.405779,-0.182989,0.0298322,146
0.406711,-0.183557,0.0307256,138
0.405536,-0.182846,0.031443,132
0.405482,-0.182815,0.0322538,136
0.404983,-0.182514,0.0330246,140
0.406452,-0.183408,0.0339746,138
0.40519,-0.182645,0.0346739,139
0.404782,-0.182399,0.0354501,139
0.404508,-0.182235,0.0362381,133
0.405171,-0.18264,0.0371195,135
0.404453,-0.182206,0.0378618,137
0.404626,-0.182313,0.0386949,127
0.403866,-0.181854,0.0394289,130
0.404662,-0.182339,0.0403302,139
0.40377,-0.1818,0.0410466,139
0.403988,-0.181935,0.0418859,146
0.404519,-0.182259,0.0427627,144
0.404696,-0.182368,0.0436001,140
0.405275,-0.182722,0.0444869,137
0.404827,-0.182453,0.0452508,144
0.404961,-0.182536,0.0460855,143
0.405006,-0.182565,0.0469098,149
0.405722,-0.183002,0.0478213,144
0.405768,-0.183032,0.0486482,143
0.406985,-0.183773,0.0496318,137
0.405907,-0.183121,0.0503097,139
0.406945,-0.183753,0.051275,129
0.406678,-0.183593,0.0520622,130
0.407224,-0.183926,0.0529643,131
0.407002,-0.183794,0.0537582,134
0.407098,-0.183854,0.054598,130
0.407058,-0.183832,0.0554183,127
0.408016,-0.184416,0.0563895,122
0.407025,-0.183816,0.0570667,116
0.40649,-0.183494,0.0578107,117
0.407628,-0.184187,0.0588164,121
0.407954,-0.184387,0.0596976,124
0.408008,-0.184422,0.0605366,133
0.408382,-0.184651,0.0614286,137
0.408528,-0.184742,0.0622849,137
0.408584,-0.184778,0.0631269,137
0.40864,-0.184814,0.0639695,136
0.408697,-0.184851,0.064813,133
0.408435,-0.184694,0.0656011,131
0.409179,-0.185148,0.0665669,125
0.408917,-0.184991,0.0673558,126
0.409251,-0.185196,0.0682522,126
0.410092,-0.185708,0.0692438,124
0.409279,-0.185217,0.0699316,130
0.409845,-0.185563,0.070876,125
0.409676,-0.185463,0.0716832,123
0.411773,-0.186738,0.0729271,124
0.41207,-0.18692,0.0738294,119
0.410972,-0.186256,0.0744585,122
0.41164,-0.186664,0.0754353,128
0.413152,-0.187584,0.0765859,130
0.413031,-0.187512,0.0774104,128
0.413473,-0.187783,0.0783511,135
0.413399,-0.187741,0.0791866,136
0.413139,-0.187585,0.0799829,146
0.412973,-0.187486,0.0807986,150
0.413276,-0.187672,0.081715,148
0.413769,-0.187974,0.0826744,144
0.414122,-0.18819,0.0836058,146
0.414476,-0.188408,0.0845395,143
0.414406,-0.188367,0.0853802,147
0.414478,-0.188413,0.0862532,155
0.414598,-0.188488,0.087138,153
0.415383,-0.188967,0.0881772,151
0.4156,-0.189101,0.0890882,148
0.415436,-0.189004,0.0899112,140
0.415845,-0.189255,0.0908698,136
0.416207,-0.189477,0.0918196,134
0.416619,-0.189729,0.0927834,134
0.415788,-0.189227,0.0934464,138
0.416009,-0.189363,0.0943652,137
0.41647,-0.189645,0.0953452,129
0.41607,-0.189405,0.096112,127
0.41591,-0.18931,0.0969382,120
0.416086,-0.189419,0.0978498,120
0.415211,-0.18889,0.0984924,130
0.415434,-0.189028,0.0994167,128
0.415993,-0.189369,0.10043,130
0.41617,-0.189479,0.101347,125
0.416109,-0.189444,0.1022,127
0.416096,-0.189439,0.103068,125
0.416275,-0.18955,0.103987,132
0.416503,-0.18969,0.104922,137
0.416011,-0.189395,0.10566,143
0.416048,-0.189419,0.106543,143
0.415607,-0.189153,0.107292,149
0.41574,-0.189237,0.108203,151
0.415874,-0.18932,0.109115,146
0.415625,-0.189171,0.109919,141
0.415281,-0.188965,0.110694,142
0.41451,-0.188499,0.111344,142
0.4136,-0.187948,0.11195,141
0.413734,-0.188032,0.112862,139
0.412733,-0.187427,0.113437,142
0.412113,-0.187053,0.114122,138
0.412107,-0.187051,0.11499,139
0.411818,-0.186878,0.115774,130
0.410641,-0.186165,0.116283,131
0.410728,-0.186221,0.117179,126
0.409976,-0.185767,0.117815,127
0.408903,-0.185117,0.118347,131
0.408852,-0.185088,0.119198,136
0.408477,-0.184863,0.119946,134
0.407596,-0.18433,0.120531,130
0.406674,-0.183772,0.121099,129
0.406807,-0.183856,0.122007,130
0.406071,-0.183411,0.122631,131
0.405521,-0.183079,0.123314,131
0.405199,-0.182886,0.124071,130
0.405242,-0.182914,0.124949,129
