ply
format ascii 1.0
comment Created by CloudCompare v2.11 alpha (Anoia)
comment Created 2025/12/9 18:27
obj_info Generated by CloudCompare!
element vertex 1435
property float x
property float y
property float z
property float scalar_Scalar_field
end_header
0.426006 0.0653615 -0.406636 8 
0.434929 0.0655882 -0.409248 8 
0.424022 0.0653066 -0.404066 11 
0.429736 0.065451 -0.405398 11 
0.431175 0.0654858 -0.405053 11 
0.426163 0.0653554 -0.402218 10 
0.429907 0.0654493 -0.402759 12 
0.425194 0.0653266 -0.400063 11 
0.42623 0.0653511 -0.399565 13 
0.428131 0.0653977 -0.399391 11 
0.422568 0.0652533 -0.39641 13 
0.431489 0.0654796 -0.398855 11 
0.427824 0.0653838 -0.396596 13 
0.430444 0.0654488 -0.396671 15 
0.422615 0.0652466 -0.392903 17 
0.426398 0.0653413 -0.393404 18 
0.427064 0.0653564 -0.392759 16 
0.430216 0.0654349 -0.39301 14 
0.429321 0.06541 -0.391796 17 
0.429942 0.0654239 -0.391128 22 
0.427865 0.0653688 -0.389501 20 
0.4307 0.0654392 -0.389616 22 
0.432527 0.0654839 -0.389366 18 
0.43108 0.0654449 -0.387968 21 
0.426852 0.065335 -0.385612 24 
0.430105 0.065416 -0.385853 21 
0.431926 0.0654605 -0.385592 20 
0.430975 0.0654342 -0.384378 29 
0.431711 0.065451 -0.383742 23 
0.431142 0.0654345 -0.382663 28 
0.433795 0.0655001 -0.382666 26 
0.430444 0.0654127 -0.38066 30 
0.433745 0.0654949 -0.38087 28 
0.432462 0.0654602 -0.37956 30 
0.434247 0.0655036 -0.379258 27 
0.43084 0.0654148 -0.377263 26 
0.435027 0.0655195 -0.377735 27 
0.430797 0.0654097 -0.375489 31 
0.433005 0.065464 -0.375315 28 
0.434134 0.0654908 -0.37479 28 
0.434277 0.0654924 -0.373951 32 
0.434972 0.0655081 -0.373285 32 
0.432704 0.0654484 -0.371695 25 
0.433613 0.0654695 -0.371097 26 
0.436291 0.0655357 -0.371039 22 
0.434013 0.0654757 -0.369459 25 
0.437362 0.0655589 -0.369595 29 
0.436898 0.0655451 -0.368569 33 
0.434069 0.0654712 -0.366838 34 
0.43664 0.0655346 -0.366725 38 
0.437677 0.0655589 -0.366149 37 
0.438216 0.0655706 -0.365424 39 
0.439485 0.0656009 -0.36491 37 
0.44189 0.06566 -0.364721 36 
0.439171 0.0655889 -0.363049 36 
0.439379 0.0655922 -0.362224 39 
0.438693 0.0655728 -0.361146 32 
0.439068 0.0655803 -0.36037 37 
0.440905 0.065625 -0.360003 31 
0.440947 0.065624 -0.359129 36 
0.43925 0.065579 -0.357777 34 
0.439964 0.0655951 -0.357093 32 
0.441244 0.0656256 -0.35656 33 
0.4405 0.0656047 -0.355476 38 
0.440713 0.0656081 -0.354652 36 
0.443643 0.0656804 -0.354552 37 
0.444201 0.0656925 -0.353814 43 
0.441299 0.065617 -0.352167 47 
0.443325 0.0656663 -0.351814 43 
0.443997 0.0656814 -0.351105 46 
0.443646 0.0656705 -0.350131 47 
0.445234 0.0657087 -0.349653 44 
0.446661 0.0657428 -0.349129 46 
0.445045 0.0656999 -0.347837 45 
0.444695 0.0656891 -0.346866 47 
0.446348 0.0657289 -0.346392 46 
0.446341 0.0657268 -0.345506 45 
0.448297 0.0657742 -0.345097 48 
0.44858 0.0657794 -0.344278 50 
0.447302 0.0657451 -0.343085 49 
0.448917 0.0657839 -0.342584 50 
0.446601 0.0657234 -0.341152 50 
0.448154 0.0657606 -0.340633 53 
0.448904 0.0657776 -0.339922 59 
0.448843 0.065774 -0.339023 55 
0.44884 0.065772 -0.338138 56 
0.449768 0.0657934 -0.337464 61 
0.450233 0.0658031 -0.336683 63 
0.450173 0.0657996 -0.335784 63 
0.449882 0.0657903 -0.334835 62 
0.450932 0.0658148 -0.334181 60 
0.451108 0.0658172 -0.333334 64 
0.451753 0.0658315 -0.332587 64 
0.450994 0.0658104 -0.33154 71 
0.452815 0.0658543 -0.33104 76 
0.452641 0.0658479 -0.330117 74 
0.452939 0.0658534 -0.329293 71 
0.45212 0.0658308 -0.328239 72 
0.45189 0.065823 -0.327309 74 
0.452953 0.0658478 -0.32664 72 
0.453607 0.0658623 -0.325886 69 
0.453791 0.0658649 -0.325037 71 
0.452796 0.0658378 -0.323957 71 
0.453569 0.0658553 -0.323224 66 
0.453282 0.0658461 -0.322286 66 
0.454828 0.065883 -0.321697 65 
0.453419 0.0658456 -0.320547 68 
0.454137 0.0658617 -0.319799 71 
0.454444 0.0658674 -0.318972 78 
0.452922 0.0658271 -0.317812 70 
0.453699 0.0658447 -0.317073 75 
0.453358 0.0658341 -0.316131 74 
0.454256 0.0658547 -0.31541 72 
0.454034 0.0658471 -0.314491 74 
0.454521 0.0658574 -0.313695 72 
0.453534 0.0658306 -0.312646 78 
0.453373 0.0658246 -0.311741 77 
0.453684 0.0658304 -0.310916 77 
0.453701 0.0658288 -0.310041 79 
0.453955 0.0658332 -0.309205 82 
0.453856 0.0658288 -0.308312 78 
0.453757 0.0658243 -0.30742 83 
0.454366 0.0658376 -0.30664 79 
0.454682 0.0658436 -0.305812 82 
0.452586 0.065789 -0.304613 76 
0.454253 0.0658289 -0.303994 79 
0.453687 0.0658127 -0.303033 79 
0.452361 0.0657774 -0.301963 83 
0.452736 0.0657849 -0.301147 82 
0.451884 0.0657616 -0.300153 93 
0.453666 0.0658043 -0.299537 93 
0.452286 0.0657677 -0.298471 93 
0.45202 0.0657591 -0.297565 97 
0.452106 0.0657593 -0.296708 97 
0.451784 0.0657492 -0.295796 100 
0.451289 0.0657349 -0.294863 96 
0.450043 0.0657017 -0.293833 99 
0.449842 0.0656947 -0.292944 102 
0.448835 0.0656676 -0.291953 104 
0.448579 0.0656592 -0.29106 110 
0.448611 0.0656581 -0.290204 107 
0.448643 0.065657 -0.289348 109 
0.44776 0.0656329 -0.288383 108 
0.447793 0.0656318 -0.28753 105 
0.448573 0.0656494 -0.286763 103 
0.448723 0.0656512 -0.285922 102 
0.446872 0.065603 -0.284856 104 
0.445432 0.065565 -0.283842 114 
0.446149 0.0655811 -0.283069 112 
0.444941 0.0655489 -0.282087 109 
0.445489 0.0655607 -0.281295 108 
0.44485 0.0655428 -0.280378 113 
0.445907 0.0655673 -0.279636 111 
0.444929 0.065541 -0.278687 116 
0.445422 0.0655514 -0.277886 113 
0.444561 0.0655279 -0.276954 115 
0.444829 0.0655327 -0.276132 110 
0.445493 0.0655474 -0.275345 122 
0.446614 0.0655734 -0.274596 124 
0.444847 0.0655274 -0.27359 125 
0.44523 0.0655351 -0.272775 123 
0.446125 0.0655555 -0.272003 120 
0.445831 0.0655462 -0.271129 122 
0.446218 0.065554 -0.270312 119 
0.445756 0.0655405 -0.269426 120 
0.44711 0.0655724 -0.268683 127 
0.445797 0.0655377 -0.267734 126 
0.446186 0.0655455 -0.266914 131 
0.446748 0.0655576 -0.266106 128 
0.446061 0.0655386 -0.265209 134 
0.446283 0.0655422 -0.264377 132 
0.446733 0.0655515 -0.263558 129 
0.446843 0.0655523 -0.262717 129 
0.446783 0.0655489 -0.261864 131 
0.446667 0.0655441 -0.261009 135 
0.447576 0.0655648 -0.260214 133 
0.447575 0.0655628 -0.259364 131 
0.447461 0.0655581 -0.258509 137 
0.448948 0.0655931 -0.257738 132 
0.448662 0.0655841 -0.256872 133 
0.448951 0.0655894 -0.256035 130 
0.449068 0.0655903 -0.255189 132 
0.450972 0.0656357 -0.254424 133 
0.449247 0.065591 -0.253494 139 
0.449999 0.0656077 -0.252674 139 
0.450235 0.0656117 -0.25183 137 
0.450529 0.065617 -0.250988 142 
0.44996 0.065601 -0.250114 151 
0.450313 0.0656078 -0.249273 145 
0.450552 0.0656118 -0.248428 149 
0.450792 0.0656158 -0.247582 148 
0.451727 0.0656371 -0.246755 153 
0.451796 0.0656369 -0.245901 143 
0.452504 0.0656525 -0.245063 143 
0.452516 0.0656509 -0.244207 147 
0.452878 0.0656579 -0.243357 145 
0.452542 0.0656477 -0.242493 140 
0.454133 0.0656852 -0.241665 148 
0.453679 0.065672 -0.240798 149 
0.453987 0.0656777 -0.239943 151 
0.453652 0.0656674 -0.23908 142 
0.455136 0.0657023 -0.238237 146 
0.454624 0.0656876 -0.237371 142 
0.454819 0.0656905 -0.236512 142 
0.455722 0.0657109 -0.235655 131 
0.456392 0.0657256 -0.234794 133 
0.455881 0.065711 -0.23393 133 
0.455666 0.0657037 -0.233068 139 
0.456575 0.0657242 -0.232203 136 
0.457132 0.0657361 -0.231336 131 
0.457512 0.0657435 -0.230469 123 
0.45718 0.0657334 -0.229605 122 
0.457741 0.0657453 -0.228735 125 
0.458483 0.0657616 -0.227859 132 
0.458569 0.0657618 -0.22699 131 
0.458836 0.0657665 -0.226118 130 
0.458745 0.0657623 -0.225251 127 
0.459313 0.0657743 -0.224372 129 
0.459343 0.0657731 -0.223502 120 
0.460396 0.0657971 -0.222608 113 
0.460729 0.0658034 -0.221728 116 
0.461184 0.0658127 -0.220843 120 
0.460855 0.0658026 -0.219979 122 
0.461191 0.0658089 -0.219096 127 
0.461045 0.0658033 -0.218228 128 
0.461928 0.0658231 -0.217324 126 
0.462026 0.0658236 -0.216446 120 
0.461034 0.0657971 -0.215608 116 
0.460528 0.0657827 -0.214755 109 
0.462565 0.0658309 -0.213797 108 
0.461392 0.0658 -0.212972 110 
0.461917 0.065811 -0.212073 120 
0.46105 0.0657877 -0.211239 121 
0.461455 0.0657957 -0.210344 123 
0.461376 0.0657918 -0.209473 120 
0.461844 0.0658013 -0.208574 117 
0.462495 0.0658154 -0.207662 122 
0.462115 0.065804 -0.206806 130 
0.461736 0.0657927 -0.205951 133 
0.461783 0.0657919 -0.205072 133 
0.462012 0.0657955 -0.204181 137 
0.461757 0.0657873 -0.20332 146 
0.462717 0.0658089 -0.20238 141 
0.462341 0.0657977 -0.201527 137 
0.46142 0.0657731 -0.200712 137 
0.461593 0.0657753 -0.199823 136 
0.461341 0.0657672 -0.198964 131 
0.461091 0.065759 -0.198106 139 
0.461447 0.0657658 -0.197201 137 
0.460051 0.0657295 -0.196434 144 
0.460105 0.0657289 -0.195554 147 
0.460281 0.0657312 -0.194664 142 
0.459494 0.0657099 -0.193854 137 
0.459972 0.0657197 -0.192938 143 
0.458527 0.0656822 -0.192189 139 
0.458345 0.0656758 -0.191332 141 
0.458164 0.0656694 -0.190475 142 
0.458882 0.065685 -0.189534 143 
0.457805 0.0656566 -0.188762 147 
0.459243 0.0656899 -0.187748 145 
0.457867 0.0656542 -0.187009 150 
0.458647 0.0656713 -0.186056 149 
0.457991 0.0656533 -0.185248 145 
0.458294 0.0656587 -0.184341 148 
0.458597 0.0656642 -0.183433 146 
0.458183 0.0656521 -0.182602 137 
0.457711 0.0656385 -0.181778 136 
0.456525 0.0656075 -0.181036 145 
0.45677 0.0656115 -0.180134 141 
0.457672 0.0656316 -0.179155 134 
0.455362 0.0655731 -0.178551 132 
0.456498 0.0655989 -0.177543 136 
0.45627 0.0655914 -0.176696 136 
0.455628 0.0655737 -0.175901 136 
0.456648 0.0655967 -0.174899 130 
0.456244 0.0655848 -0.174074 128 
0.456078 0.0655788 -0.17322 128 
0.456686 0.0655917 -0.172265 121 
0.456641 0.0655886 -0.171394 121 
0.455764 0.0655652 -0.170635 118 
0.455898 0.0655665 -0.16974 126 
0.455143 0.0655461 -0.168968 133 
0.454451 0.0655272 -0.16819 136 
0.454704 0.0655314 -0.167279 137 
0.454132 0.0655154 -0.166486 137 
0.454681 0.0655269 -0.165531 133 
0.453463 0.0654951 -0.164835 130 
0.454071 0.065508 -0.163869 129 
0.453856 0.0655008 -0.163026 129 
0.452995 0.0654778 -0.162282 129 
0.453193 0.0654806 -0.161377 126 
0.453921 0.0654964 -0.160386 119 
0.452885 0.0654692 -0.159674 118 
0.453674 0.0654864 -0.158671 118 
0.452992 0.0654678 -0.157905 117 
0.453546 0.0654794 -0.156936 118 
0.454813 0.0655083 -0.155847 119 
0.45213 0.0654409 -0.155418 121 
0.453803 0.0654797 -0.154256 122 
0.451892 0.0654311 -0.153706 126 
0.452976 0.0654556 -0.15264 131 
0.452652 0.0654457 -0.151818 135 
0.452212 0.065433 -0.151017 140 
0.452359 0.0654346 -0.150111 147 
0.452507 0.0654362 -0.149204 150 
0.452128 0.065425 -0.148394 151 
0.452747 0.0654381 -0.147398 150 
0.452369 0.0654269 -0.146588 150 
0.451992 0.0654157 -0.145778 150 
0.451557 0.0654031 -0.144979 156 
0.451065 0.0653892 -0.144194 156 
0.451802 0.0654051 -0.143169 154 
0.452014 0.0654083 -0.142244 149 
0.45252 0.0654186 -0.14126 151 
0.452322 0.0654118 -0.140415 144 
0.452067 0.0654036 -0.139582 143 
0.452634 0.0654154 -0.13858 135 
0.451381 0.0653829 -0.137953 138 
0.451479 0.0653833 -0.137047 138 
0.450817 0.0653653 -0.136301 136 
0.451854 0.0653884 -0.135196 133 
0.451016 0.0653661 -0.134488 123 
0.450531 0.0653523 -0.133707 130 
0.451863 0.0653826 -0.13253 124 
0.452142 0.0653874 -0.131579 122 
0.451715 0.065375 -0.130784 119 
0.452054 0.0653812 -0.129818 114 
0.452748 0.065396 -0.12877 114 
0.452558 0.0653894 -0.12792 112 
0.451956 0.0653728 -0.127165 116 
0.452121 0.0653748 -0.126235 119 
0.453529 0.0654069 -0.125012 120 
0.453104 0.0653946 -0.124215 128 
0.452385 0.0653751 -0.123489 132 
0.453381 0.0653972 -0.122355 129 
0.454324 0.065418 -0.121229 126 
0.454018 0.0654086 -0.120402 127 
0.454071 0.0654078 -0.119488 123 
0.454302 0.0654114 -0.11853 118 
0.454118 0.0654049 -0.117673 113 
0.45447 0.0654114 -0.116681 117 
0.454585 0.0654121 -0.115748 112 
0.45488 0.0654172 -0.114768 112 
0.455535 0.065431 -0.113693 111 
0.455652 0.0654318 -0.112755 110 
0.456311 0.0654456 -0.111673 101 
0.45619 0.0654406 -0.110794 101 
0.45637 0.0654429 -0.109835 103 
0.456913 0.065454 -0.108778 97 
0.457276 0.0654607 -0.107766 102 
0.457217 0.0654572 -0.106867 101 
0.456675 0.065442 -0.106098 96 
0.457342 0.0654561 -0.104999 95 
0.456982 0.0654453 -0.104181 93 
0.457288 0.0654506 -0.103178 90 
0.459118 0.0654927 -0.101746 92 
0.458452 0.0654745 -0.101011 96 
0.458397 0.0654711 -0.100104 95 
0.459013 0.0654839 -0.0990042 97 
0.459816 0.0655011 -0.0978472 91 
0.459824 0.0654992 -0.0969172 90 
0.459219 0.0654826 -0.0961662 94 
0.461133 0.0655266 -0.0946752 94 
0.462009 0.0655456 -0.0934832 89 
0.462516 0.0655557 -0.0923972 94 
0.464211 0.0655944 -0.0909522 100 
0.462851 0.0655595 -0.0904232 103 
0.462739 0.0655547 -0.0895182 92 
0.465633 0.0656222 -0.0876931 89 
0.464453 0.0655917 -0.0871112 87 
0.465411 0.0656126 -0.0858702 92 
0.466247 0.0656306 -0.0846622 88 
0.467851 0.065667 -0.0832101 89 
0.467805 0.0656637 -0.0822712 86 
0.468014 0.0656666 -0.0812512 90 
0.46944 0.0656987 -0.0798391 84 
0.468053 0.0656632 -0.0793282 86 
0.469417 0.0656938 -0.0779292 77 
0.469888 0.0657029 -0.0768161 79 
0.470942 0.0657261 -0.0755082 75 
0.470062 0.0657028 -0.0748342 72 
0.472091 0.0657493 -0.0731962 70 
0.47231 0.0657524 -0.0721542 76 
0.472987 0.0657664 -0.0709572 77 
0.473013 0.0657648 -0.0699762 83 
0.473825 0.0657821 -0.0687272 77 
0.474115 0.0657869 -0.0676532 79 
0.474406 0.0657916 -0.0665762 73 
0.476946 0.0658503 -0.0647181 74 
0.47851 0.0658856 -0.0631902 79 
0.478542 0.0658841 -0.0621902 79 
0.476907 0.0658427 -0.0617772 77 
0.478607 0.0658812 -0.0601882 76 
0.479312 0.0658958 -0.0589462 73 
0.479548 0.0658992 -0.0578692 73 
0.479853 0.0659043 -0.0567641 73 
0.480293 0.0659126 -0.0556092 79 
0.48216 0.065955 -0.0539312 82 
0.482744 0.0659667 -0.0527142 85 
0.481082 0.0659247 -0.0523222 84 
0.48214 0.0659477 -0.0509282 80 
0.484164 0.0659938 -0.0491692 80 
0.483862 0.0659843 -0.0482722 76 
0.483492 0.0659732 -0.0474012 80 
0.482781 0.0659539 -0.0466601 76 
0.484402 0.0659904 -0.0450331 78 
0.483895 0.065976 -0.0442122 74 
0.484146 0.0659797 -0.0431022 67 
0.484328 0.0659817 -0.0420152 68 
0.484167 0.0659756 -0.0410612 67 
0.483662 0.0659613 -0.0402412 72 
0.482816 0.0659388 -0.0395562 68 
0.481018 0.0658936 -0.0392502 73 
0.483184 0.065943 -0.0373762 70 
0.482203 0.0659173 -0.0367481 69 
0.481089 0.0658884 -0.0361762 61 
0.48182 0.0659035 -0.0348651 57 
0.482828 0.0659252 -0.0334372 60 
0.481644 0.0658947 -0.0328972 59 
0.478365 0.0658143 -0.0332182 59 
0.477402 0.0657891 -0.0325992 56 
0.479138 0.0658281 -0.0308672 55 
0.478782 0.0658174 -0.0299971 63 
0.478629 0.0658114 -0.0290421 63 
0.478409 0.0658039 -0.0281141 64 
0.477179 0.0657723 -0.0276132 65 
0.477297 0.0657728 -0.0265442 69 
0.477821 0.065783 -0.0253022 70 
0.475721 0.0657307 -0.0251782 72 
0.477724 0.065776 -0.0232992 72 
0.475558 0.0657222 -0.0232112 73 
0.474808 0.0657021 -0.0225162 67 
0.474393 0.06569 -0.0216772 68 
0.47378 0.0656731 -0.0209262 67 
0.474167 0.06568 -0.0197362 67 
0.474354 0.0656821 -0.0186322 66 
0.472745 0.0656416 -0.0183252 69 
0.473664 0.0656611 -0.0168942 79 
0.470673 0.0655878 -0.0172122 67 
0.470136 0.0655728 -0.0164372 69 
0.470848 0.0655874 -0.0150962 69 
0.299047 0.0597114 -0.381843 7 
0.302842 0.059778 -0.382963 9 
0.331166 0.0602849 -0.39556 7 
0.445029 0.0623269 -0.448206 6 
0.268616 0.0591597 -0.365126 7 
0.440716 0.0622452 -0.444262 9 
0.335969 0.0603644 -0.394862 8 
0.33624 0.0603676 -0.394251 7 
1.211 0.0760526 -0.797184 7 
0.426542 0.0619825 -0.43396 10 
0.621737 0.0654785 -0.522105 8 
1.41134 0.0796255 -0.880915 7 
1.90128 0.0883968 -1.10062 8 
0.425829 0.0619614 -0.429953 11 
0.426218 0.0619663 -0.429209 7 
0.441579 0.0622391 -0.435123 9 
0.42522 0.0619443 -0.426933 8 
0.288393 0.0594957 -0.36602 8 
0.428378 0.0619967 -0.42649 9 
0.391131 0.0613288 -0.409333 6 
0.425326 0.061938 -0.423328 10 
0.401345 0.0615075 -0.412061 7 
0.382261 0.0611647 -0.403007 7 
0.330795 0.060244 -0.380248 9 
0.418275 0.0618039 -0.416688 10 
0.421055 0.0618515 -0.416973 9 
0.423445 0.0618921 -0.417083 14 
0.427258 0.0619581 -0.417782 8 
0.42385 0.0618953 -0.41545 9 
0.421597 0.0618531 -0.413613 10 
0.424256 0.0618984 -0.413817 14 
0.426248 0.0619319 -0.413737 11 
0.429072 0.0619802 -0.41399 9 
0.182079 0.0575819 -0.313689 7 
0.421585 0.0618428 -0.40914 11 
0.42387 0.0618814 -0.40917 10 
0.425164 0.0619024 -0.408794 10 
0.419507 0.0617998 -0.405639 12 
0.425257 0.0619 -0.407038 13 
0.429687 0.0619768 -0.407893 15 
0.427168 0.06193 -0.405999 12 
0.423727 0.0618668 -0.403756 10 
0.426406 0.0619124 -0.403908 12 
0.414268 0.0616947 -0.398317 10 
0.429733 0.0619674 -0.403401 10 
0.424926 0.0618801 -0.40066 9 
0.411234 0.061635 -0.394557 7 
0.425875 0.0618929 -0.399242 8 
0.434754 0.0620484 -0.401699 16 
0.426348 0.0618973 -0.397641 15 
0.424355 0.0618599 -0.396008 13 
0.424221 0.0618555 -0.395075 18 
0.427596 0.0619134 -0.395436 13 
0.427888 0.0619165 -0.394654 16 
0.429096 0.0619359 -0.394206 14 
0.431343 0.0619737 -0.394131 14 
0.434273 0.0620236 -0.394294 19 
0.42982 0.0619427 -0.391796 19 
0.431201 0.0619652 -0.391399 19 
0.431173 0.0619626 -0.390497 19 
0.428821 0.061919 -0.388776 19 
0.43352 0.0620001 -0.38954 17 
0.435256 0.0620288 -0.389251 18 
0.432698 0.0619816 -0.387467 24 
0.431962 0.0619665 -0.386322 23 
0.435338 0.0620242 -0.38659 21 
0.432346 0.0619693 -0.384675 27 
0.431939 0.0619601 -0.383649 27 
0.43224 0.0619634 -0.382864 25 
0.4314 0.0619466 -0.381696 24 
0.432464 0.0619634 -0.381166 28 
0.43485 0.0620035 -0.381071 29 
0.432308 0.0619566 -0.379345 33 
0.431307 0.061937 -0.378134 33 
0.43199 0.061947 -0.377475 34 
0.43619 0.0620191 -0.377949 28 
0.432762 0.0619567 -0.37596 30 
0.434985 0.0619938 -0.375787 31 
0.43321 0.0619606 -0.374339 30 
0.434448 0.0619804 -0.373847 35 
0.436023 0.0620061 -0.373458 31 
0.434407 0.0619757 -0.372069 29 
0.439095 0.0620561 -0.372637 26 
0.43729 0.0620224 -0.371193 24 
0.434787 0.0619764 -0.369542 26 
0.438307 0.0620363 -0.36973 28 
0.436346 0.0619998 -0.368252 30 
0.436992 0.0620092 -0.367564 33 
0.435924 0.0619884 -0.366363 32 
0.436458 0.0619958 -0.365641 34 
0.438493 0.0620295 -0.365358 37 
0.437809 0.0620155 -0.364275 31 
0.439185 0.0620377 -0.363792 40 
0.437666 0.0620091 -0.362472 41 
0.438261 0.0620175 -0.361762 39 
0.439416 0.0620358 -0.361209 35 
0.439401 0.0620335 -0.360323 37 
0.440394 0.0620489 -0.359719 35 
0.44038 0.0620467 -0.358833 29 
0.44228 0.062078 -0.358475 31 
0.442662 0.0620827 -0.357695 32 
0.442366 0.0620755 -0.356729 37 
0.440608 0.0620427 -0.35537 36 
0.442737 0.062078 -0.355061 39 
0.442838 0.0620778 -0.354204 34 
0.442657 0.0620726 -0.353274 39 
0.444519 0.0621032 -0.35288 40 
0.444565 0.062102 -0.352007 43 
0.443588 0.0620829 -0.35087 42 
0.444374 0.0620946 -0.35019 47 
0.445735 0.0621164 -0.349653 47 
0.443675 0.0620784 -0.348248 48 
0.444918 0.0620982 -0.347679 48 
0.445424 0.062105 -0.346923 48 
0.446333 0.0621189 -0.346265 47 
0.446154 0.0621137 -0.345337 46 
0.446205 0.0621126 -0.344466 47 
0.448329 0.0621477 -0.344096 48 
0.446308 0.0621105 -0.342727 56 
0.448607 0.0621485 -0.342391 50 
0.447736 0.0621314 -0.341301 55 
0.448656 0.0621454 -0.340633 57 
0.449464 0.0621575 -0.339936 56 
0.449461 0.0621554 -0.33905 56 
0.450039 0.0621635 -0.338297 56 
0.450678 0.0621726 -0.337556 59 
0.451435 0.0621838 -0.33684 59 
0.450792 0.0621706 -0.33581 58 
0.450675 0.0621665 -0.334899 59 
0.453254 0.0622094 -0.334578 59 
0.452078 0.062187 -0.333435 67 
0.452197 0.062187 -0.332575 64 
0.451087 0.0621657 -0.331453 64 
0.452201 0.0621831 -0.330805 64 
0.451735 0.062173 -0.329823 70 
0.452794 0.0621894 -0.329159 69 
0.451801 0.0621702 -0.328071 63 
0.453038 0.0621896 -0.32744 63 
0.452984 0.0621867 -0.326545 70 
0.454819 0.0622165 -0.326027 66 
0.453879 0.0621982 -0.324955 63 
0.453062 0.0621821 -0.323911 66 
0.453717 0.0621914 -0.323156 68 
0.453843 0.0621916 -0.322297 67 
0.454029 0.0621929 -0.32145 69 
0.453862 0.062188 -0.320536 73 
0.453401 0.062178 -0.319568 73 
0.453471 0.0621772 -0.318701 73 
0.453835 0.0621815 -0.317887 76 
0.453142 0.0621676 -0.316882 79 
0.453096 0.0621648 -0.315995 77 
0.452641 0.0621549 -0.315037 79 
0.452538 0.0621512 -0.314142 78 
0.453667 0.0621687 -0.313461 77 
0.453977 0.0621721 -0.312636 79 
0.45364 0.0621643 -0.311701 82 
0.454127 0.0621707 -0.310906 87 
0.453321 0.0621548 -0.309895 80 
0.453281 0.0621521 -0.309013 82 
0.453299 0.0621505 -0.308141 82 
0.453612 0.0621539 -0.307317 80 
0.45246 0.0621321 -0.306261 82 
0.454064 0.0621578 -0.305638 83 
0.452444 0.0621279 -0.304514 78 
0.452641 0.0621293 -0.303673 84 
0.451964 0.0621156 -0.3027 82 
0.452104 0.0621161 -0.301851 83 
0.451429 0.0621025 -0.300883 88 
0.451803 0.062107 -0.300069 93 
0.451015 0.0620915 -0.299088 96 
0.451389 0.0620959 -0.298274 95 
0.450778 0.0620835 -0.297323 87 
0.450053 0.0620691 -0.296358 96 
0.449217 0.0620527 -0.295382 100 
0.448901 0.0620454 -0.294478 104 
0.44962 0.0620558 -0.293712 104 
0.448903 0.0620415 -0.292757 105 
0.448819 0.0620381 -0.291887 102 
0.448391 0.0620288 -0.290973 107 
0.447908 0.0620186 -0.290055 103 
0.447598 0.0620113 -0.28916 110 
0.446721 0.0619944 -0.288199 109 
0.447152 0.0619998 -0.287395 105 
0.447358 0.0620014 -0.286564 100 
0.446881 0.0619913 -0.285655 104 
0.446576 0.0619842 -0.284766 100 
0.445875 0.0619702 -0.283836 99 
0.445686 0.0619651 -0.282964 101 
0.444821 0.0619483 -0.282021 108 
0.445875 0.0619645 -0.281283 111 
0.44518 0.0619506 -0.28036 111 
0.445558 0.0619552 -0.27955 108 
0.445035 0.0619443 -0.278648 111 
0.444907 0.0619402 -0.277787 106 
0.445907 0.0619554 -0.277035 108 
0.444878 0.0619359 -0.276089 121 
0.444752 0.0619318 -0.275231 129 
0.44457 0.0619268 -0.274368 130 
0.445008 0.0619324 -0.27356 127 
0.445279 0.0619351 -0.272736 125 
0.44493 0.0619272 -0.27186 127 
0.445314 0.0619319 -0.271045 122 
0.445248 0.0619288 -0.270193 126 
0.444958 0.061922 -0.269324 125 
0.445119 0.0619228 -0.268491 130 
0.444942 0.0619179 -0.267632 124 
0.44629 0.061939 -0.266885 123 
0.445775 0.0619283 -0.266001 122 
0.447242 0.0619514 -0.265257 118 
0.447067 0.0619465 -0.264396 117 
0.446949 0.0619425 -0.263539 129 
0.447343 0.0619473 -0.262717 129 
0.44751 0.0619483 -0.261878 134 
0.447679 0.0619492 -0.26104 134 
0.447223 0.0619396 -0.260164 139 
0.447222 0.0619376 -0.259316 139 
0.447335 0.0619376 -0.258474 136 
0.44819 0.0619503 -0.257672 137 
0.448476 0.0619532 -0.256837 133 
0.448649 0.0619542 -0.255996 127 
0.449798 0.0619718 -0.2552 130 
0.448941 0.0619554 -0.254309 131 
0.449059 0.0619555 -0.253464 140 
0.449522 0.0619614 -0.252633 141 
0.450044 0.0619683 -0.251803 149 
0.449993 0.0619655 -0.250949 144 
0.450863 0.0619784 -0.250128 146 
0.45064 0.0619727 -0.249267 147 
0.450648 0.0619709 -0.248415 146 
0.45083 0.0619721 -0.247568 147 
0.450436 0.0619635 -0.246703 147 
0.450965 0.0619705 -0.245865 142 
0.451785 0.0619825 -0.245033 141 
0.452203 0.0619876 -0.244188 141 
0.452738 0.0619947 -0.243344 143 
0.452867 0.061995 -0.24249 146 
0.452358 0.0619845 -0.241625 151 
0.453245 0.0619975 -0.240783 153 
0.453903 0.0620067 -0.239935 156 
0.454211 0.06201 -0.239081 151 
0.453702 0.0619995 -0.238217 147 
0.454714 0.0620146 -0.237367 144 
0.455555 0.0620269 -0.236513 141 
0.454576 0.0620084 -0.235647 134 
0.454596 0.0620068 -0.234788 133 
0.455909 0.0620271 -0.23393 137 
0.455577 0.0620195 -0.233068 139 
0.455541 0.0620169 -0.232207 133 
0.456862 0.0620373 -0.23134 132 
0.457123 0.0620398 -0.230474 128 
0.457147 0.0620382 -0.22961 130 
0.457588 0.0620437 -0.228741 127 
0.457673 0.0620432 -0.227875 129 
0.457819 0.0620437 -0.227008 131 
0.458859 0.0620593 -0.226126 128 
0.458947 0.0620588 -0.225257 123 
0.459036 0.0620583 -0.224387 130 
0.459545 0.0620649 -0.223508 122 
0.460055 0.0620716 -0.222627 123 
0.460447 0.0620762 -0.221747 121 
0.461022 0.0620839 -0.220861 118 
0.461055 0.0620825 -0.219988 117 
0.461995 0.0620964 -0.219087 121 
0.460823 0.0620747 -0.218251 122 
0.461945 0.0620916 -0.217341 130 
0.461196 0.062077 -0.216494 124 
0.460871 0.0620696 -0.215633 116 
0.461573 0.0620794 -0.214733 119 
0.461068 0.062069 -0.21388 119 
0.460265 0.0620535 -0.213042 119 
0.463026 0.0620979 -0.212046 122 
0.461189 0.0620651 -0.211256 121 
0.462441 0.0620841 -0.210321 122 
0.461635 0.0620686 -0.209486 125 
0.461679 0.0620674 -0.208609 129 
0.462389 0.0620773 -0.207695 124 
0.462252 0.062073 -0.206827 136 
0.462298 0.0620718 -0.205948 132 
0.461678 0.0620595 -0.205108 138 
0.462028 0.0620633 -0.204211 133 
0.461834 0.0620581 -0.203347 139 
0.46261 0.0620691 -0.20242 142 
0.461932 0.0620558 -0.201588 140 
0.461982 0.0620547 -0.200708 141 
0.463127 0.0620718 -0.199749 143 
0.461843 0.0620484 -0.198964 132 
0.461532 0.0620412 -0.19811 135 
0.46207 0.0620482 -0.197192 136 
0.461942 0.0620441 -0.196324 136 
0.46121 0.0620299 -0.195505 136 
0.460601 0.0620177 -0.194679 138 
0.460959 0.0620217 -0.193773 133 
0.460834 0.0620177 -0.192907 136 
0.460289 0.0620066 -0.192078 138 
0.460648 0.0620106 -0.19117 137 
0.459084 0.0619825 -0.190436 133 
0.459923 0.0619945 -0.189483 140 
0.460044 0.0619946 -0.188596 140 
0.458964 0.0619746 -0.187824 141 
0.458546 0.0619657 -0.186991 146 
0.458907 0.0619697 -0.18608 144 
0.458491 0.0619608 -0.185248 142 
0.458017 0.0619509 -0.184423 147 
0.458439 0.061956 -0.183503 141 
0.458205 0.0619501 -0.182654 146 
0.457912 0.0619433 -0.181811 144 
0.457204 0.0619295 -0.181016 139 
0.459002 0.0619574 -0.179936 139 
0.457874 0.0619367 -0.17919 136 
0.457584 0.0619299 -0.178348 136 
0.457832 0.061932 -0.177443 132 
0.456295 0.0619045 -0.176754 130 
0.457196 0.0619175 -0.175769 134 
0.456494 0.0619039 -0.174981 140 
0.456566 0.0619031 -0.174097 138 
0.456578 0.0619013 -0.17322 133 
0.45671 0.0619016 -0.172327 123 
0.456843 0.0619018 -0.171433 122 
0.457513 0.0619109 -0.170466 121 
0.456635 0.0618944 -0.169708 121 
0.456949 0.0618976 -0.168787 129 
0.455956 0.0618792 -0.168048 140 
0.455499 0.0618696 -0.167237 136 
0.455162 0.061862 -0.166409 137 
0.456128 0.0618761 -0.165392 134 
0.4552 0.0618587 -0.164651 135 
0.455161 0.0618561 -0.163781 129 
0.454473 0.0618427 -0.163008 122 
0.45473 0.061845 -0.162092 129 
0.454693 0.0618424 -0.161221 126 
0.453773 0.0618252 -0.160488 127 
0.454031 0.0618275 -0.159571 120 
0.454763 0.0618376 -0.158576 116 
0.45355 0.0618156 -0.157895 119 
0.454872 0.0618354 -0.1568 122 
0.4536 0.0618125 -0.156132 124 
0.454216 0.0618206 -0.155151 119 
0.452422 0.0617891 -0.154577 128 
0.453446 0.061804 -0.153524 128 
0.453181 0.0617976 -0.152691 134 
0.452799 0.0617893 -0.15188 137 
0.451658 0.0617685 -0.151204 142 
0.451746 0.061768 -0.150312 149 
0.45242 0.0617771 -0.149311 152 
0.452568 0.0617776 -0.148405 158 
0.452952 0.0617819 -0.147453 156 
0.451696 0.0617593 -0.146808 159 
0.450854 0.0617434 -0.146088 159 
0.450364 0.0617334 -0.145303 155 
0.450747 0.0617377 -0.144352 153 
0.450898 0.0617382 -0.143443 152 
0.450293 0.0617262 -0.142682 148 
0.450678 0.0617306 -0.141726 149 
0.450307 0.0617225 -0.140921 149 
0.449937 0.0617144 -0.140115 139 
0.45044 0.0617207 -0.139132 140 
0.450362 0.0617174 -0.138267 134 
0.449761 0.0617056 -0.13751 140 
0.449917 0.0617062 -0.136596 143 
0.449899 0.0617039 -0.135718 137 
0.448722 0.0616826 -0.135087 129 
0.448878 0.0616831 -0.134173 134 
0.449732 0.0616951 -0.133104 125 
0.450414 0.0617043 -0.13207 123 
0.450749 0.0617078 -0.131109 117 
0.450852 0.0617075 -0.130199 118 
0.450721 0.0617034 -0.129341 116 
0.451644 0.0617165 -0.128242 114 
0.450812 0.0617008 -0.127543 117 
0.450917 0.0617006 -0.126629 118 
0.451199 0.0617032 -0.125673 115 
0.450895 0.0616962 -0.124853 118 
0.451882 0.0617103 -0.123727 121 
0.452815 0.0617235 -0.12261 129 
0.451805 0.061705 -0.121957 128 
0.452621 0.0617163 -0.120864 126 
0.452437 0.0617113 -0.120012 122 
0.453672 0.0617294 -0.118809 116 
0.452837 0.0617138 -0.118116 113 
0.454313 0.0617358 -0.116846 109 
0.453477 0.0617202 -0.116155 113 
0.453888 0.0617248 -0.115148 107 
0.453884 0.0617227 -0.114245 105 
0.454715 0.0617342 -0.113126 104 
0.456149 0.0617556 -0.111846 99 
0.454055 0.0617194 -0.111486 96 
0.455247 0.0617368 -0.110264 102 
0.455966 0.0617464 -0.109163 103 
0.455786 0.0617414 -0.1083 101 
0.455427 0.0617335 -0.107486 100 
0.456691 0.061752 -0.10623 99 
0.457115 0.0617569 -0.105198 95 
0.456756 0.061749 -0.104381 95 
0.45682 0.0617479 -0.103447 97 
0.457488 0.0617567 -0.102343 97 
0.457735 0.0617587 -0.101354 98 
0.459017 0.0617774 -0.100069 97 
0.459512 0.0617834 -0.0990042 97 
0.459153 0.0617754 -0.0981821 98 
0.459221 0.0617745 -0.0972371 103 
0.460454 0.0617924 -0.0959511 101 
0.45936 0.0617725 -0.0953441 98 
0.461026 0.0617975 -0.0939222 95 
0.462395 0.0618176 -0.0925822 96 
0.462097 0.0618106 -0.0917372 92 
0.462109 0.0618087 -0.0907982 94 
0.464174 0.0618401 -0.0892342 88 
0.463501 0.061827 -0.0884992 90 
0.464452 0.0618403 -0.0872652 93 
0.465219 0.0618506 -0.0860851 90 
0.465235 0.0618487 -0.0851342 87 
0.466322 0.0618642 -0.0838472 85 
0.465393 0.061847 -0.0831911 83 
0.467179 0.0618738 -0.0816751 89 
0.467388 0.061875 -0.0806561 85 
0.468426 0.0618896 -0.0793692 82 
0.468957 0.061896 -0.0782411 80 
0.468722 0.0618901 -0.0773591 79 
0.468999 0.0618924 -0.0763102 78 
0.469855 0.061904 -0.0750672 79 
0.470392 0.0619105 -0.0739272 77 
0.471578 0.0619275 -0.0725662 76 
0.473358 0.061954 -0.0710011 75 
0.474233 0.061966 -0.0697332 75 
0.475114 0.061978 -0.0684592 71 
0.474353 0.0619635 -0.0677432 76 
0.47471 0.061967 -0.0666442 73 
0.476651 0.0619961 -0.0649941 77 
0.475229 0.061971 -0.0645071 79 
0.476117 0.0619831 -0.0632152 82 
0.477009 0.0619952 -0.0619182 74 
0.479042 0.0620257 -0.0602122 72 
0.480621 0.0620489 -0.0586592 68 
0.481264 0.062057 -0.0574341 76 
0.481638 0.0620607 -0.0563022 73 
0.481471 0.0620558 -0.0553642 82 
0.482254 0.0620661 -0.0540792 78 
0.483246 0.0620798 -0.0527142 79 
0.482944 0.0620727 -0.0518211 83 
0.483734 0.0620831 -0.0505232 82 
0.483364 0.0620749 -0.0496541 82 
0.483473 0.0620744 -0.0486061 81 
0.484063 0.0620815 -0.0473752 79 
0.484242 0.0620821 -0.0462962 77 
0.484698 0.0620871 -0.0451112 75 
0.486399 0.0621121 -0.0434462 79 
0.486167 0.0621061 -0.0425171 77 
0.483251 0.0620571 -0.0426261 78 
0.48405 0.0620676 -0.0413022 76 
0.48437 0.0620704 -0.0401602 74 
0.484623 0.0620722 -0.0390432 75 
0.482816 0.062041 -0.0387382 73 
0.481429 0.0620165 -0.0382721 65 
0.481953 0.0620226 -0.0370482 66 
0.480571 0.0619982 -0.0365862 57 
0.480754 0.0619988 -0.0354972 59 
0.481482 0.0620082 -0.0341861 56 
0.480714 0.0619936 -0.0334802 60 
0.479948 0.0619791 -0.0327762 54 
0.480744 0.0619895 -0.0314312 53 
0.479775 0.0619717 -0.0308112 54 
0.479148 0.0619594 -0.0300532 57 
0.479266 0.061959 -0.0289852 59 
0.479384 0.0619586 -0.0279152 66 
0.477949 0.0619334 -0.0274992 61 
0.47726 0.0619201 -0.0267722 68 
0.478795 0.0619423 -0.0251002 70 
0.476155 0.0618979 -0.0252072 66 
0.475805 0.0618901 -0.0243392 68 
0.474789 0.0618716 -0.0237592 71 
0.473644 0.0618511 -0.0232382 127 
0.473829 0.0618517 -0.0221422 73 
0.475816 0.061881 -0.0202532 71 
0.47347 0.0618414 -0.0202642 72 
0.473789 0.0618442 -0.0191031 76 
0.47371 0.0618406 -0.0181182 74 
0.472504 0.0618192 -0.0176352 80 
0.474219 0.0618441 -0.0158462 66 
0.473543 0.061831 -0.0151262 69 
0.471743 0.0618002 -0.0149172 69 
0.424512 0.0585307 -0.441119 9 
0.425218 0.0585357 -0.440528 7 
0.533593 0.0596285 -0.490821 6 
0.196669 0.0562268 -0.332451 7 
0.53176 0.0596047 -0.487652 9 
0.807133 0.062381 -0.615334 8 
0.222739 0.0564858 -0.342856 7 
0.432534 0.0585969 -0.438356 7 
0.996551 0.0642784 -0.697718 7 
2.77631 0.0822058 -1.51578 6 
0.263385 0.0568895 -0.359005 7 
0.174964 0.0560012 -0.319427 9 
0.565173 0.0599201 -0.493612 8 
0.580453 0.060071 -0.499286 7 
0.560154 0.0598642 -0.488944 7 
0.164641 0.0558945 -0.313454 8 
0.429262 0.0585451 -0.428512 9 
0.396767 0.0582172 -0.41329 7 
0.427982 0.0585282 -0.426109 10 
0.418354 0.0584296 -0.420993 9 
0.170522 0.0559489 -0.314008 10 
0.276868 0.0570099 -0.358389 8 
0.425773 0.0584978 -0.421497 9 
0.42223 0.0584603 -0.419072 10 
0.429855 0.0585345 -0.421418 10 
0.431017 0.058544 -0.420995 9 
0.422542 0.0584573 -0.416504 12 
0.151229 0.0557511 -0.303634 7 
0.423421 0.058462 -0.415074 11 
0.427116 0.0584969 -0.415711 10 
0.428427 0.0585079 -0.415347 8 
0.41422 0.0583643 -0.408595 8 
0.461101 0.0588292 -0.42692 8 
0.42441 0.0584618 -0.41099 12 
0.423899 0.0584547 -0.409887 12 
0.426257 0.0584761 -0.409942 13 
0.427401 0.0584854 -0.409502 8 
0.424911 0.0584587 -0.407608 8 
0.426048 0.0584679 -0.407165 11 
0.429508 0.0585003 -0.407636 8 
0.430179 0.0585049 -0.406997 9 
0.434089 0.0585416 -0.407624 10 
0.426024 0.0584596 -0.403576 9 
0.430782 0.0585048 -0.404525 12 
0.425482 0.0584502 -0.401582 12 
0.430172 0.0584946 -0.402488 12 
0.438819 0.0585782 -0.404884 13 
0.427308 0.0584623 -0.399606 12 
0.432745 0.058514 -0.400764 12 
0.430695 0.0584917 -0.399093 11 
0.428395 0.058467 -0.397339 18 
0.427188 0.058453 -0.396 13 
0.425245 0.0584319 -0.394395 15 
0.425006 0.0584275 -0.393424 16 
0.431573 0.0584903 -0.394938 15 
0.431761 0.0584901 -0.394111 12 
0.430375 0.0584744 -0.392717 14 
0.427873 0.0584478 -0.390928 19 
0.429832 0.0584651 -0.390742 19 
0.433118 0.0584954 -0.39102 26 
0.429939 0.0584621 -0.389004 22 
0.429751 0.0584582 -0.388051 20 
0.431183 0.0584703 -0.387665 23 
0.430886 0.0584654 -0.386674 25 
0.429296 0.0584478 -0.38524 22 
0.430186 0.0584545 -0.384662 28 
0.433309 0.0584832 -0.384843 26 
0.43416 0.0584895 -0.384242 22 
0.434573 0.0584915 -0.383491 26 
0.434109 0.058485 -0.382445 22 
0.432718 0.0584694 -0.381094 28 
0.43395 0.0584794 -0.380616 23 
0.432998 0.0584681 -0.379416 31 
0.435109 0.0584867 -0.379222 31 
0.433442 0.0584685 -0.377793 35 
0.434898 0.0584807 -0.37738 27 
0.432853 0.0584587 -0.375837 34 
0.434141 0.0584693 -0.375367 30 
0.435711 0.0584826 -0.374982 32 
0.433498 0.058459 -0.373399 30 
0.433914 0.0584611 -0.372649 21 
0.433894 0.0584589 -0.371763 26 
0.435628 0.0584738 -0.371419 28 
0.436766 0.0584829 -0.370886 23 
0.436304 0.0584764 -0.369862 26 
0.437557 0.0584866 -0.369359 26 
0.437427 0.0584833 -0.368436 33 
0.437796 0.0584849 -0.367663 30 
0.438667 0.0584914 -0.367039 36 
0.437373 0.0584768 -0.365772 33 
0.437411 0.0584752 -0.364902 33 
0.438615 0.0584849 -0.364373 33 
0.438821 0.0584849 -0.36355 38 
0.43886 0.0584833 -0.362679 37 
0.438845 0.0584812 -0.361794 38 
0.439275 0.0584833 -0.361035 37 
0.441781 0.0585056 -0.36086 38 
0.44053 0.0584915 -0.359625 39 
0.442824 0.0585117 -0.35938 35 
0.442527 0.0585068 -0.358413 38 
0.440825 0.0584884 -0.357062 32 
0.44003 0.0584787 -0.355965 38 
0.441754 0.0584934 -0.355552 36 
0.443379 0.058507 -0.355106 34 
0.442012 0.0584919 -0.353859 34 
0.443582 0.058505 -0.353393 38 
0.444309 0.05851 -0.352701 39 
0.445266 0.0585172 -0.352067 42 
0.444231 0.0585053 -0.350914 42 
0.443825 0.0584994 -0.349927 43 
0.44518 0.0585104 -0.349391 51 
0.444602 0.0585029 -0.348362 48 
0.446076 0.058515 -0.347851 46 
0.444757 0.0585004 -0.346639 49 
0.44761 0.0585258 -0.346463 47 
0.446627 0.0585143 -0.345337 45 
0.447884 0.0585244 -0.34476 54 
0.446958 0.0585135 -0.343652 47 
0.447585 0.0585175 -0.342919 49 
0.449776 0.0585365 -0.342556 52 
0.44896 0.0585267 -0.341478 56 
0.448898 0.0585241 -0.340579 59 
0.448894 0.0585221 -0.339694 54 
0.450166 0.0585322 -0.339103 59 
0.449236 0.0585214 -0.338006 55 
0.449697 0.0585238 -0.337228 61 
0.45045 0.058529 -0.336513 60 
0.449927 0.058522 -0.335513 61 
0.451031 0.0585305 -0.334874 58 
0.450566 0.0585241 -0.333888 58 
0.452025 0.058536 -0.333321 65 
0.451033 0.0585246 -0.332224 66 
0.451094 0.0585231 -0.331354 67 
0.450631 0.0585167 -0.330375 63 
0.450692 0.0585153 -0.329507 70 
0.451336 0.0585195 -0.32876 63 
0.452684 0.0585303 -0.328155 66 
0.451637 0.0585184 -0.32706 69 
0.451993 0.0585197 -0.326251 66 
0.45194 0.0585173 -0.32536 65 
0.45259 0.0585214 -0.324608 66 
0.452773 0.0585212 -0.323762 68 
0.452371 0.0585154 -0.322804 67 
0.453141 0.0585207 -0.322072 66 
0.453326 0.0585204 -0.321227 65 
0.452457 0.0585102 -0.320183 70 
0.452292 0.0585067 -0.319274 73 
0.453357 0.0585148 -0.318593 72 
0.454367 0.0585223 -0.317898 79 
0.453263 0.0585099 -0.316819 74 
0.452807 0.0585037 -0.315859 78 
0.452646 0.0585001 -0.314954 81 
0.452076 0.0584928 -0.313979 78 
0.452733 0.058497 -0.313218 78 
0.452398 0.0584919 -0.312286 82 
0.452648 0.0584923 -0.311454 80 
0.453308 0.0584965 -0.31069 87 
0.452157 0.0584837 -0.309625 89 
0.452817 0.0584879 -0.308861 90 
0.452136 0.0584796 -0.307878 85 
0.452213 0.0584783 -0.307019 85 
0.451419 0.0584689 -0.306022 78 
0.451266 0.0584655 -0.305129 84 
0.451055 0.0584616 -0.304228 85 
0.452006 0.0584685 -0.303505 83 
0.451971 0.0584662 -0.30263 79 
0.450545 0.0584509 -0.30155 83 
0.449819 0.0584422 -0.300578 85 
0.449671 0.0584388 -0.299693 92 
0.451198 0.0584512 -0.299047 99 
0.450472 0.0584424 -0.298079 98 
0.449807 0.0584343 -0.297123 100 
0.449834 0.0584326 -0.296264 101 
0.448256 0.0584159 -0.295189 100 
0.448285 0.0584142 -0.294334 110 
0.447971 0.0584093 -0.293434 113 
0.447716 0.058405 -0.292543 116 
0.447462 0.0584007 -0.291654 111 
0.446925 0.0583938 -0.29073 117 
0.446559 0.0583884 -0.28983 114 
0.446308 0.0583842 -0.288946 106 
0.446512 0.0583842 -0.288117 102 
0.445246 0.0583705 -0.287115 99 
0.444942 0.0583657 -0.286229 96 
0.445428 0.0583683 -0.285435 100 
0.444844 0.058361 -0.284519 102 
0.445331 0.0583636 -0.283724 104 
0.444188 0.058351 -0.28275 112 
0.444787 0.0583547 -0.281967 114 
0.444656 0.0583516 -0.281105 115 
0.444695 0.05835 -0.280262 110 
0.445128 0.0583521 -0.279458 106 
0.445337 0.0583521 -0.278631 105 
0.446055 0.0583569 -0.277853 105 
0.444745 0.0583428 -0.276879 102 
0.444675 0.0583403 -0.276026 109 
0.44483 0.0583398 -0.275194 114 
0.445211 0.0583414 -0.274383 118 
0.445311 0.0583404 -0.273545 122 
0.444962 0.0583353 -0.272668 122 
0.44653 0.0583478 -0.271955 123 
0.44511 0.0583328 -0.27099 115 
0.445663 0.058336 -0.270189 114 
0.444923 0.0583273 -0.269284 116 
0.445421 0.05833 -0.268478 115 
0.445864 0.0583321 -0.267666 116 
0.446027 0.0583317 -0.266831 119 
0.445682 0.0583267 -0.265961 114 
0.44641 0.0583314 -0.265166 116 
0.446349 0.058329 -0.264315 115 
0.44691 0.0583322 -0.263506 119 
0.44719 0.0583329 -0.262677 124 
0.446056 0.0583206 -0.261759 130 
0.446449 0.0583222 -0.260937 135 
0.446391 0.0583198 -0.260088 137 
0.44673 0.058321 -0.259262 133 
0.447579 0.0583269 -0.258462 132 
0.447978 0.0583286 -0.257636 131 
0.448263 0.0583293 -0.256802 133 
0.449007 0.0583342 -0.25599 129 
0.448439 0.0583271 -0.255113 128 
0.448727 0.0583278 -0.254278 124 
0.449073 0.058329 -0.253444 129 
0.450396 0.0583392 -0.25265 127 
0.44977 0.0583316 -0.251773 135 
0.450005 0.0583318 -0.250931 143 
0.450241 0.058332 -0.250089 149 
0.450709 0.0583344 -0.249253 156 
0.450717 0.0583325 -0.248402 150 
0.451244 0.0583354 -0.247566 145 
0.4516 0.0583367 -0.246723 142 
0.451264 0.0583317 -0.245861 136 
0.452315 0.0583394 -0.245034 139 
0.452269 0.058337 -0.244178 133 
0.452745 0.0583394 -0.243334 137 
0.453281 0.0583423 -0.242489 143 
0.452076 0.0583295 -0.241611 143 
0.452961 0.0583356 -0.240771 151 
0.452628 0.0583306 -0.239911 149 
0.453224 0.0583341 -0.239063 151 
0.45359 0.0583355 -0.238211 152 
0.454776 0.0583443 -0.237364 146 
0.454677 0.0583415 -0.236504 137 
0.456046 0.0583519 -0.235652 135 
0.455654 0.0583464 -0.23479 135 
0.455381 0.058342 -0.233929 133 
0.455168 0.0583381 -0.233069 140 
0.455659 0.0583406 -0.232208 135 
0.45864 0.0583656 -0.231334 131 
0.455353 0.058334 -0.230489 125 
0.45756 0.0583519 -0.22961 122 
0.456757 0.0583427 -0.228754 120 
0.457315 0.0583458 -0.227885 122 
0.457756 0.0583479 -0.227015 118 
0.457132 0.0583403 -0.22616 121 
0.458584 0.0583514 -0.225271 124 
0.458078 0.0583449 -0.224415 126 
0.460857 0.0583679 -0.22349 118 
0.459031 0.0583496 -0.222662 117 
0.46092 0.0583645 -0.221747 113 
0.462098 0.0583732 -0.220845 113 
0.460444 0.0583564 -0.220019 115 
0.460358 0.0583536 -0.219152 118 
0.460573 0.0583536 -0.218275 124 
0.46121 0.0583573 -0.217382 127 
0.461427 0.0583573 -0.216503 121 
0.461705 0.0583578 -0.21562 121 
0.461381 0.0583529 -0.21476 115 
0.461601 0.0583529 -0.213878 117 
0.460797 0.0583438 -0.21304 118 
0.461741 0.0583503 -0.212125 125 
0.462932 0.0583589 -0.211196 122 
0.462125 0.0583497 -0.210359 125 
0.46241 0.0583503 -0.20947 123 
0.462453 0.0583487 -0.208593 119 
0.463104 0.0583525 -0.207682 122 
0.46321 0.0583515 -0.206799 123 
0.463074 0.0583483 -0.20593 127 
0.46379 0.0583527 -0.20501 126 
0.464264 0.0583549 -0.204102 137 
0.463459 0.0583458 -0.203274 146 
0.463752 0.0583464 -0.202376 142 
0.46368 0.0583438 -0.201502 141 
0.464157 0.0583461 -0.20059 136 
0.463416 0.0583375 -0.199762 132 
0.464078 0.0583414 -0.198835 130 
0.463765 0.0583366 -0.197978 131 
0.463941 0.0583362 -0.197084 129 
0.463021 0.058326 -0.196276 130 
0.462954 0.0583235 -0.195403 130 
0.462706 0.0583193 -0.194544 135 
0.462702 0.0583173 -0.193665 133 
0.461608 0.0583056 -0.192881 133 
0.461968 0.0583068 -0.191971 133 
0.460999 0.0582963 -0.19118 136 
0.460697 0.0582916 -0.190331 143 
0.460155 0.0582849 -0.189506 144 
0.460094 0.0582824 -0.188636 140 
0.458957 0.0582704 -0.187871 142 
0.458838 0.0582673 -0.187009 141 
0.458184 0.0582596 -0.186201 143 
0.459082 0.0582655 -0.185235 144 
0.459925 0.058271 -0.184272 148 
0.458015 0.0582522 -0.183599 144 
0.457961 0.0582498 -0.182731 146 
0.459041 0.0582573 -0.181738 138 
0.458509 0.0582506 -0.180922 137 
0.458695 0.0582503 -0.180025 132 
0.458942 0.0582505 -0.17912 131 
0.458353 0.0582433 -0.178313 125 
0.458601 0.0582435 -0.177407 130 
0.458372 0.0582395 -0.176558 127 
0.458443 0.0582382 -0.175673 132 
0.457679 0.0582295 -0.174891 123 
0.457691 0.0582276 -0.174014 131 
0.459377 0.0582404 -0.172919 126 
0.458492 0.0582307 -0.172155 124 
0.458208 0.0582262 -0.171314 122 
0.458044 0.0582228 -0.170458 122 
0.457701 0.0582178 -0.169626 130 
0.45641 0.0582046 -0.168927 135 
0.456308 0.0582017 -0.168065 134 
0.456562 0.058202 -0.167152 139 
0.455633 0.0581919 -0.166409 132 
0.456303 0.0581957 -0.165436 132 
0.455198 0.0581842 -0.164721 129 
0.454923 0.0581798 -0.163887 130 
0.455889 0.0581862 -0.162864 128 
0.455201 0.0581782 -0.162092 127 
0.454574 0.0581708 -0.161313 121 
0.455481 0.0581767 -0.160293 123 
0.454207 0.0581637 -0.159618 118 
0.454231 0.0581619 -0.158738 123 
0.454079 0.0581586 -0.157886 128 
0.453048 0.0581477 -0.157179 128 
0.453953 0.0581536 -0.156152 121 
0.454215 0.0581538 -0.15523 122 
0.453185 0.058143 -0.154527 123 
0.453095 0.0581402 -0.153666 126 
0.453181 0.058139 -0.152773 137 
0.452683 0.0581327 -0.151983 145 
0.452478 0.0581289 -0.151142 148 
0.453094 0.0581323 -0.150153 150 
0.452013 0.058121 -0.149471 157 
0.452511 0.0581233 -0.148502 155 
0.452192 0.0581185 -0.147682 160 
0.450943 0.0581058 -0.147037 157 
0.450105 0.0580966 -0.146319 158 
0.450138 0.0580949 -0.145437 160 
0.450287 0.0580942 -0.144531 163 
0.45038 0.058093 -0.143636 156 
0.450357 0.0580908 -0.142763 152 
0.449812 0.0580842 -0.141992 155 
0.449617 0.0580805 -0.141154 149 
0.449596 0.0580784 -0.14028 141 
0.44998 0.0580797 -0.139323 137 
0.449844 0.0580765 -0.138471 138 
0.449883 0.0580749 -0.137583 132 
0.448765 0.0580633 -0.136937 137 
0.44944 0.0580671 -0.135915 137 
0.448787 0.0580595 -0.135174 134 
0.448828 0.0580579 -0.134285 132 
0.449505 0.0580617 -0.133256 124 
0.449084 0.0580561 -0.132466 117 
0.448664 0.0580505 -0.131677 123 
0.448707 0.0580489 -0.130785 121 
0.449098 0.0580503 -0.129814 120 
0.449664 0.0580531 -0.128801 118 
0.449419 0.058049 -0.127971 118 
0.450336 0.0580548 -0.126873 122 
0.450092 0.0580507 -0.126042 125 
0.45078 0.0580546 -0.124991 124 
0.451237 0.0580564 -0.123992 127 
0.451228 0.0580544 -0.123102 132 
0.451805 0.0580572 -0.122071 130 
0.451093 0.0580492 -0.12135 122 
0.4522 0.0580565 -0.120185 114 
0.452251 0.058055 -0.119276 109 
0.451775 0.0580489 -0.118498 117 
0.453182 0.0580588 -0.117248 111 
0.453059 0.0580557 -0.116379 106 
0.454061 0.0580622 -0.115224 114 
0.454235 0.0580616 -0.114276 105 
0.454589 0.0580625 -0.113281 105 
0.454646 0.058061 -0.112361 100 
0.454644 0.0580589 -0.111455 103 
0.453573 0.0580478 -0.110832 106 
0.454642 0.0580548 -0.109642 108 
0.456256 0.0580664 -0.1083 107 
0.455837 0.0580608 -0.107502 109 
0.456378 0.0580633 -0.106443 105 
0.455541 0.0580542 -0.10576 101 
0.456864 0.0580632 -0.104481 97 
0.458257 0.0580729 -0.103178 101 
0.457233 0.0580622 -0.102546 96 
0.457298 0.0580607 -0.10161 90 
0.457545 0.0580607 -0.100621 91 
0.45755 0.0580587 -0.0997002 95 
0.458041 0.0580607 -0.0986382 99 
0.458533 0.0580627 -0.0975732 99 
0.459333 0.0580674 -0.0964162 101 
0.460564 0.0580756 -0.0951272 98 
0.4599 0.0580679 -0.0943952 102 
0.460277 0.058069 -0.0933542 102 
0.461455 0.0580767 -0.0920702 104 
0.463075 0.0580881 -0.0906482 103 
0.463087 0.0580861 -0.0897072 95 
0.462604 0.05808 -0.0889172 93 
0.462741 0.058079 -0.0879372 97 
0.463625 0.0580843 -0.0867242 96 
0.464514 0.0580895 -0.0855061 88 
0.463158 0.0580761 -0.0849882 87 
0.46511 0.0580902 -0.0834301 89 
0.46425 0.058081 -0.0827562 90 
0.465396 0.0580883 -0.0814442 88 
0.465666 0.0580884 -0.0804092 84 
0.467073 0.058098 -0.0790031 88 
0.468427 0.0581071 -0.0776082 84 
0.469342 0.0581125 -0.0763522 74 
0.468852 0.0581063 -0.0755532 75 
0.46913 0.0581064 -0.0745021 75 
0.470951 0.0581193 -0.0729332 71 
0.469882 0.0581083 -0.0723272 75 
0.473659 0.0581374 -0.0700872 78 
0.471995 0.0581214 -0.0696802 73 
0.473191 0.0581291 -0.0683011 74 
0.473675 0.0581309 -0.0671621 77 
0.475078 0.0581403 -0.0657011 70 
0.475963 0.0581454 -0.0644151 66 
0.47672 0.0581494 -0.0631692 71 
0.477281 0.0581518 -0.0619882 68 
0.479982 0.0581718 -0.0600462 72 
0.480218 0.0581715 -0.0589702 73 
0.481127 0.0581768 -0.0576512 80 
0.481365 0.0581765 -0.0565701 72 
0.483437 0.0581913 -0.0548222 80 
0.483406 0.0581888 -0.0538312 79 
0.483308 0.0581857 -0.0528642 82 
0.48362 0.058186 -0.0517462 82 
0.484137 0.058188 -0.0505492 76 
0.485138 0.0581939 -0.0491692 78 
0.484287 0.0581846 -0.0484772 80 
0.484397 0.0581833 -0.0474272 76 
0.485608 0.0581909 -0.0459582 79 
0.484482 0.0581794 -0.0453731 77 
0.484594 0.058178 -0.0443171 77 
0.484638 0.0581761 -0.0432872 83 
0.485233 0.0581787 -0.0420422 80 
0.485899 0.0581818 -0.0407662 81 
0.485669 0.0581776 -0.0398372 86 
0.483857 0.0581606 -0.0395292 81 
0.482604 0.0581481 -0.0390071 74 
0.482992 0.0581489 -0.0378382 71 
0.482765 0.0581448 -0.0369122 69 
0.481994 0.0581362 -0.0362042 65 
0.482998 0.0581421 -0.0347821 59 
0.481612 0.0581285 -0.0343242 55 
0.480641 0.0581183 -0.0337012 56 
0.479742 0.0581088 -0.0330532 48 
0.4804 0.0581118 -0.0317662 55 
0.480449 0.0581099 -0.0307272 55 
0.479078 0.0580965 -0.0302772 57 
0.478993 0.0580935 -0.0292952 57 
0.478773 0.0580894 -0.0283692 61 
0.479162 0.0580903 -0.0271872 63 
0.478201 0.0580802 -0.0265732 63 
0.478657 0.0580816 -0.0253592 65 
0.477631 0.058071 -0.0247762 69 
0.4791 0.0580806 -0.0231242 73 
0.475592 0.05805 -0.0236152 71 
0.475378 0.0580459 -0.0226902 71 
0.475631 0.0580457 -0.0215612 70 
0.474086 0.0580309 -0.0212172 67 
0.474471 0.0580317 -0.0200302 67 
0.473065 0.0580181 -0.0196312 68 
0.474779 0.0580296 -0.0178522 69 
0.47304 0.0580133 -0.0176052 77 
0.472896 0.0580099 -0.0166501 66 
0.472819 0.058007 -0.0156642 70 
0.473139 0.0580072 -0.0144972 71 
1.34512 0.0571827 -0.881752 5 
0.249554 0.0547057 -0.357608 7 
0.443311 0.0551384 -0.447929 8 
0.307922 0.0548332 -0.38357 8 
0.574246 0.0554272 -0.507376 8 
0.441175 0.0551271 -0.444047 8 
0.438372 0.0551187 -0.441792 8 
0.430605 0.0550993 -0.43726 8 
0.390625 0.0550086 -0.417986 9 
0.432995 0.0551004 -0.436491 9 
0.424088 0.0550786 -0.431503 9 
0.277731 0.0547548 -0.364638 7 
0.427059 0.055081 -0.431013 9 
0.404174 0.0550288 -0.419831 8 
0.429358 0.0550819 -0.430202 10 
0.425001 0.0550703 -0.427342 9 
0.428077 0.055075 -0.427791 8 
0.433847 0.0550854 -0.429414 11 
0.431977 0.0550793 -0.427665 7 
0.424787 0.0550616 -0.423604 9 
0.190351 0.0545556 -0.322086 8 
0.419557 0.0550462 -0.419529 9 
0.42515 0.0550563 -0.421037 11 
0.423519 0.0550507 -0.419433 10 
0.422113 0.0550457 -0.417932 7 
0.424823 0.0550494 -0.418182 10 
0.429785 0.055058 -0.419371 11 
0.422583 0.0550406 -0.415435 11 
0.420248 0.0550336 -0.413563 8 
0.424253 0.0550401 -0.414336 9 
0.424218 0.055038 -0.413422 11 
0.431937 0.0550522 -0.415701 9 
0.427505 0.0550408 -0.412973 10 
0.424537 0.0550326 -0.410861 8 
