0.492608,0.0348383,0.196247,57
0.490647,0.0349126,0.196462,51
0.489695,0.0349475,0.197082,50
0.491608,0.0348705,0.198872,50
0.489588,0.0349471,0.199052,53
0.488905,0.0349715,0.199778,51
0.488356,0.0349907,0.200557,59
0.490396,0.0349087,0.202417,58
0.489911,0.0349254,0.203226,66
0.489029,0.0349575,0.203867,65
0.489943,0.0349195,0.205267,68
0.490127,0.0349101,0.20636,65
0.490178,0.0349058,0.207397,66
0.487374,0.0350131,0.207209,64
0.488284,0.0349752,0.208615,71
0.487938,0.0349864,0.20948,66
0.487394,0.0350054,0.210258,68
0.488174,0.0349726,0.211616,60
0.487102,0.0350123,0.212161,65
0.488015,0.0349742,0.213583,58
0.488268,0.034962,0.214715,65
0.488189,0.0349628,0.215701,73
0.488377,0.0349532,0.216808,64
0.48704,0.0350032,0.217229,65
0.487625,0.034978,0.218516,65
0.441226,0.0342589,-0.209365,7
0.128602,0.0483022,-0.0635002,6
0.438015,0.0343989,-0.205987,8
0.170201,0.0464295,-0.0810884,7
0.441526,0.034237,-0.205787,10
0.25111,0.0427903,-0.116779,7
0.645476,0.0250706,-0.298799,9
0.265371,0.0421469,-0.122186,7
2.979,-0.079777,-1.37714,7
0.296181,0.0407593,-0.134968,7
0.252435,0.0427248,-0.114735,8
0.4006,0.0360621,-0.180776,11
0.442792,0.0341634,-0.198962,7
0.281586,0.0414101,-0.126023,9
0.330852,0.039193,-0.147229,8
0.433996,0.0345527,-0.192281,8
0.436314,0.0344464,-0.192406,11
0.434493,0.0345263,-0.190697,9
0.432431,0.034617,-0.188891,8
0.438047,0.0343623,-0.190447,9
0.262299,0.0422689,-0.11368,9
0.436228,0.0344401,-0.187847,10
0.4353,0.0344798,-0.186547,12
0.435787,0.0344558,-0.185857,11
0.433874,0.0345399,-0.184142,12
0.441713,0.034185,-0.186573,13
0.438206,0.0343409,-0.184183,14
0.418137,0.0352424,-0.174856,8
0.438981,0.0343019,-0.182706,9
0.431487,0.0346373,-0.178688,10
0.436273,0.0344198,-0.179783,14
0.43509,0.034471,-0.178402,12
0.434901,0.0344776,-0.177434,16
0.436643,0.0343971,-0.177255,11
0.436139,0.0344178,-0.176158,12
0.428155,0.0347755,-0.172046,11
0.438438,0.0343101,-0.175301,14
0.432469,0.0345772,-0.172023,13
0.438161,0.0343186,-0.173405,9
0.439768,0.0342441,-0.173149,11
0.439523,0.0342531,-0.172159,12
0.433998,0.0345003,-0.169104,12
0.439459,0.034252,-0.17035,10
0.438319,0.0343014,-0.169018,10
0.489531,0.0319895,-0.187881,9
0.438363,0.0342954,-0.16726,14
0.43886,0.034271,-0.166563,14
0.436993,0.0343532,-0.164969,13
0.441559,0.0341452,-0.165809,15
0.438193,0.0342951,-0.163656,13
0.439165,0.0342492,-0.163136,13
0.442967,0.0340756,-0.163663,12
0.437952,0.0343,-0.160921,13
0.438082,0.0342921,-0.160089,15
0.437741,0.0343055,-0.159085,16
0.437924,0.0342953,-0.158273,17
0.43701,0.0343346,-0.157066,18
0.440929,0.0341556,-0.157598,20
0.43858,0.0342597,-0.155877,25
0.439449,0.0342185,-0.155309,27
0.4425,0.0340787,-0.155508,21
0.44109,0.0341404,-0.15413,19
0.444863,0.0339679,-0.154568,17
0.44104,0.0341387,-0.152355,25
0.444165,0.0339955,-0.152555,17
0.443014,0.0340455,-0.151277,20
0.443846,0.0340059,-0.15068,21
0.441422,0.0341135,-0.148977,21
0.445466,0.0339286,-0.149464,23
0.444419,0.033974,-0.14823,21
0.44699,0.0338558,-0.148206,20
0.444373,0.0339721,-0.146455,27
0.444028,0.0339857,-0.145463,25
0.445782,0.0339044,-0.145159,30
0.446625,0.0338643,-0.144553,36
0.4459,0.0338951,-0.143438,36
0.446311,0.0338745,-0.142691,31
0.446236,0.0338759,-0.141788,38
0.444707,0.0339431,-0.140424,35
0.445709,0.0338958,-0.139866,29
0.446608,0.0338531,-0.139272,33
0.445832,0.0338863,-0.138153,33
0.449236,0.0337302,-0.138331,30
0.448724,0.0337514,-0.137293,32
0.450789,0.0336559,-0.137045,31
0.448741,0.0337466,-0.135541,28
0.449762,0.0336984,-0.134971,28
0.449197,0.033722,-0.133923,31
0.44918,0.0337208,-0.133041,35
0.453187,0.0335373,-0.133349,34
0.451397,0.0336164,-0.131939,35
0.450281,0.033665,-0.130734,36
0.451034,0.0336288,-0.130076,37
0.451074,0.0336251,-0.129209,40
0.452217,0.0335713,-0.128659,33
0.451264,0.0336125,-0.12751,42
0.452852,0.0335385,-0.127082,42
0.453004,0.0335296,-0.126246,34
0.453268,0.0335157,-0.125441,39
0.453866,0.0334866,-0.124728,32
0.457726,0.0333095,-0.124908,35
0.454509,0.0334534,-0.123147,32
0.455896,0.0333885,-0.122643,36
0.458026,0.0332899,-0.122334,30
0.458184,0.0332807,-0.121492,35
0.462347,0.0330899,-0.12171,39
0.458899,0.0332443,-0.119913,42
0.457981,0.033284,-0.118789,43
0.461505,0.033122,-0.11882,43
0.461208,0.0331335,-0.117856,46
0.458745,0.0332433,-0.116341,48
0.459931,0.0331875,-0.11576,50
0.462099,0.033087,-0.115421,48
0.462033,0.033088,-0.114518,43
0.459907,0.0331826,-0.113107,41
0.462536,0.0330612,-0.11287,44
0.460293,0.0331611,-0.111439,52
0.460516,0.033149,-0.110612,49
0.461025,0.0331238,-0.109853,51
0.461192,0.0331143,-0.109012,59
0.461474,0.0330995,-0.108197,60
0.463253,0.0330166,-0.107732,57
0.462673,0.033041,-0.106714,61
0.461464,0.0330939,-0.105555,58
0.461978,0.0330686,-0.104793,55
0.461575,0.0330849,-0.103822,59
0.463241,0.0330072,-0.103317,65
0.462607,0.033034,-0.102295,60
0.461574,0.033079,-0.101189,61
0.462263,0.0330457,-0.100463,65
0.463242,0.0329992,-0.0997971,63
0.461979,0.0330547,-0.0986476,65
0.46267,0.0330212,-0.0979187,67
0.463652,0.0329746,-0.097249,64
0.462275,0.0330353,-0.0960836,72
0.462796,0.0330096,-0.0953165,68
0.461883,0.0330492,-0.0942542,62
0.462519,0.0330182,-0.0935102,65
0.462582,0.0330134,-0.0926492,68
0.462244,0.0330268,-0.0917086,69
0.462997,0.0329905,-0.090985,70
0.461345,0.0330638,-0.0897889,69
0.462612,0.0330041,-0.0891644,71
0.461534,0.0330513,-0.0880864,71
0.461715,0.0330411,-0.0872518,68
0.461098,0.0330672,-0.086267,72
0.461166,0.0330621,-0.0854125,74
0.463064,0.0329737,-0.0848949,69
0.46028,0.0330986,-0.0835179,72
0.46018,0.0331012,-0.0826355,78
0.459119,0.0331476,-0.0815827,78
0.460208,0.033096,-0.0809135,77
0.459431,0.0331295,-0.079915,82
0.459955,0.0331037,-0.0791446,83
0.458336,0.0331755,-0.0780067,81
0.459197,0.0331343,-0.077294,83
0.457697,0.0332008,-0.0761844,85
0.458332,0.0331699,-0.0754332,85
0.458463,0.033162,-0.0745978,90
0.457921,0.0331848,-0.0736538,85
0.456656,0.0332405,-0.072597,87
0.458129,0.0331714,-0.0719766,83
0.458318,0.0331608,-0.0711513,87
0.455553,0.0332851,-0.0698713,83
0.456686,0.0332315,-0.0691942,85
0.456987,0.0332158,-0.0683885,84
0.456566,0.0332331,-0.0674749,91
0.458377,0.0331485,-0.0668897,90
0.45857,0.0331378,-0.0660646,97
0.456306,0.0332392,-0.0648891,95
0.454838,0.0333043,-0.0638343,101
0.455141,0.0332886,-0.063031,104
0.454011,0.0333383,-0.0620309,101
0.454424,0.0333175,-0.0612436,102
0.452971,0.033382,-0.0602068,112
0.452727,0.0333912,-0.0593343,112
0.453577,0.0333505,-0.0586046,110
0.452951,0.0333772,-0.0576838,106
0.452927,0.0333764,-0.0568414,110
0.452304,0.033403,-0.0559252,109
0.452499,0.0333921,-0.0551114,111
0.453078,0.0333638,-0.0543431,103
0.453057,0.0333629,-0.0535022,103
0.454021,0.0333169,-0.0527761,99
0.453398,0.0333435,-0.0518653,106
0.453324,0.033345,-0.0510187,111
0.453634,0.0333289,-0.0502152,113
0.454164,0.0333028,-0.0494347,113
0.45442,0.0332891,-0.0486233,116
0.454403,0.033288,-0.0477825,112
0.454607,0.0332768,-0.0469648,105
0.456412,0.0331924,-0.0463088,101
0.456064,0.0332064,-0.0454322,105
0.454891,0.0332582,-0.0444767,109
0.455207,0.0332418,-0.0436683,115
0.456021,0.0332026,-0.0429057,114
0.454575,0.0332669,-0.0419325,122
0.456772,0.0331645,-0.041293,126
0.456095,0.0331936,-0.0403921,126
0.455808,0.0332048,-0.0395276,117
0.457182,0.03314,-0.0388048,122
0.456507,0.033169,-0.0379076,126
0.455889,0.0331954,-0.0370179,131
0.456212,0.0331787,-0.0362049,129
0.456537,0.033162,-0.035391,125
0.456862,0.0331452,-0.0345761,131
0.456578,0.0331563,-0.0337156,131
0.456683,0.0331496,-0.0328841,125
0.457066,0.0331301,-0.0320717,134
0.457617,0.033103,-0.0312694,132
0.45778,0.0330936,-0.0304397,131
0.457221,0.0331173,-0.0295633,133
0.457107,0.0331207,-0.0287169,134
0.457272,0.0331112,-0.0278878,135
0.457938,0.0330788,-0.0270876,139
0.457826,0.033082,-0.026241,137
0.457659,0.0330878,-0.025392,139
0.458328,0.0330552,-0.0245879,132
0.457716,0.0330814,-0.0237161,132
0.459618,0.0329922,-0.0229704,122
0.459677,0.0329877,-0.0221304,130
0.460017,0.0329701,-0.0213032,127
0.460978,0.0329241,-0.0205019,129
0.460419,0.0329479,-0.0196337,122
0.460819,0.0329276,-0.0188059,126
0.46043,0.0329436,-0.0179467,129
0.461,0.0329155,-0.0171238,133
0.460557,0.0329339,-0.016264,134
0.461129,0.0329058,-0.0154389,137
0.461873,0.0328697,-0.0146171,138
0.461825,0.03287,-0.0137698,139
0.461835,0.0328676,-0.0129243,139
0.461563,0.0328782,-0.0120717,136
0.462141,0.0328497,-0.01124,133
0.462494,0.0328316,-0.0104013,132
0.462222,0.0328422,-0.00954927,135
0.462406,0.0328318,-0.00870629,136
0.463331,0.0327874,-0.00787437,139
0.462435,0.0328267,-0.00701366,142
0.46302,0.0327979,-0.00617421,136
0.462524,0.0328188,-0.00532156,140
0.462996,0.0327952,-0.00447888,140
0.463869,0.0327531,-0.0036371,140
0.463773,0.0327556,-0.00278755,136
0.464021,0.0327423,-0.00193933,141
0.465245,0.0326841,-0.00109115,137
0.465209,0.0326839,-0.000239538,140
0.464484,0.0327153,0.000610077,137
0.465597,0.0326621,0.00146543,127
0.465332,0.0326724,0.00231607,118
0.466105,0.0326349,0.00317435,120
0.466072,0.0326345,0.00402734,125
0.466501,0.0326129,0.0048858,128
0.4667,0.0326018,0.00574269,128
0.466033,0.0326305,0.00658677,127
0.467857,0.0325447,0.00747214,129
0.467188,0.0325735,0.00831596,133
0.467972,0.0325355,0.00918824,123
0.46742,0.032559,0.0100326,118
0.468265,0.0325182,0.0109099,113
0.469113,0.0324772,0.0117905,117
0.469672,0.0324495,0.012666,111
0.468886,0.0324838,0.0135025,116
0.468861,0.032483,0.0143609,118
0.468603,0.0324929,0.0152113,118
0.469281,0.0324597,0.0160947,116
0.469902,0.0324292,0.0169786,118
0.469998,0.0324228,0.0178438,116
0.470564,0.0323948,0.0187292,112
0.470602,0.0323911,0.0195939,115
0.470465,0.0323955,0.0204508,120
0.471507,0.0323455,0.021363,117
0.471962,0.0323226,0.0222505,111
0.4723,0.032305,0.0231338,112
0.472758,0.032282,0.0240248,115
0.475673,0.0321456,0.0250521,117
0.474336,0.0322053,0.0258499,123
0.473783,0.0322288,0.0266887,126
0.475087,0.0321667,0.0276375,132
0.475735,0.0321349,0.0285506,135
0.475843,0.0321279,0.0294317,137
0.476555,0.0320931,0.0303532,131
0.475398,0.0321445,0.0311509,132
0.47593,0.032118,0.032062,126
0.476463,0.0320914,0.0329755,123
0.478153,0.0320114,0.0339759,121
0.478267,0.0320042,0.0348643,122
0.477773,0.032025,0.0357065,128
0.477402,0.0320402,0.0365567,130
0.478369,0.0319935,0.037514,133
0.476966,0.0320563,0.0382791,128
0.476901,0.0320573,0.0391524,130
0.477018,0.0320499,0.0400414,125
0.477988,0.0320032,0.0410062,130
0.476468,0.0320713,0.0417507,128
0.476285,0.0320778,0.0426126,124
0.476345,0.0320731,0.0434969,129
0.477133,0.0320347,0.0444513,129
0.477255,0.032027,0.045344,134
0.476953,0.032039,0.0461953,138
0.476713,0.0320481,0.0470519,141
0.476655,0.0320488,0.0479268,142
0.476296,0.0320634,0.0487701,142
0.476542,0.03205,0.049677,140
0.476366,0.0320562,0.0505392,133
0.476432,0.0320511,0.0514279,130
0.477714,0.0319899,0.0524539,134
0.476144,0.0320605,0.0531587,138
0.47591,0.0320693,0.0540134,139
0.475979,0.0320641,0.0549033,129
0.475928,0.0320645,0.0557793,133
0.477395,0.0319947,0.0568405,133
0.476434,0.0320371,0.057607,136
0.476385,0.0320373,0.0584849,133
0.476823,0.0320151,0.059425,130
0.476351,0.0320349,0.0602493,131
0.475035,0.0320938,0.0609614,126
0.475532,0.0320688,0.0619104,126
0.476152,0.0320381,0.0628783,125
0.475201,0.0320801,0.0636336,121
0.475399,0.032069,0.0645453,128
0.474031,0.0321303,0.0652377,128
0.473509,0.0321525,0.066046,127
0.473228,0.0321635,0.0668876,127
0.472112,0.0322132,0.0676063,130
0.471774,0.0322268,0.0684365,125
0.471795,0.0322239,0.0693195,125
0.471518,0.0322347,0.070158,123
0.470117,0.0322977,0.0708227,121
0.471027,0.0322535,0.0718426,121
0.469866,0.0323053,0.0725398,122
0.471014,0.0322501,0.0736014,122
0.470741,0.0322608,0.0744385,120
0.470114,0.0322878,0.0752171,117
0.467025,0.032429,0.0755869,119
0.46875,0.0323471,0.0767499,117
0.470726,0.0322535,0.0779624,118
0.468274,0.0323652,0.078426,126
0.466371,0.0324514,0.0789758,130
0.465933,0.0324698,0.0797747,130
0.466952,0.0324205,0.0808295,134
0.466107,0.0324578,0.081556,147
0.465322,0.0324922,0.0822908,152
0.464541,0.0325264,0.0830236,154
0.464572,0.0325231,0.0839033,158
0.464834,0.0325089,0.0848269,155
0.463883,0.0325511,0.0855238,155
0.462764,0.032601,0.0861857,157
0.462968,0.0325895,0.0870977,161
0.462542,0.0326074,0.0878887,165
0.46183,0.0326384,0.0886228,169
0.462036,0.0326269,0.0895358,163
0.461441,0.0326525,0.0902906,164
0.461133,0.0326649,0.0911013,155
0.461226,0.0326586,0.0919928,152
0.461091,0.0326629,0.0928384,148
0.460671,0.0326804,0.0936251,149
0.460537,0.0326847,0.0944704,146
0.459098,0.0327495,0.0950406,145
0.459873,0.0327116,0.0960768,141
0.459401,0.0327315,0.0968488,138
0.459043,0.0327462,0.0976443,134
0.458291,0.0327792,0.0983528,132
0.458274,0.032778,0.0992211,131
0.458993,0.0327426,0.100254,123
0.459432,0.0327202,0.101226,122
0.45868,0.0327532,0.101932,120
0.459346,0.0327203,0.102959,124
0.459048,0.0327321,0.103767,129
0.458808,0.0327413,0.104588,132
0.459306,0.0327161,0.105582,130
0.459181,0.03272,0.106431,131
0.459567,0.0327,0.107401,138
0.458988,0.032725,0.108143,132
0.460459,0.0326546,0.109378,132
0.461308,0.0326131,0.110468,134
0.460726,0.0326381,0.11121,123
0.460604,0.0326419,0.112064,122
0.461456,0.0326002,0.113162,123
0.461449,0.0325985,0.114048,124
0.462133,0.0325647,0.115109,127
0.461436,0.0325951,0.115821,122
0.461431,0.0325933,0.116709,114
0.46281,0.0325271,0.117957,105
0.463386,0.0324983,0.119,105
0.462745,0.0325261,0.119726,102
0.46367,0.032481,0.120866,101
0.463494,0.0324872,0.121716,100
0.46326,0.032496,0.12255,110
0.463724,0.0324724,0.123573,114
0.464189,0.0324487,0.124599,109
0.463316,0.0324873,0.125259,107
0.463608,0.0324717,0.126239,106
0.46425,0.0324398,0.127319,104
0.464193,0.0324404,0.128206,97
0.464605,0.0324191,0.129225,100
0.464491,0.0324224,0.130097,105
0.466079,0.0323463,0.131458,97
0.466084,0.032344,0.132368,97
0.466324,0.0323308,0.133348,101
0.466566,0.0323174,0.134329,100
0.466927,0.0322985,0.135347,100
0.46729,0.0322796,0.136368,98
0.468785,0.0322078,0.137729,102
0.468733,0.0322081,0.138632,103
0.46964,0.0321637,0.139826,107
0.47025,0.0321331,0.140933,105
0.471406,0.0320771,0.142211,100
0.472387,0.0320292,0.14344,90
0.47246,0.0320237,0.144392,94
0.472595,0.0320153,0.145364,88
0.472791,0.0320041,0.146357,93
0.474026,0.0319443,0.14768,93
0.473185,0.0319814,0.148348,95
0.475778,0.0318583,0.150113,82
0.47487,0.0318985,0.150761,85
0.475873,0.0318495,0.152026,82
0.475706,0.0318552,0.152914,87
0.477771,0.0317566,0.154535,83
0.477542,0.0317652,0.155407,85
0.479061,0.0316921,0.15686,81
0.480971,0.0316007,0.15845,77
0.481817,0.031559,0.159691,79
0.481713,0.0315617,0.160615,78
0.483457,0.031478,0.162168,72
0.484443,0.0314297,0.16347,70
0.483892,0.0314533,0.164247,69
0.485333,0.0313837,0.165712,71
0.488085,0.0312528,0.167641,76
0.487333,0.0312858,0.168354,72
0.488014,0.0312518,0.16957,71
0.488764,0.0312145,0.170814,71
0.488467,0.0312261,0.171689,73
0.489417,0.0311795,0.17301,76
0.492227,0.0310458,0.175007,71
0.491862,0.0310606,0.175865,79
0.491632,0.0310692,0.176771,77
0.491866,0.0310559,0.177848,80
0.492102,0.0310427,0.178927,77
0.492405,0.0310263,0.180032,72
0.492575,0.031016,0.181091,75
0.492546,0.0310151,0.182076,79
0.492585,0.0310111,0.183088,82
0.493695,0.0309568,0.184506,81
0.493198,0.0309778,0.185318,71
0.49277,0.0309956,0.186155,68
0.493548,0.0309569,0.187456,67
0.492986,0.030981,0.188242,72
0.492693,0.0309924,0.189131,64
0.492936,0.0309788,0.19023,73
0.490777,0.0310777,0.190386,67
0.491485,0.0310422,0.191668,70
0.490995,0.0310629,0.192477,68
0.491172,0.0310524,0.193552,66
0.489556,0.0311259,0.193908,62
0.490662,0.0310718,0.195357,59
0.490907,0.031058,0.196462,59
0.490021,0.0310973,0.197109,54
0.490266,0.0310835,0.198216,58
0.488721,0.0311537,0.198588,55
0.48943,0.0311182,0.199887,56
0.48822,0.0311727,0.200393,55
0.490655,0.0310561,0.202417,54
0.488578,0.0311513,0.202558,57
0.488693,0.0311436,0.203616,65
0.488808,0.031136,0.204675,66
0.488526,0.0311469,0.205567,70
0.488245,0.0311578,0.206459,68
0.487436,0.0311935,0.207124,65
0.487552,0.0311857,0.208186,63
0.487141,0.0312028,0.209021,66
0.486205,0.0312444,0.209626,66
0.485534,0.0312736,0.210344,62
0.487362,0.0311855,0.212161,67
0.487216,0.0311901,0.213114,61
0.488262,0.0311386,0.214597,59
0.487191,0.0311867,0.215139,68
0.487047,0.0311911,0.216094,68
0.488626,0.0311146,0.217827,64
0.487024,0.0311876,0.218126,66
0.374471,0.0343289,-0.177477,8
0.391624,0.0334218,-0.184802,7
1.21337,-0.00994771,-0.574237,6
0.546525,0.0252416,-0.256065,8
0.36095,0.0350356,-0.16802,8
0.218263,0.0425692,-0.101698,8
0.203195,0.0433642,-0.0944762,7
0.287073,0.0389321,-0.131912,8
0.446849,0.0304923,-0.204411,10
0.432979,0.0312227,-0.197129,8
0.734022,0.015321,-0.333857,9
0.898503,0.00663011,-0.407382,6
0.432603,0.0312364,-0.194248,9
0.434539,0.0311321,-0.194216,13
0.439088,0.0308897,-0.195346,10
0.432283,0.0312472,-0.191404,12
0.43096,0.0313151,-0.189921,12
0.436901,0.0309991,-0.191645,9
0.431453,0.031285,-0.188349,11
0.432653,0.0312196,-0.187979,9
0.428276,0.031449,-0.185182,14
0.432221,0.0312384,-0.186003,15
0.437185,0.0309739,-0.187247,11
0.431535,0.0312706,-0.183925,12
0.436532,0.0310043,-0.185166,10
0.43472,0.0310981,-0.183498,13
0.433803,0.0311446,-0.182216,13
0.434755,0.0310923,-0.181724,11
0.438601,0.0308868,-0.18244,9
0.434686,0.0310918,-0.179911,11
0.437528,0.0309395,-0.180196,10
0.438706,0.0308751,-0.179786,12
0.433346,0.0311568,-0.176691,13
0.432696,0.0311891,-0.175541,12
0.431691,0.0312403,-0.174249,12
0.435685,0.0310269,-0.174981,12
0.43322,0.0311554,-0.173102,8
0.433293,0.0311496,-0.172249,13
0.438944,0.0308483,-0.173615,11
0.443016,0.0306307,-0.174333,11
0.447382,0.0303974,-0.175152,12
0.442519,0.030653,-0.172339,12
0.435261,0.0310354,-0.168615,12
0.435543,0.0310185,-0.167843,16
0.524672,0.0262947,-0.201367,9
0.443623,0.0305863,-0.169179,13
0.436027,0.0309868,-0.165385,16
0.438192,0.0308701,-0.165326,15
0.439268,0.0308111,-0.164849,13
0.443175,0.030602,-0.16543,16
0.44154,0.0306866,-0.163928,18
0.436616,0.0309457,-0.161211,16
0.437371,0.0309037,-0.160612,15
0.434905,0.0310324,-0.158829,17
0.440417,0.0307382,-0.159969,13
0.44002,0.0307572,-0.158942,14
0.441902,0.0306555,-0.15874,17
0.443102,0.0305898,-0.158287,15
0.439941,0.0307555,-0.156272,22
0.441661,0.0306622,-0.156004,24
0.441795,0.0306531,-0.15517,25
0.443316,0.0305705,-0.154823,23
0.442649,0.0306039,-0.153706,16
0.44156,0.0306597,-0.152447,25
0.445495,0.0304488,-0.152927,20
0.443054,0.0305764,-0.151203,21
0.44303,0.0305757,-0.150315,26
0.446014,0.0304153,-0.150448,24
0.442078,0.0306222,-0.148236,27
0.443814,0.0305281,-0.147943,26
0.44283,0.0305783,-0.146736,27
0.444036,0.0305123,-0.14626,27
0.446435,0.0303829,-0.146172,31
0.444206,0.0304993,-0.144561,29
0.445688,0.0304186,-0.144167,32
0.444914,0.0304578,-0.143037,32
0.44678,0.0303567,-0.14276,35
0.44498,0.0304503,-0.141306,34
0.4469,0.0303463,-0.14104,32
0.446988,0.0303396,-0.14019,30
0.45002,0.0301765,-0.140262,25
0.448523,0.0302541,-0.138913,33
0.452184,0.0300575,-0.139167,32
0.450399,0.0301504,-0.137731,28
0.448738,0.0302367,-0.136342,24
0.449375,0.0302009,-0.135657,26
0.451663,0.0300772,-0.135469,31
0.45005,0.030161,-0.134103,35
0.449322,0.0301977,-0.133008,39
0.449797,0.0301705,-0.132272,40
0.451647,0.0300701,-0.131939,42
0.453069,0.0299925,-0.131475,44
0.452222,0.0300356,-0.130347,39
0.452096,0.0300403,-0.129432,40
0.453965,0.0299389,-0.129088,39
0.45179,0.0300526,-0.127588,38
0.45561,0.0298474,-0.12779,37
0.454366,0.0299116,-0.126558,37
0.454407,0.0299074,-0.125689,35
0.456858,0.0297749,-0.125486,39
0.455329,0.0298543,-0.124183,40
0.454925,0.0298738,-0.123192,39
0.455304,0.0298517,-0.122416,40
0.455125,0.0298592,-0.121489,37
0.456907,0.0297624,-0.121086,43
0.456952,0.029758,-0.120217,40
0.457054,0.0297506,-0.119363,39
0.460616,0.0295588,-0.119412,41
0.459352,0.0296242,-0.118199,44
0.457926,0.0296981,-0.116949,47
0.459333,0.0296212,-0.116428,45
0.460006,0.0295833,-0.115716,46
0.459486,0.029609,-0.114703,51
0.460161,0.0295711,-0.11399,47
0.460667,0.0295421,-0.113234,51
0.460147,0.0295678,-0.112224,50
0.460255,0.0295601,-0.111369,51
0.460705,0.0295341,-0.110598,54
0.460586,0.0295385,-0.109689,56
0.459955,0.0295701,-0.108659,59
0.461148,0.0295046,-0.108062,59
0.461201,0.0294997,-0.107195,55
0.462286,0.0294399,-0.106568,62
0.461767,0.0294656,-0.105568,55
0.462568,0.0294209,-0.104871,61
0.460964,0.0295044,-0.103628,59
0.461763,0.0294598,-0.102931,59
0.461305,0.0294823,-0.101952,61
0.460963,0.0294985,-0.101,62
0.462279,0.0294264,-0.100412,66
0.461879,0.0294457,-0.0994491,69
0.46297,0.0293855,-0.0988076,70
0.462284,0.0294201,-0.0977845,71
0.461658,0.0294516,-0.0967772,67
0.462005,0.0294311,-0.095976,65
0.460982,0.0294837,-0.0948905,69
0.460475,0.0295088,-0.0939153,65
0.461448,0.0294549,-0.0932431,71
0.461397,0.0294556,-0.0923616,69
0.460778,0.0294867,-0.0913675,68
0.462153,0.0294113,-0.0907701,65
0.462505,0.0293906,-0.0899676,68
0.461941,0.0294187,-0.0889872,67
0.461665,0.0294315,-0.0880645,69
0.461162,0.0294564,-0.0871004,70
0.460548,0.0294873,-0.0861176,77
0.460956,0.0294635,-0.0853278,76
0.459439,0.0295426,-0.0841826,72
0.460186,0.0295007,-0.083456,75
0.459973,0.0295102,-0.0825539,74
0.459366,0.0295407,-0.0815827,77
0.458761,0.0295711,-0.0806147,79
0.458944,0.0295593,-0.0797872,81
0.459297,0.0295385,-0.0789886,77
0.459032,0.0295507,-0.0780835,80
0.457647,0.0296228,-0.0769906,85
0.456939,0.0296588,-0.0760166,85
0.457013,0.0296529,-0.0751747,88
0.456808,0.0296619,-0.0742875,91
0.458953,0.0295453,-0.0737805,95
0.457516,0.0296202,-0.0726948,91
0.456368,0.0296797,-0.0716602,90
0.457558,0.0296141,-0.0709945,83
0.457803,0.0295991,-0.0701793,82
0.454828,0.0297563,-0.0688745,81
0.456345,0.0296732,-0.068255,84
0.455261,0.0297293,-0.067245,84
0.455396,0.0297202,-0.0664177,86
0.454869,0.0297465,-0.0654947,95
0.454839,0.0297461,-0.0646448,94
0.453437,0.0298193,-0.0636026,96
0.454341,0.029769,-0.0628858,96
0.453765,0.0297979,-0.0619633,94
0.452918,0.0298414,-0.0610069,95
0.452782,0.0298467,-0.0601486,106
0.452158,0.0298783,-0.0592271,110
0.452079,0.0298806,-0.0583787,113
0.452163,0.0298742,-0.0575518,109
0.452357,0.0298619,-0.0567387,115
0.452334,0.0298612,-0.0558983,111
0.451606,0.0298984,-0.0549723,107
0.452617,0.0298423,-0.0542581,101
0.452541,0.0298445,-0.053412,103
0.453393,0.0297969,-0.0526743,102
0.453155,0.0298078,-0.051809,100
0.452972,0.0298158,-0.0509512,103
0.453608,0.0297798,-0.0501849,109
0.453153,0.0298023,-0.0492978,108
0.453026,0.0298072,-0.0484479,107
0.454541,0.0297241,-0.047771,109
0.453867,0.0297583,-0.0468629,107
0.45594,0.0296453,-0.0462359,102
0.454438,0.0297239,-0.045246,108
0.454973,0.0296933,-0.0444606,110
0.455344,0.0296715,-0.0436578,113
0.45522,0.0296763,-0.0428074,117
0.454274,0.0297251,-0.0418821,125
0.454207,0.0297268,-0.0410397,128
0.454799,0.0296932,-0.040256,128
0.45413,0.0297272,-0.0393614,127
0.454778,0.0296905,-0.0385807,135
0.455208,0.0296656,-0.0377799,135
0.455309,0.0296583,-0.0369511,126
0.454971,0.0296745,-0.0360874,127
0.455403,0.0296494,-0.0352846,123
0.455396,0.0296479,-0.0344473,127
0.45572,0.0296286,-0.0336345,122
0.45621,0.0296004,-0.0328326,127
0.45615,0.0296018,-0.0319907,127
0.456864,0.0295615,-0.0312017,128
0.456362,0.0295866,-0.0303301,134
0.456857,0.0295581,-0.0295243,136
0.456578,0.0295712,-0.0286687,137
0.456908,0.0295516,-0.027851,138
0.457128,0.0295379,-0.0270259,136
0.457127,0.029536,-0.0261876,131
0.456684,0.0295579,-0.0253252,130
0.456962,0.0295411,-0.0245026,133
0.457018,0.0295362,-0.023668,133
0.45763,0.0295014,-0.0228605,133
0.457911,0.0294844,-0.0220352,128
0.458415,0.0294554,-0.0212192,131
0.458977,0.0294233,-0.0204039,135
0.458925,0.0294242,-0.0195611,140
0.459154,0.02941,-0.0187297,144
0.458937,0.0294198,-0.0178805,145
0.459279,0.0293995,-0.0170526,149
0.459398,0.0293912,-0.0162157,148
0.459294,0.0293949,-0.0153713,148
0.459694,0.0293715,-0.0145428,147
0.46004,0.029351,-0.0137114,148
0.460781,0.0293092,-0.0128893,141
0.460454,0.0293249,-0.0120378,142
0.461931,0.0292435,-0.0112295,131
0.461717,0.0292531,-0.0103795,135
0.462126,0.0292292,-0.00954263,135
0.462026,0.0292327,-0.00869527,140
0.462267,0.0292178,-0.0078537,138
0.461603,0.0292516,-0.00699864,140
0.462071,0.0292245,-0.00615978,145
0.462257,0.0292126,-0.00531632,144
0.463524,0.0291425,-0.00448127,138
0.46377,0.0291274,-0.00363486,138
0.464245,0.0290998,-0.00278862,133
0.464378,0.0290907,-0.00193965,137
0.464055,0.0291062,-0.00108975,136
0.463619,0.0291278,-0.000241133,135
0.464555,0.0290755,0.000609609,138
0.464005,0.0291032,0.00145703,132
0.464771,0.02906,0.0023109,127
0.465081,0.0290414,0.00316386,123
0.465163,0.029035,0.00401567,123
0.465475,0.0290163,0.00487058,124
0.465846,0.0289944,0.00572751,133
0.465872,0.0289911,0.00658044,136
0.467227,0.0289161,0.00745686,138
0.46633,0.0289625,0.00829462,127
0.468097,0.0288654,0.00918577,123
0.46801,0.0288681,0.0100407,121
0.467112,0.0289146,0.0108751,116
0.467897,0.0288703,0.0117514,112
0.468278,0.0288479,0.012619,112
0.468194,0.0288505,0.013474,111
0.468868,0.0288122,0.0143534,114
0.470307,0.0287326,0.0152615,117
0.468703,0.0288172,0.0160652,120
0.469732,0.0287597,0.016963,117
0.469359,0.0287779,0.0178088,114
0.468987,0.028796,0.0186535,109
0.469609,0.0287605,0.0195402,113
0.470528,0.028709,0.0204427,117
0.471274,0.0286668,0.0213407,117
0.472024,0.0286244,0.0222418,120
0.47112,0.0286712,0.0230614,119
0.472166,0.0286128,0.0239809,122
0.472921,0.0285701,0.0248885,120
0.473858,0.0285176,0.0258094,122
0.474919,0.0284583,0.0267412,133
0.474905,0.0284571,0.0276122,131
0.477362,0.0283225,0.028637,128
0.4759,0.0283995,0.0294201,126
0.475707,0.0284079,0.0302817,120
0.476661,0.0283544,0.0312204,121
0.476228,0.0283758,0.0320662,124
0.476701,0.0283483,0.0329755,128
0.477358,0.0283108,0.0339001,128
0.477713,0.0282896,0.0348048,133
0.478009,0.0282716,0.0357065,134
0.47776,0.0282831,0.0365663,141
0.477451,0.0282979,0.0374206,133
0.477385,0.0282994,0.0382942,136
0.478535,0.0282353,0.0392705,128
0.477013,0.0283156,0.0400204,127
0.477252,0.0283006,0.0409204,130
0.476645,0.0283315,0.0417452,133
0.476825,0.0283198,0.0426404,134
0.476159,0.0283538,0.0434572,131
0.476945,0.0283093,0.0444107,134
0.477249,0.0282909,0.0453203,140
0.477433,0.028279,0.0462194,135
0.476829,0.0283096,0.0470397,142
0.476287,0.0283369,0.0478644,140
0.475748,0.0283641,0.0486876,144
0.478542,0.028211,0.0498656,141
0.479832,0.0281392,0.0508907,146
0.477458,0.0282656,0.0515152,142
0.476737,0.0283026,0.0523172,139
0.477837,0.0282411,0.0533253,138
0.47748,0.0282584,0.0541684,138
0.478037,0.0282263,0.0551184,137
0.478108,0.0282205,0.0560125,136
0.477206,0.0282673,0.0567886,139
0.477886,0.0282285,0.0577575,139
0.477898,0.0282258,0.0586453,131
0.477424,0.0282495,0.0594715,132
0.477924,0.0282204,0.0604224,129
0.47733,0.0282506,0.0612317,131
0.476374,0.0283003,0.061991,125
0.476511,0.0282909,0.0628947,124
0.476891,0.0282683,0.0638326,128
0.475214,0.0283571,0.0644866,130
0.47481,0.028377,0.0653139,131
0.474828,0.0283741,0.0662002,133
0.473945,0.0284199,0.0669568,128
0.473485,0.0284428,0.0677724,132
0.472728,0.0284818,0.0685425,130
0.472748,0.0284788,0.0694269,131
0.472411,0.028495,0.0702575,125
0.471659,0.0285338,0.0710233,126
0.471622,0.0285338,0.0718981,126
0.470518,0.0285916,0.072605,127
0.47001,0.0286172,0.0734031,118
0.471039,0.0285594,0.0744481,119
0.468939,0.0286713,0.074986,119
0.469906,0.0286169,0.0760234,116
0.468461,0.0286933,0.0766615,117
0.469133,0.0286548,0.0776527,118
0.470518,0.0285777,0.0787687,124
0.467721,0.0287275,0.0791675,133
0.467807,0.0287208,0.08006,139
0.467426,0.0287395,0.0808708,147
0.466173,0.0288055,0.0815248,148
0.466202,0.0288019,0.082406,151
0.465825,0.0288204,0.0832137,153
0.465682,0.0288262,0.0840634,157
0.465075,0.0288571,0.0848269,151
0.464528,0.0288848,0.0855998,154
0.464272,0.0288968,0.0864262,156
0.463325,0.0289462,0.0871197,154
0.462497,0.0289892,0.0878332,153
0.462473,0.0289885,0.0887012,154
0.462392,0.0289909,0.0895585,155
0.461969,0.0290119,0.0903476,153
0.461376,0.0290422,0.0911013,150
0.46204,0.0290041,0.0921089,149
0.460934,0.0290622,0.0927565,148
0.460458,0.0290861,0.0935308,144
0.459814,0.0291191,0.0942685,142
0.460021,0.0291059,0.095184,144
0.459492,0.0291326,0.0959441,139
0.458964,0.0291593,0.096703,143
0.459286,0.0291399,0.0976443,139
0.458365,0.029188,0.0983159,131
0.45801,0.0292053,0.0991093,121
0.458614,0.0291705,0.100115,124
0.458317,0.0291847,0.100922,126
0.458697,0.0291621,0.101881,123
0.458795,0.0291547,0.102778,124
0.458612,0.0291627,0.103611,120
0.459278,0.0291245,0.104641,120
0.459266,0.0291232,0.105515,127
0.459765,0.0290941,0.106511,123
0.460722,0.02904,0.107618,129
0.460711,0.0290386,0.108498,130
0.460473,0.0290496,0.109322,135
0.461321,0.0290015,0.110412,129
0.460568,0.0290404,0.111112,128
0.461075,0.0290109,0.112121,125
0.460666,0.0290311,0.112905,123
0.460602,0.0290326,0.113774,119
0.461627,0.0289748,0.11492,120
0.461736,0.0289669,0.115836,119
0.46173,0.0289652,0.116724,112
0.461381,0.0289822,0.117523,106
0.462816,0.028902,0.118788,105
0.46264,0.0289096,0.119635,107
0.462175,0.0289329,0.120406,105
0.462519,0.0289122,0.121391,107
0.463443,0.0288598,0.122534,113
0.462458,0.0289114,0.123165,112
0.463267,0.0288653,0.124281,111
0.463673,0.0288412,0.125291,110
0.463267,0.0288612,0.126079,103
0.463501,0.0288465,0.127043,98
0.463793,0.0288285,0.128026,98
0.463853,0.0288232,0.128945,97
0.464614,0.0287797,0.130064,99
0.464501,0.0287838,0.130937,101
0.464797,0.0287656,0.131928,97
0.466034,0.0286962,0.133194,102
0.466275,0.028681,0.134174,99
0.466871,0.0286464,0.13526,97
0.468003,0.0285826,0.136509,95
0.46813,0.0285737,0.137463,98
0.468376,0.0285582,0.138453,98
0.469878,0.0284742,0.139826,100
0.470668,0.028429,0.140988,96
0.470439,0.0284395,0.141842,98
0.47069,0.0284236,0.142843,92
0.471003,0.0284045,0.143866,95
0.472043,0.0283457,0.145118,88
0.472723,0.0283064,0.146261,89
0.473163,0.0282803,0.147332,94
0.473422,0.0282641,0.148348,96
0.474906,0.028181,0.149758,90
0.474615,0.0281948,0.150603,87
0.475924,0.0281212,0.151966,85
0.475079,0.0281652,0.152633,83
0.476145,0.0281049,0.153924,81
0.477341,0.0280374,0.155263,85
0.477423,0.0280308,0.156237,80
0.480699,0.0278498,0.158281,79
0.480533,0.0278567,0.159181,77
0.481503,0.0278016,0.160465,78
0.483179,0.0277079,0.161994,72
0.483395,0.0276939,0.163031,75
0.484894,0.0276098,0.164512,79
0.484664,0.0276202,0.1654,73
0.484884,0.027606,0.166445,70
0.485684,0.0275601,0.167696,73
0.488114,0.0274251,0.169524,69
0.486454,0.0275136,0.169914,71
0.488894,0.0273781,0.171759,72
0.487684,0.0274419,0.172307,74
0.48968,0.0273307,0.174006,72
0.490503,0.0272834,0.175289,79
0.492725,0.0271597,0.177086,80
0.49077,0.0272644,0.177362,81
0.493197,0.0271294,0.179246,76
0.490907,0.0272524,0.179392,72
0.492204,0.0271792,0.180867,79
0.492242,0.0271749,0.181876,76
0.491217,0.0272287,0.182486,77
0.490394,0.0272715,0.183169,75
0.492624,0.0271472,0.185013,71
0.492064,0.0271756,0.185797,72
0.493575,0.0270907,0.187378,72
0.491879,0.0271812,0.187725,71
0.491654,0.0271913,0.188638,68
0.490301,0.0272631,0.18911,64
0.489285,0.0273164,0.189709,66
0.49065,0.0272394,0.191247,71
0.489039,0.0273254,0.191609,66
0.489808,0.027281,0.192915,67
0.489389,0.0273017,0.193749,56
0.488575,0.027344,0.194422,57
0.487304,0.0274113,0.194909,52
0.488597,0.0273383,0.196435,51
0.488246,0.0273552,0.197295,51
0.488357,0.0273469,0.198344,49
0.490522,0.027226,0.200244,51
0.487528,0.0273878,0.200009,54
0.487903,0.0273649,0.201171,53
0.486506,0.0274392,0.201591,62
0.487603,0.0273768,0.203059,60
0.487651,0.0273719,0.204087,60
0.487107,0.0273994,0.204864,64
0.486959,0.0274053,0.20581,71
0.484979,0.0275115,0.205967,69
0.486008,0.0274529,0.207418,65
0.486451,0.0274263,0.208621,61
0.485388,0.0274823,0.209168,63
0.488068,0.0273331,0.211354,55
0.486538,0.0274147,0.211697,59
0.485671,0.0274599,0.212328,59
0.486906,0.0273899,0.213891,58
0.48663,0.0274027,0.214785,66
0.485567,0.0274588,0.215326,56
0.485751,0.0274463,0.216426,58
0.485674,0.0274483,0.217409,56
0.55188,0.0206426,-0.261997,9
0.432551,0.0278776,-0.204086,9
0.274321,0.0374749,-0.128847,7
0.35643,0.0324916,-0.166538,7
0.444185,0.0271656,-0.206806,8
0.200335,0.0419619,-0.0934696,7
0.451647,0.0267086,-0.208407,8
0.388733,0.0305244,-0.178419,8
0.469029,0.0256494,-0.214517,7
0.43007,0.0280118,-0.195691,9
0.436042,0.0276473,-0.197514,6
0.433963,0.0277714,-0.195662,9
0.491579,0.0242717,-0.220798,7
0.429158,0.0280591,-0.191694,10
0.433587,0.0277881,-0.192783,7
0.427771,0.0281392,-0.189293,8
0.43145,0.0279138,-0.190034,10
0.428207,0.0281088,-0.18771,8
0.433231,0.0278016,-0.189028,8
0.437845,0.0275193,-0.190146,10
0.433262,0.0277956,-0.187248,10
0.436191,0.0276157,-0.187621,14
0.431341,0.0279083,-0.184631,8
0.43471,0.0277016,-0.185186,15
0.431375,0.0279022,-0.182868,10
0.437199,0.0275463,-0.184452,14
0.434968,0.0276799,-0.182611,8
0.429445,0.0280135,-0.179396,10
0.433553,0.0277618,-0.180233,8
0.434502,0.0277021,-0.179739,11
0.437389,0.0275246,-0.180044,8
0.431556,0.0278772,-0.176745,9
0.433011,0.0277868,-0.176459,8
0.436868,0.0275502,-0.177148,10
0.439201,0.0274063,-0.177204,9
0.439749,0.027371,-0.176529,10
0.435363,0.0276357,-0.173871,7
0.43747,0.0275056,-0.173827,9
0.434008,0.0277141,-0.17156,13
0.430605,0.0279192,-0.169332,9
0.442994,0.0271635,-0.173335,11
0.442478,0.0271928,-0.172235,11
0.308515,0.0353426,-0.119353,7
0.435048,0.0276409,-0.167562,10
0.434915,0.027647,-0.166631,10
0.440326,0.0273157,-0.167827,16
0.440931,0.0272768,-0.167169,13
0.437113,0.0275072,-0.16483,12
0.439127,0.0273826,-0.164709,12
0.439256,0.0273728,-0.163873,14
0.436717,0.0275254,-0.162041,17
0.43941,0.0273594,-0.162163,13
0.436663,0.0275247,-0.160266,15
0.437052,0.027499,-0.159533,16
0.432446,0.0277776,-0.156974,14
0.439773,0.0273293,-0.158769,17
0.440432,0.0272872,-0.158127,19
0.438828,0.0273829,-0.15667,25
0.441014,0.0272478,-0.156574,26
0.440512,0.0272764,-0.155515,21
0.440698,0.0272631,-0.154702,20
0.441095,0.0272369,-0.153963,23
0.441971,0.0271815,-0.15339,24
0.440149,0.0272906,-0.151878,20
0.44118,0.0272257,-0.151359,24
0.440945,0.0272381,-0.150402,26
0.447403,0.0268425,-0.151731,26
0.444516,0.0270164,-0.149863,26
0.443849,0.0270551,-0.148758,23
0.444522,0.0270121,-0.148104,27
0.442737,0.0271189,-0.14663,25
0.444369,0.0270174,-0.146295,27
0.444026,0.0270364,-0.145304,29
0.444914,0.0269802,-0.144719,35
0.444892,0.0269796,-0.143834,31
0.445139,0.0269625,-0.143037,35
0.446248,0.0268929,-0.142517,34
0.446605,0.0268692,-0.141753,35
0.447287,0.0268255,-0.141092,35
0.447158,0.0268314,-0.140172,36
0.447734,0.0267943,-0.139475,30
0.44804,0.0267736,-0.138692,27
0.452462,0.0265018,-0.139184,26
0.450402,0.0266255,-0.137664,21
0.448744,0.0267247,-0.136275,27
0.452789,0.0264758,-0.136627,32
0.452493,0.0264919,-0.135653,34
0.449399,0.0266788,-0.133841,34
0.450256,0.0266245,-0.13322,32
0.451997,0.0265162,-0.132857,37
0.451594,0.0265388,-0.131858,40
0.452792,0.0264637,-0.131329,36
0.452333,0.0264897,-0.130315,34
0.453701,0.0264041,-0.12983,42
0.453131,0.026437,-0.128786,44
0.452232,0.0264899,-0.127651,38
0.453545,0.0264077,-0.127145,37
0.452425,0.0264742,-0.125952,34
0.453905,0.0263817,-0.125488,36
0.455172,0.0263023,-0.124959,33
0.45488,0.0263182,-0.123999,38
0.455816,0.026259,-0.123375,35
0.456084,0.0262406,-0.122567,34
0.45742,0.026157,-0.122046,39
0.456228,0.0262278,-0.120846,41
0.456329,0.0262197,-0.119994,36
0.458232,0.0261014,-0.119615,40
0.458617,0.0260759,-0.118834,44
0.458833,0.0260606,-0.118008,48
0.457582,0.0261352,-0.116804,43
0.459551,0.0260127,-0.116428,49
0.458749,0.0260598,-0.115343,45
0.458064,0.0260997,-0.114291,45
0.459924,0.0259839,-0.113877,52
0.45986,0.0259859,-0.11298,46
0.460081,0.0259704,-0.112154,52
0.459961,0.0259757,-0.111245,48
0.460809,0.0259219,-0.11057,53
0.460576,0.0259341,-0.109634,53
0.459946,0.0259707,-0.108605,59
0.461137,0.0258958,-0.108009,59
0.459882,0.0259706,-0.106836,60
0.460561,0.0259271,-0.106117,67
0.461185,0.0258869,-0.105384,60
0.462326,0.0258151,-0.104766,62
0.461581,0.0258587,-0.103719,62
0.463127,0.0257621,-0.103188,56
0.461408,0.0258653,-0.101926,59
0.461808,0.0258388,-0.101138,59
0.460556,0.0259135,-0.0999887,59
0.461525,0.0258522,-0.0993254,63
0.46056,0.0259094,-0.0982437,62
0.461074,0.0258759,-0.0974809,65
0.461761,0.0258318,-0.0967531,67
0.461252,0.025861,-0.0957733,67
0.460801,0.0258867,-0.0948081,68
0.46092,0.0258774,-0.0939619,72
0.461893,0.0258158,-0.0932894,69
0.460875,0.0258763,-0.0922128,73
0.460712,0.0258843,-0.0913109,72
0.460549,0.0258923,-0.0904104,71
0.460727,0.0258794,-0.0895776,75
0.460906,0.0258665,-0.0887447,75
0.460915,0.025864,-0.0878791,68
0.460415,0.0258927,-0.0869172,69
0.460539,0.0258831,-0.086075,73
0.460323,0.0258944,-0.0851697,74
0.460505,0.0258813,-0.0843387,76
0.460687,0.0258682,-0.0835076,80
0.459401,0.0259451,-0.0824115,79
0.458852,0.0259768,-0.0814522,76
0.460049,0.0259015,-0.0808037,76
0.458097,0.0260193,-0.079601,79
0.45856,0.0259889,-0.0788236,73
0.457905,0.0260272,-0.0778536,81
0.457252,0.0260653,-0.0768869,79
0.457548,0.0260452,-0.0760818,82
0.457454,0.026049,-0.0752115,83
0.456472,0.0261073,-0.0741968,85
0.457492,0.0260428,-0.0735095,89
0.456677,0.0260909,-0.072526,88
0.455645,0.0261523,-0.0715118,86
0.45633,0.0261083,-0.0707693,84
0.455964,0.0261288,-0.0698628,88
0.455434,0.0261595,-0.0689332,88
0.456065,0.0261188,-0.0681802,88
0.454874,0.02619,-0.0671552,92
0.453308,0.0262843,-0.0660801,92
0.454209,0.0262271,-0.0653676,98
0.453249,0.0262841,-0.0643869,94
0.453057,0.026294,-0.063518,98
0.45281,0.0263072,-0.0626428,94
0.452239,0.0263404,-0.0617243,103
0.451074,0.02641,-0.0607282,105
0.451427,0.0263865,-0.0599389,105
0.45124,0.0263961,-0.0590776,105
0.451594,0.0263724,-0.0582874,114
0.451029,0.0264053,-0.0573791,107
0.451439,0.0263782,-0.0565955,116
0.45093,0.0264076,-0.0556971,116
0.451935,0.0263439,-0.0549856,109
0.451264,0.0263833,-0.0540693,106
0.451514,0.0263661,-0.0532646,104
0.452035,0.0263321,-0.0524908,104
0.452558,0.0262981,-0.0517156,103
0.451779,0.0263441,-0.0507922,103
0.452032,0.0263267,-0.0499861,105
0.453046,0.0262624,-0.0492623,110
0.45243,0.0262984,-0.0483606,111
0.453557,0.0262272,-0.0476445,108
0.45256,0.0262866,-0.0467054,105
0.453634,0.0262187,-0.04598,103
0.452584,0.0262814,-0.0450398,105
0.454369,0.0261697,-0.0443803,105
0.452719,0.0262693,-0.0433855,109
0.453359,0.0262281,-0.0426121,117
0.453292,0.0262303,-0.0417715,118
0.453498,0.0262157,-0.040956,124
0.453923,0.0261877,-0.0401593,126
0.453204,0.0262301,-0.0392624,130
0.453411,0.0262154,-0.0384467,128
0.454111,0.0261705,-0.0376711,132
0.453611,0.0261993,-0.0367962,132
0.453876,0.0261812,-0.0359837,120
0.454032,0.0261697,-0.035162,129
0.45534,0.0260873,-0.0344266,125
0.45391,0.0261734,-0.0334857,127
0.454779,0.026118,-0.0327147,124
0.454117,0.0261569,-0.0318339,126
0.455208,0.0260878,-0.0310747,129
0.455204,0.0260862,-0.0302393,131
0.455971,0.0260371,-0.0294535,139
0.455803,0.0260455,-0.0286069,139
0.455691,0.0260505,-0.0277644,147
0.45602,0.0260284,-0.0269483,144
0.455524,0.026057,-0.0260844,146
0.454976,0.0260889,-0.0252196,139
0.456075,0.0260193,-0.0244442,137
0.458624,0.0258604,-0.0237389,142
0.45807,0.0258926,-0.0228715,134
0.457462,0.0259282,-0.0220037,132
0.458632,0.0258542,-0.0212192,133
0.457469,0.025924,-0.0203287,134
0.457529,0.0259184,-0.0194936,135
0.457978,0.0258888,-0.018674,141
0.457651,0.0259071,-0.0178233,141
0.458158,0.025874,-0.0170041,145
0.458498,0.025851,-0.0161774,146
0.458618,0.0258418,-0.0153423,151
0.458905,0.0258222,-0.014512,150
0.459472,0.0257853,-0.0136888,150
0.459091,0.0258069,-0.0128379,147
0.459884,0.0257561,-0.0120181,140
0.46012,0.0257397,-0.0111823,143
0.462725,0.0255771,-0.0103965,126
0.461607,0.0256441,-0.00952828,145
0.462411,0.0255926,-0.00869827,147
0.46034,0.0257185,-0.00781981,154
0.461705,0.0256323,-0.00699706,149
0.461552,0.0256399,-0.00615088,148
0.46321,0.0255357,-0.00532389,146
0.462036,0.0256062,-0.00446697,143
0.46296,0.0255472,-0.00362815,140
0.461677,0.0256245,-0.00277556,145
0.462487,0.0255726,-0.00193368,143
0.463301,0.0255205,-0.00108879,136
0.463094,0.0255313,-0.000241777,133
0.46357,0.0255,0.000606342,133
0.463934,0.0254756,0.00145573,130
0.463558,0.0254969,0.00230172,117
0.463809,0.0254795,0.00315153,119
0.463264,0.0255113,0.00399423,119
0.464143,0.0254551,0.00485203,126
0.465427,0.0253738,0.00571875,127
0.465224,0.0253845,0.0065669,126
0.465193,0.0253844,0.00741738,124
0.46614,0.025324,0.00828678,123
0.466745,0.0252847,0.00915249,121
0.467121,0.0252595,0.0100152,115
0.46744,0.0252379,0.010878,114
0.468691,0.0251587,0.011767,113
0.467677,0.0252194,0.0125957,118
0.468057,0.025194,0.0134634,119
0.468265,0.0251792,0.0143269,125
0.467718,0.0252111,0.0151655,125
0.468682,0.0251495,0.0160567,125
0.469651,0.0250877,0.0169518,120
0.468579,0.025152,0.0177693,122
0.468849,0.0251334,0.0186389,120
0.469353,0.0251003,0.0195198,120
0.469275,0.0251032,0.0203762,119
0.470485,0.0250264,0.0212934,115
0.470819,0.0250038,0.0221722,121
0.470742,0.0250066,0.0230314,117
0.471608,0.0249511,0.0239403,116
0.473012,0.0248623,0.024882,123
0.472462,0.0248943,0.0257186,126
0.473456,0.0248309,0.0266434,128
0.473561,0.0248224,0.0275185,129
0.473905,0.0247992,0.0284091,130
0.475808,0.0246795,0.0294009,134
0.475075,0.0247228,0.0302263,133
0.475124,0.0247179,0.0311021,138
0.475593,0.0246868,0.0320076,136
0.475344,0.0247003,0.0328636,129
0.476116,0.0246505,0.0337938,129
0.47659,0.0246192,0.0347047,133
0.476281,0.0246364,0.0355572,133
0.476998,0.02459,0.0364898,131
0.476449,0.024622,0.0373229,132
0.476564,0.0246129,0.0382092,132
0.476017,0.0246448,0.0390401,127
0.476074,0.0246393,0.0399213,131
0.476372,0.0246188,0.0408243,133
0.476309,0.0246207,0.0416962,129
0.477154,0.0245665,0.0426516,132
0.47679,0.024587,0.0434969,122
0.476669,0.0245925,0.0443644,126
0.476851,0.0245792,0.0452612,126
0.476671,0.0245884,0.046123,130
0.476734,0.0245825,0.047009,143
0.47716,0.0245541,0.0479331,148
0.477225,0.0245481,0.048821,145
0.477169,0.0245496,0.0496965,152
0.476508,0.0245885,0.0505063,154
0.476998,0.0245562,0.0514413,143
0.478462,0.0244634,0.0524882,131
0.477983,0.0244911,0.0533184,129
0.478357,0.024466,0.0542463,134
0.478427,0.0244596,0.0551401,133
0.477524,0.0245136,0.0559176,131
0.47796,0.0244846,0.0568553,134
0.476758,0.0245571,0.057592,138
0.477193,0.0245281,0.0585307,132
0.4766,0.0245629,0.0593399,127
0.476613,0.0245601,0.0602258,131
0.476748,0.0245497,0.0611281,131
0.477795,0.0244828,0.0621528,134
0.477567,0.0244949,0.0630095,124
0.476553,0.0245558,0.0637578,127
0.475422,0.024624,0.0644866,133
0.475078,0.0246433,0.0653223,132
0.474495,0.0246775,0.066123,133
0.475115,0.0246371,0.0670958,129
0.473395,0.0247418,0.0677286,136
0.472699,0.024783,0.0685071,133
0.472064,0.0248204,0.0692928,133
0.472263,0.024806,0.0702032,130
0.472642,0.0247805,0.0711425,127
0.470942,0.0248841,0.0717595,125
0.471024,0.024877,0.0726517,120
0.469925,0.0249432,0.073356,121
0.469537,0.0249654,0.0741714,119
0.469385,0.0249728,0.0750244,122
0.469998,0.0249327,0.0760039,113
0.468965,0.0249949,0.0767106,117
0.469167,0.0249804,0.0776229,116
0.467613,0.025075,0.0782359,124
0.468517,0.0250168,0.0792687,133
0.468545,0.0250131,0.0801522,139
0.467988,0.0250457,0.0809328,146
0.46621,0.0251542,0.0814937,143
0.466414,0.0251395,0.082406,149
0.465805,0.0251754,0.0831714,157
0.465198,0.0252111,0.0839353,158
0.464421,0.0252574,0.0846656,159
0.463589,0.0253072,0.0853831,156
0.464081,0.0252746,0.0863495,157
0.463308,0.0253207,0.0870756,165
0.463398,0.0253131,0.0879665,165
0.462858,0.0253447,0.0887348,168
0.462091,0.0253904,0.0894568,164
0.46224,0.0253792,0.090359,162
0.462446,0.0253644,0.091274,150
0.461682,0.02541,0.0919928,148
0.461604,0.0254128,0.0928501,148
0.460502,0.0254794,0.0934955,145
0.460539,0.0254751,0.0943753,152
0.460065,0.0255026,0.0951481,145
0.459028,0.0255651,0.0957996,147
0.459745,0.0255186,0.0968245,138
0.458485,0.025595,0.0974241,135
0.457792,0.0256361,0.0981436,128
0.458,0.0256212,0.0990596,122
0.459281,0.0255395,0.100216,126
0.4578,0.0256298,0.100757,119
0.458573,0.0255797,0.101804,118
0.458446,0.0255856,0.102649,117
0.459563,0.0255141,0.10378,107
0.458701,0.0255658,0.104457,113
0.458632,0.0255681,0.105317,116
0.459185,0.0255317,0.106324,122
0.45906,0.0255375,0.107172,124
0.460241,0.0254619,0.108334,126
0.460915,0.025418,0.109378,131
0.460164,0.0254627,0.110078,131
0.460041,0.0254684,0.11093,127
0.460431,0.0254421,0.111909,127
0.460082,0.0254619,0.112706,124
0.459733,0.0254816,0.113502,125
0.460124,0.0254552,0.114485,127
0.46086,0.0254074,0.115558,123
0.46074,0.0254129,0.116414,115
0.460849,0.0254041,0.11733,112
0.46251,0.0252986,0.118653,107
0.462333,0.0253075,0.119499,108
0.461582,0.0253523,0.120192,110
0.461752,0.0253397,0.121129,105
0.462441,0.0252948,0.122208,107
0.461978,0.0253216,0.122977,105
0.462208,0.0253053,0.123934,104
0.462092,0.0253104,0.124798,111
0.463422,0.0252255,0.126062,109
0.461978,0.0253135,0.126559,102
0.463366,0.0252249,0.127846,98
0.463078,0.0252408,0.128666,103
0.463255,0.0252278,0.129617,97
0.464421,0.025153,0.130853,99
0.465536,0.0250814,0.13208,98
0.464955,0.0251156,0.132819,105
0.465487,0.0250803,0.133882,101
0.466139,0.0250376,0.134983,96
0.466911,0.0249874,0.136123,99
0.46977,0.0248069,0.13789,98
0.467932,0.0249195,0.138257,98
0.46806,0.0249095,0.139212,93
0.468485,0.0248809,0.140259,91
0.46915,0.0248372,0.141383,97
0.46946,0.0248159,0.142399,94
0.47043,0.0247532,0.143623,96
0.470022,0.0247766,0.144421,95
0.469675,0.0247962,0.145237,95
0.471673,0.0246693,0.146795,95
0.471626,0.0246701,0.14771,95
0.472732,0.024599,0.148995,88
0.473477,0.0245503,0.150169,89
0.474532,0.0244823,0.151448,84
0.472962,0.0245782,0.151874,85
0.475304,0.0244298,0.15358,77
0.475384,0.0244227,0.154548,81
0.477877,0.0242648,0.15632,79
0.477215,0.024304,0.157047,77
0.479606,0.0241525,0.1588,78
0.481075,0.0240585,0.160251,74
0.481035,0.0240588,0.161195,77
0.481628,0.0240196,0.162356,77
0.481906,0.0240001,0.163412,79
0.48282,0.0239407,0.164691,72
0.483931,0.0238691,0.166043,71
0.483895,0.0238692,0.166997,71
0.485077,0.0237931,0.168383,72
0.486784,0.0236841,0.16996,73
0.486685,0.0236881,0.1709,75
0.487234,0.0236515,0.172073,73
0.488765,0.0235536,0.173604,75
0.48834,0.023578,0.174432,78
0.490077,0.0234671,0.176048,79
0.489914,0.023475,0.176975,78
0.488637,0.0235527,0.177491,81
0.490577,0.0234291,0.179196,72
0.489823,0.0234741,0.179905,73
0.49032,0.0234407,0.181081,72
0.491349,0.0233741,0.182461,66
0.489867,0.0234646,0.182894,63
0.491161,0.0233814,0.184379,66
0.491465,0.0233601,0.185492,74
0.490776,0.023401,0.186224,70
0.490287,0.0234293,0.187031,73
0.490525,0.0234121,0.188121,72
0.489641,0.0234652,0.188774,71
0.487515,0.0235961,0.188935,66
0.487425,0.0235995,0.189893,74
0.487205,0.023611,0.1908,69
0.48882,0.0235076,0.192441,65
0.487092,0.0236136,0.192746,65
0.486286,0.0236618,0.193418,53
0.488752,0.0235051,0.195415,50
0.485655,0.0236969,0.195154,52
0.488973,0.0234867,0.197511,53
0.486003,0.0236706,0.197292,51
0.486308,0.0236492,0.198417,54
0.487597,0.0235661,0.199955,60
0.486072,0.0236594,0.200322,55
0.486053,0.0236584,0.201316,67
0.485903,0.0236655,0.202256,62
0.486211,0.0236439,0.203391,67
0.48541,0.0236918,0.204055,65
0.485002,0.0237152,0.204885,69
0.484985,0.023714,0.205883,63
0.484708,0.023729,0.206769,62
0.484042,0.0237685,0.207486,64
0.484156,0.0237591,0.208542,58
0.48414,0.0237578,0.209543,62
0.484516,0.023732,0.210716,62
0.484046,0.0237592,0.211518,55
0.483967,0.0237619,0.212493,58
0.485191,0.0236828,0.214052,66
0.485964,0.023632,0.215414,60
0.484644,0.0237125,0.215835,59
0.485285,0.02367,0.217142,55
0.242723,0.0375077,-0.115073,8
0.396563,0.0269604,-0.186917,8
0.41719,0.0255446,-0.19582,7
0.207853,0.0398956,-0.0975809,7
0.340138,0.0308233,-0.158085,7
0.228684,0.0384648,-0.106131,7
0.437202,0.0241644,-0.201607,10
0.508092,0.0193015,-0.233502,8
0.324049,0.0319202,-0.147887,7
0.30229,0.0334112,-0.137337,8
0.245574,0.0373006,-0.111253,7
0.407641,0.0261817,-0.183632,7
0.419138,0.0253912,-0.187971,8
0.43534,0.0242777,-0.194381,8
0.436715,0.0241813,-0.194091,7
0.4297,0.0246606,-0.190059,9
0.424793,0.0249953,-0.186993,10
0.432853,0.0244402,-0.189668,10
0.433023,0.0244265,-0.188846,10
0.436837,0.0241628,-0.189617,9
0.4329,0.0244309,-0.187001,12
0.431991,0.0244913,-0.185714,13
0.431087,0.0245513,-0.184433,11
0.427161,0.0248188,-0.181862,11
0.430154,0.0246113,-0.182259,16
0.43063,0.0245767,-0.181576,10
0.429937,0.0246223,-0.180399,8
0.435605,0.024231,-0.181899,8
0.431807,0.0244899,-0.179416,9
