ply
format ascii 1.0
comment Created by CloudCompare v2.11 alpha (Anoia)
comment Created 2025/12/9 18:27
obj_info Generated by CloudCompare!
element vertex 1429
property float x
property float y
property float z
property float scalar_Scalar_field
end_header
0.294503 -0.630495 -0.160847 134 
0.295936 -0.631196 -0.159841 134 
0.295663 -0.631065 -0.159064 139 
0.295482 -0.630979 -0.158275 139 
0.295672 -0.631073 -0.157433 135 
0.296187 -0.631327 -0.156544 131 
0.296379 -0.631422 -0.1557 128 
0.296571 -0.631518 -0.154854 129 
0.296439 -0.631456 -0.154056 130 
0.297005 -0.631734 -0.153152 133 
0.297153 -0.631808 -0.152309 130 
0.297535 -0.631996 -0.151429 141 
0.297358 -0.631912 -0.150636 144 
0.297554 -0.63201 -0.149783 143 
0.298361 -0.632405 -0.14883 134 
0.298419 -0.632436 -0.147996 139 
0.298102 -0.632283 -0.147224 141 
0.298866 -0.632658 -0.146271 141 
0.298926 -0.632689 -0.145434 131 
0.298798 -0.632629 -0.144629 137 
0.299425 -0.632936 -0.143692 134 
0.299818 -0.63313 -0.142794 127 
0.300259 -0.633348 -0.141885 124 
0.300465 -0.63345 -0.141016 124 
0.301243 -0.633831 -0.140041 122 
0.302985 -0.634683 -0.138883 120 
0.302955 -0.634671 -0.138051 115 
0.303697 -0.635035 -0.137071 116 
0.303474 -0.634928 -0.136273 119 
0.303349 -0.634869 -0.135457 126 
0.304531 -0.635448 -0.134384 130 
0.303776 -0.635082 -0.13369 132 
0.30341 -0.634905 -0.13292 141 
0.304643 -0.635509 -0.131828 147 
0.305934 -0.636141 -0.130719 144 
0.306791 -0.636561 -0.129693 148 
0.305785 -0.636072 -0.129052 141 
0.305956 -0.636158 -0.128167 136 
0.306521 -0.636436 -0.127197 137 
0.307581 -0.636955 -0.126117 141 
0.307756 -0.637042 -0.125224 144 
0.308278 -0.637299 -0.124254 147 
0.308852 -0.637581 -0.12327 147 
0.309678 -0.637986 -0.122227 148 
0.309657 -0.637978 -0.121371 148 
0.310337 -0.638312 -0.120354 145 
0.310368 -0.638329 -0.119484 128 
0.311102 -0.63869 -0.118449 123 
0.310933 -0.638609 -0.117623 129 
0.310663 -0.63848 -0.11682 125 
0.310696 -0.638498 -0.115946 123 
0.311485 -0.638885 -0.114889 123 
0.311772 -0.639027 -0.113951 119 
0.311452 -0.638874 -0.113159 114 
0.312551 -0.639412 -0.112017 112 
0.312283 -0.639283 -0.111211 115 
0.312827 -0.639551 -0.110201 113 
0.314397 -0.640319 -0.108928 117 
0.312953 -0.639617 -0.108419 117 
0.312991 -0.639638 -0.107533 119 
0.313489 -0.639883 -0.106527 119 
0.314707 -0.640479 -0.105329 126 
0.313978 -0.640126 -0.10464 129 
0.313865 -0.640073 -0.103789 129 
0.314265 -0.64027 -0.102801 132 
0.314205 -0.640243 -0.101935 131 
0.31399 -0.640141 -0.10111 136 
0.314136 -0.640214 -0.100187 134 
0.312951 -0.639638 -0.0996321 131 
0.313301 -0.639811 -0.0986521 128 
0.31355 -0.639934 -0.0976981 129 
0.313799 -0.640058 -0.0967431 132 
0.313281 -0.639808 -0.0960051 128 
0.312356 -0.639359 -0.0953861 121 
0.312606 -0.639483 -0.0944301 116 
0.312907 -0.639632 -0.0934561 116 
0.312852 -0.639607 -0.0925861 110 
0.311778 -0.639085 -0.0920181 120 
0.311723 -0.639061 -0.0911491 125 
0.311263 -0.638839 -0.0904021 129 
0.311921 -0.639162 -0.0893171 130 
0.311207 -0.638816 -0.0886471 123 
0.311409 -0.638916 -0.0876981 119 
0.311509 -0.638968 -0.0867801 121 
0.310595 -0.638523 -0.0861761 120 
0.309231 -0.63786 -0.0857171 119 
0.309382 -0.637936 -0.0847841 118 
0.308176 -0.63735 -0.0842821 124 
0.308176 -0.637352 -0.0833981 122 
0.307627 -0.637086 -0.0826901 124 
0.30683 -0.636699 -0.0820651 124 
0.306433 -0.636508 -0.0813111 127 
0.30574 -0.636172 -0.0806561 125 
0.305593 -0.636102 -0.0798231 126 
0.305199 -0.635912 -0.0790721 133 
0.304806 -0.635723 -0.0783211 140 
0.304267 -0.635462 -0.0776211 130 
0.303729 -0.635201 -0.0769221 121 
0.302948 -0.634822 -0.0763081 120 
0.30256 -0.634635 -0.0755611 116 
0.302369 -0.634544 -0.0747481 113 
0.302373 -0.634548 -0.0738661 118 
0.301792 -0.634267 -0.0731881 114 
0.301504 -0.634129 -0.0724091 120 
0.301218 -0.633991 -0.0716301 120 
0.301077 -0.633925 -0.0708001 114 
0.300598 -0.633693 -0.0700911 107 
0.299589 -0.633202 -0.0695761 105 
0.299498 -0.63316 -0.0687291 96 
0.29936 -0.633095 -0.0679001 98 
0.298789 -0.632818 -0.0672301 94 
0.299132 -0.632988 -0.0662221 100 
0.29996 -0.633395 -0.0650321 97 
0.299533 -0.633188 -0.0643081 94 
0.300025 -0.633431 -0.0632391 95 
0.30013 -0.633485 -0.0623131 95 
0.300965 -0.633894 -0.0611071 98 
0.299858 -0.633356 -0.0606431 94 
0.299771 -0.633316 -0.0597891 97 
0.299201 -0.63304 -0.0591231 96 
0.298873 -0.632882 -0.0583631 96 
0.299996 -0.633432 -0.0570341 94 
0.300105 -0.633488 -0.0561001 99 
0.299583 -0.633235 -0.0554151 102 
0.300274 -0.633575 -0.0542471 107 
0.300384 -0.633631 -0.0533091 112 
0.301324 -0.634092 -0.0520331 109 
0.300702 -0.633791 -0.0513881 111 
0.300862 -0.633871 -0.0504251 99 
0.300486 -0.63369 -0.0496811 105 
0.301086 -0.633985 -0.0485341 107 
0.301984 -0.634426 -0.0472601 107 
0.302197 -0.634532 -0.0462681 103 
0.302706 -0.634783 -0.0451491 95 
0.301786 -0.634336 -0.0446311 95 
0.301754 -0.634322 -0.0437391 94 
0.302707 -0.63479 -0.0424251 88 
0.301985 -0.63444 -0.0418261 88 
0.302052 -0.634475 -0.0408891 86 
0.30291 -0.634896 -0.0396071 86 
0.302978 -0.634932 -0.0386641 85 
0.302849 -0.634871 -0.0378081 88 
0.302967 -0.634931 -0.0368411 81 
0.302987 -0.634943 -0.0359181 73 
0.304252 -0.635563 -0.0344381 65 
0.303028 -0.634967 -0.0340661 59 
0.30285 -0.634883 -0.0332291 58 
0.305068 -0.635968 -0.0313071 57 
0.30499 -0.635933 -0.0304181 60 
0.305869 -0.636364 -0.0290921 60 
0.305842 -0.636353 -0.0281761 57 
0.306321 -0.63659 -0.0270261 65 
0.306244 -0.636554 -0.0261311 71 
0.30637 -0.636618 -0.0251411 67 
0.306548 -0.636707 -0.0241251 67 
0.307336 -0.637095 -0.0228201 68 
0.308025 -0.637434 -0.0215571 69 
0.307848 -0.63735 -0.0207021 74 
0.308541 -0.63769 -0.0194311 69 
0.308929 -0.637882 -0.0183031 74 
0.308855 -0.637848 -0.0173951 71 
0.309089 -0.637965 -0.0163361 69 
0.3101 -0.638461 -0.0148971 64 
0.310027 -0.638428 -0.0139831 60 
0.309954 -0.638395 -0.0130691 67 
0.310867 -0.638843 -0.0116661 66 
0.310639 -0.638734 -0.0108251 71 
0.310983 -0.638905 -0.00969813 66 
0.310808 -0.638821 -0.00883012 62 
0.310632 -0.638738 -0.00796113 63 
0.290141 -0.623975 -0.416927 7 
0.0945215 -0.530807 -0.314408 0 
0.29418 -0.625903 -0.417217 7 
0.607183 -0.774981 -0.579756 0 
0.129633 -0.547534 -0.330778 0 
0.287122 -0.622548 -0.410828 7 
0.1287 -0.547093 -0.329239 0 
0.288715 -0.623311 -0.409844 9 
0.287708 -0.622834 -0.408432 0 
0.290834 -0.624325 -0.409116 8 
0.28847 -0.623201 -0.407021 10 
0.294305 -0.625983 -0.40905 11 
0.329624 -0.642809 -0.425784 0 
0.291958 -0.62487 -0.406064 10 
0.29244 -0.625102 -0.4054 9 
0.2943 -0.62599 -0.405412 10 
0.29068 -0.624268 -0.402732 9 
0.294371 -0.626028 -0.403634 10 
0.0948535 -0.530985 -0.30688 0 
0.296932 -0.627253 -0.403063 10 
0.296559 -0.627077 -0.401974 7 
0.308612 -0.632821 -0.406836 9 
0.300124 -0.62878 -0.401858 12 
0.296981 -0.627285 -0.399455 10 
0.293229 -0.6255 -0.396779 11 
0.294949 -0.626322 -0.39669 11 
0.297502 -0.62754 -0.396983 13 
0.297709 -0.627641 -0.396175 12 
0.295755 -0.626712 -0.394367 12 
0.297978 -0.627774 -0.394492 9 
0.294263 -0.626006 -0.391887 11 
0.296517 -0.627082 -0.392021 11 
0.301135 -0.629284 -0.393217 14 
0.30228 -0.629832 -0.392826 15 
0.298875 -0.628212 -0.390388 13 
0.297973 -0.627785 -0.389084 10 
0.299829 -0.628671 -0.38901 14 
0.299796 -0.628658 -0.388095 12 
0.300348 -0.628923 -0.387437 10 
0.301929 -0.629679 -0.387228 12 
0.303771 -0.630559 -0.387126 11 
0.300009 -0.628769 -0.38459 10 
0.299978 -0.628756 -0.383679 11 
0.2972 -0.627434 -0.381591 11 
0.307435 -0.632314 -0.385066 11 
0.301446 -0.629462 -0.381613 12 
0.303331 -0.630362 -0.38151 11 
0.303103 -0.630256 -0.380513 12 
0.305152 -0.631235 -0.380469 14 
0.303437 -0.63042 -0.378853 16 
0.303111 -0.630267 -0.377819 16 
0.301905 -0.629694 -0.376426 12 
0.302906 -0.630173 -0.37594 12 
0.301848 -0.629672 -0.374615 17 
0.304674 -0.631021 -0.374865 18 
0.304101 -0.63075 -0.373736 15 
0.302696 -0.630082 -0.372278 17 
0.306279 -0.631792 -0.372811 16 
0.300207 -0.628901 -0.369512 19 
0.303745 -0.630589 -0.370017 18 
0.302296 -0.629901 -0.368558 21 
0.303496 -0.630475 -0.368136 25 
0.301661 -0.629602 -0.366537 25 
0.301636 -0.629593 -0.365642 24 
0.301029 -0.629306 -0.364526 20 
0.305369 -0.631376 -0.365291 19 
0.30347 -0.630474 -0.363683 23 
0.303152 -0.630324 -0.362677 23 
0.300744 -0.629179 -0.360894 23 
0.30174 -0.629656 -0.360384 25 
0.304804 -0.631118 -0.360633 26 
0.301746 -0.629663 -0.358626 21 
0.299023 -0.628367 -0.356755 26 
0.299003 -0.62836 -0.355876 26 
0.298936 -0.62833 -0.35498 34 
0.29782 -0.6278 -0.35371 28 
0.297659 -0.627726 -0.352785 31 
0.298117 -0.627946 -0.35208 34 
0.296724 -0.627284 -0.350724 32 
0.296188 -0.627031 -0.349674 30 
0.297211 -0.627521 -0.349167 29 
0.297906 -0.627854 -0.348544 26 
0.299177 -0.628462 -0.348115 29 
0.298303 -0.628048 -0.346952 23 
0.298287 -0.628042 -0.346084 24 
0.296238 -0.627068 -0.344533 25 
0.297973 -0.627897 -0.344254 25 
0.296211 -0.627059 -0.34281 27 
0.294885 -0.626429 -0.341517 33 
0.296608 -0.627253 -0.341228 35 
0.292864 -0.62547 -0.339156 27 
0.293826 -0.62593 -0.338619 33 
0.293351 -0.625706 -0.337619 34 
0.293665 -0.625858 -0.336872 39 
0.292961 -0.625525 -0.335803 42 
0.292906 -0.6255 -0.334941 36 
0.293405 -0.62574 -0.334253 38 
0.292566 -0.625342 -0.333149 39 
0.291914 -0.625034 -0.332106 34 
0.292412 -0.625273 -0.331418 34 
0.29365 -0.625865 -0.330953 33 
0.293781 -0.62593 -0.330151 28 
0.29433 -0.626194 -0.329473 32 
0.294602 -0.626326 -0.328711 33 
0.294456 -0.626258 -0.327825 32 
0.295848 -0.626924 -0.32739 38 
0.295375 -0.626701 -0.326409 39 
0.294162 -0.626124 -0.325217 38 
0.295644 -0.626833 -0.324801 41 
0.297044 -0.627503 -0.324357 41 
0.294844 -0.626456 -0.322893 42 
0.29498 -0.626523 -0.322091 50 
0.295862 -0.626945 -0.321497 49 
0.295905 -0.626968 -0.320669 48 
0.29651 -0.627259 -0.319995 58 
0.296461 -0.627238 -0.319141 54 
0.29782 -0.627888 -0.318667 55 
0.297489 -0.627732 -0.317736 53 
0.297864 -0.627913 -0.316995 56 
0.297957 -0.62796 -0.316178 57 
0.298193 -0.628074 -0.315399 61 
0.298664 -0.628301 -0.31468 66 
0.298665 -0.628303 -0.313839 65 
0.30023 -0.629052 -0.313396 64 
0.298903 -0.628421 -0.312218 62 
0.299899 -0.628898 -0.311627 72 
0.301092 -0.62947 -0.311081 64 
0.301238 -0.629541 -0.310273 64 
0.301623 -0.629727 -0.309524 66 
0.300861 -0.629366 -0.308496 65 
0.300817 -0.629347 -0.307644 64 
0.301729 -0.629784 -0.307019 67 
0.302068 -0.629948 -0.306256 75 
0.301738 -0.629792 -0.305336 77 
0.303184 -0.630484 -0.304829 72 
0.303576 -0.630673 -0.304074 76 
0.304017 -0.630886 -0.30333 75 
0.303975 -0.630868 -0.302476 79 
0.304708 -0.63122 -0.301794 69 
0.305591 -0.631643 -0.301144 70 
0.30555 -0.631626 -0.300288 70 
0.305997 -0.631841 -0.299538 69 
0.305859 -0.631777 -0.298662 76 
0.306798 -0.632227 -0.298015 76 
0.306122 -0.631907 -0.297026 75 
0.306915 -0.632287 -0.296345 74 
0.307269 -0.632458 -0.295571 74 
0.308165 -0.632888 -0.294906 73 
0.308423 -0.633013 -0.29411 70 
0.308682 -0.633139 -0.293313 70 
0.308991 -0.633288 -0.292525 74 
0.309053 -0.63332 -0.291688 75 
0.310707 -0.634111 -0.291159 74 
0.309675 -0.633621 -0.29011 79 
0.310436 -0.633986 -0.289405 86 
0.311249 -0.634376 -0.288706 87 
0.311815 -0.634648 -0.287959 89 
0.312383 -0.634922 -0.287211 90 
0.312148 -0.634812 -0.286315 87 
0.312617 -0.635038 -0.285547 89 
0.312283 -0.63488 -0.284635 91 
0.313106 -0.635275 -0.283927 87 
0.313124 -0.635286 -0.283077 85 
0.314459 -0.635925 -0.282451 83 
0.31392 -0.63567 -0.281505 87 
0.314092 -0.635754 -0.28068 89 
0.313758 -0.635597 -0.279772 89 
0.314946 -0.636166 -0.279112 89 
0.315528 -0.636446 -0.27835 94 
0.315295 -0.636337 -0.277458 97 
0.315114 -0.636252 -0.276575 97 
0.315953 -0.636655 -0.27585 101 
0.315212 -0.636303 -0.274882 106 
0.316308 -0.636829 -0.274192 107 
0.315975 -0.636672 -0.273288 109 
0.315542 -0.636467 -0.27237 108 
0.315823 -0.636603 -0.271557 114 
0.315187 -0.636302 -0.270614 105 
0.315622 -0.636512 -0.269823 105 
0.315242 -0.636333 -0.268918 99 
0.314763 -0.636106 -0.268003 103 
0.314133 -0.635808 -0.267069 102 
0.313003 -0.63527 -0.266073 105 
0.312731 -0.635143 -0.265192 108 
0.313517 -0.63552 -0.264447 110 
0.311891 -0.634746 -0.263398 108 
0.311374 -0.634501 -0.262492 118 
0.311157 -0.6344 -0.261625 116 
0.311389 -0.634513 -0.260811 123 
0.311572 -0.634602 -0.259992 125 
0.312106 -0.634859 -0.259212 125 
0.31199 -0.634806 -0.258357 123 
0.311028 -0.634349 -0.25741 116 
0.311312 -0.634487 -0.256602 116 
0.311498 -0.634578 -0.255782 118 
0.310144 -0.633933 -0.254802 125 
0.311025 -0.634356 -0.254055 132 
0.310467 -0.634091 -0.253161 139 
0.310406 -0.634065 -0.252319 136 
0.310396 -0.634062 -0.251481 133 
0.310138 -0.633941 -0.250621 131 
0.309931 -0.633844 -0.249767 126 
0.31007 -0.633913 -0.248945 133 
0.310409 -0.634076 -0.248139 128 
0.309906 -0.633839 -0.247261 129 
0.310147 -0.633955 -0.246447 129 
0.31019 -0.633978 -0.245616 128 
0.310927 -0.634332 -0.24484 124 
0.310129 -0.633953 -0.243943 124 
0.310917 -0.634332 -0.243168 123 
0.310219 -0.634 -0.242282 126 
0.30982 -0.633812 -0.24142 125 
0.309916 -0.63386 -0.240594 133 
0.310706 -0.634239 -0.239813 138 
0.310704 -0.63424 -0.238979 143 
0.310207 -0.634005 -0.238114 146 
0.310306 -0.634054 -0.237287 148 
0.309565 -0.633703 -0.23641 140 
0.310653 -0.634224 -0.23564 139 
0.311001 -0.634393 -0.234826 134 
0.310161 -0.633993 -0.233948 137 
0.310361 -0.634091 -0.233125 139 
0.310364 -0.634094 -0.232293 141 
0.31012 -0.63398 -0.231449 146 
0.310569 -0.634197 -0.230637 147 
0.310772 -0.634296 -0.229813 151 
0.310233 -0.63404 -0.228958 151 
0.310635 -0.634234 -0.228142 156 
0.310393 -0.634121 -0.227301 158 
0.310351 -0.634103 -0.226467 152 
0.31026 -0.634061 -0.225632 158 
0.309922 -0.633902 -0.224791 151 
0.310029 -0.633956 -0.223963 154 
0.310831 -0.63434 -0.223152 161 
0.310791 -0.634323 -0.222319 160 
0.31095 -0.634402 -0.22149 157 
0.310268 -0.634078 -0.220644 163 
0.310082 -0.633991 -0.219809 165 
0.309897 -0.633905 -0.218975 164 
0.309614 -0.633772 -0.218141 163 
0.309381 -0.633662 -0.217308 164 
0.30905 -0.633507 -0.216476 156 
0.309853 -0.633892 -0.215653 160 
0.309918 -0.633925 -0.214823 154 
0.309243 -0.633605 -0.21399 159 
0.309161 -0.633568 -0.213161 156 
0.308687 -0.633344 -0.212333 158 
0.308852 -0.633424 -0.211504 156 
0.308772 -0.633388 -0.210676 151 
0.307274 -0.632675 -0.209859 145 
0.306855 -0.632477 -0.209037 145 
0.306001 -0.632071 -0.208223 137 
0.306167 -0.632152 -0.207398 142 
0.306187 -0.632164 -0.206575 143 
0.305821 -0.631991 -0.205758 146 
0.305215 -0.631704 -0.204947 146 
0.304708 -0.631464 -0.204137 145 
0.305067 -0.631638 -0.203308 139 
0.305139 -0.631674 -0.202486 140 
0.303722 -0.630999 -0.201704 131 
0.303602 -0.630944 -0.200889 133 
0.301912 -0.630139 -0.200124 137 
0.301511 -0.629949 -0.199323 140 
0.301631 -0.630008 -0.198504 146 
0.300241 -0.629346 -0.197743 152 
0.300597 -0.629519 -0.196917 153 
0.29959 -0.629039 -0.196147 152 
0.299664 -0.629077 -0.195333 149 
0.29871 -0.628623 -0.194566 145 
0.298505 -0.628527 -0.193767 147 
0.298487 -0.628521 -0.192959 151 
0.298283 -0.628425 -0.192161 148 
0.297198 -0.627909 -0.191412 150 
0.296765 -0.627704 -0.19063 143 
0.296473 -0.627566 -0.189841 136 
0.296273 -0.627473 -0.189048 135 
0.294926 -0.626831 -0.188327 135 
0.295278 -0.627002 -0.187502 137 
0.295311 -0.627019 -0.186697 146 
0.295068 -0.626906 -0.18591 150 
0.296021 -0.627363 -0.18504 148 
0.296286 -0.627491 -0.184216 143 
0.295262 -0.627004 -0.183486 145 
0.294793 -0.626782 -0.182719 144 
0.294462 -0.626626 -0.181942 140 
0.294589 -0.626689 -0.181129 136 
0.29426 -0.626533 -0.180353 134 
0.29416 -0.626488 -0.179559 132 
0.293695 -0.626268 -0.178797 134 
0.295013 -0.626899 -0.177877 140 
0.293908 -0.626373 -0.177173 147 
0.293855 -0.62635 -0.176375 141 
0.294123 -0.62648 -0.175547 132 
0.293752 -0.626305 -0.17478 128 
0.292973 -0.625935 -0.174054 131 
0.29315 -0.626021 -0.173234 132 
0.292964 -0.625934 -0.172451 134 
0.293825 -0.626348 -0.171558 136 
0.29332 -0.626109 -0.170809 135 
0.29423 -0.626545 -0.169905 138 
0.294136 -0.626502 -0.16911 129 
0.29418 -0.626525 -0.1683 135 
0.295095 -0.626965 -0.167387 139 
0.294911 -0.626879 -0.166601 138 
0.295186 -0.627012 -0.16576 141 
0.295186 -0.627014 -0.164951 140 
0.295417 -0.627127 -0.164113 140 
0.294775 -0.626822 -0.163385 140 
0.295559 -0.627198 -0.162475 133 
0.296392 -0.627599 -0.161556 129 
0.296534 -0.627669 -0.160724 134 
0.29756 -0.628161 -0.159772 136 
0.297052 -0.62792 -0.159026 131 
0.297103 -0.627947 -0.158204 121 
0.296783 -0.627796 -0.157433 122 
0.296742 -0.627778 -0.156624 130 
0.297586 -0.628184 -0.155686 130 
0.297173 -0.627988 -0.15493 136 
0.2976 -0.628194 -0.154049 132 
0.297981 -0.628379 -0.153173 136 
0.29827 -0.628519 -0.152309 144 
0.298419 -0.628592 -0.151466 145 
0.298992 -0.628868 -0.150555 142 
0.298298 -0.628538 -0.149843 143 
0.29873 -0.628747 -0.148951 137 
0.2994 -0.629069 -0.148019 131 
0.299035 -0.628897 -0.147255 135 
0.299801 -0.629265 -0.146302 132 
0.300571 -0.629635 -0.145345 133 
0.300016 -0.629372 -0.144613 129 
0.300551 -0.629629 -0.143692 125 
0.300281 -0.629502 -0.142911 125 
0.30115 -0.62992 -0.141927 125 
0.301499 -0.630089 -0.141033 115 
0.301945 -0.630304 -0.14012 116 
0.302632 -0.630635 -0.139159 115 
0.303178 -0.630898 -0.138222 114 
0.30363 -0.631116 -0.1373 122 
0.303841 -0.631219 -0.136421 120 
0.303957 -0.631277 -0.13556 123 
0.305043 -0.631798 -0.134508 127 
0.305746 -0.632136 -0.133527 133 
0.305523 -0.632032 -0.132726 139 
0.3078 -0.633122 -0.131423 136 
0.3063 -0.632407 -0.130879 139 
0.306862 -0.632678 -0.129916 134 
0.307378 -0.632927 -0.12896 140 
0.307698 -0.633082 -0.128043 137 
0.308563 -0.633498 -0.127008 144 
0.308787 -0.633607 -0.126106 148 
0.30936 -0.633883 -0.125128 146 
0.310085 -0.634232 -0.124113 148 
0.310213 -0.634295 -0.123226 146 
0.310592 -0.634479 -0.122283 147 
0.311324 -0.634831 -0.121258 143 
0.312463 -0.635378 -0.120136 135 
0.311636 -0.634984 -0.119461 123 
0.310913 -0.634641 -0.118764 126 
0.310844 -0.63461 -0.117917 128 
0.311731 -0.635036 -0.116844 128 
0.311814 -0.635078 -0.115958 120 
0.312404 -0.635362 -0.11495 120 
0.312995 -0.635647 -0.113939 122 
0.313284 -0.635788 -0.112998 119 
0.313167 -0.635734 -0.112155 125 
0.313203 -0.635753 -0.111274 127 
0.313138 -0.635724 -0.110418 124 
0.31399 -0.636134 -0.10933 117 
0.314028 -0.636154 -0.108445 120 
0.313658 -0.63598 -0.107664 125 
0.314669 -0.636465 -0.106527 122 
0.315376 -0.636806 -0.105463 121 
0.315057 -0.636655 -0.104667 132 
0.315613 -0.636923 -0.103639 133 
0.316585 -0.63739 -0.102497 135 
0.31477 -0.636524 -0.102101 132 
0.315018 -0.636645 -0.101152 131 
0.315061 -0.636668 -0.100258 129 
0.314282 -0.636298 -0.0995891 132 
0.31484 -0.636567 -0.0985521 131 
0.314678 -0.636492 -0.0977131 134 
0.31421 -0.63627 -0.0969611 130 
0.313794 -0.636073 -0.0961951 129 
0.313634 -0.635999 -0.0953571 124 
0.313578 -0.635974 -0.0944891 120 
0.31388 -0.636121 -0.0935161 115 
0.313466 -0.635925 -0.0927521 116 
0.312441 -0.635437 -0.0921691 126 
0.312183 -0.635316 -0.0913611 127 
0.312435 -0.635438 -0.0904021 129 
0.312076 -0.635269 -0.0896251 129 
0.311717 -0.6351 -0.0888481 121 
0.310652 -0.634592 -0.0882891 125 
0.309591 -0.634087 -0.0877331 128 
0.309188 -0.633896 -0.0869761 127 
0.309438 -0.634018 -0.0860161 125 
0.308885 -0.633756 -0.0853071 124 
0.307834 -0.633255 -0.0847581 120 
0.307435 -0.633067 -0.0840051 113 
0.307585 -0.63314 -0.0830761 121 
0.308135 -0.633406 -0.0820161 118 
0.30684 -0.632788 -0.0815551 117 
0.306642 -0.632696 -0.0807381 126 
0.306247 -0.632509 -0.0799871 135 
0.305407 -0.63211 -0.0793841 136 
0.305459 -0.632137 -0.0784861 131 
0.305215 -0.632022 -0.0776871 127 
0.304282 -0.631578 -0.0771221 125 
0.303549 -0.631229 -0.0764921 120 
0.302965 -0.630952 -0.0758131 118 
0.302383 -0.630676 -0.0751361 115 
0.301949 -0.630471 -0.0744091 114 
0.302245 -0.630614 -0.0734271 114 
0.301229 -0.63013 -0.0729061 119 
0.301185 -0.630112 -0.0720441 112 
0.301238 -0.630139 -0.0711461 116 
0.301098 -0.630074 -0.0703171 114 
0.300281 -0.629686 -0.0697321 108 
0.300239 -0.629668 -0.0688691 102 
0.300729 -0.629904 -0.0678111 103 
0.300784 -0.629933 -0.0669101 100 
0.300403 -0.629753 -0.0661691 99 
0.300701 -0.629898 -0.0651761 99 
0.300273 -0.629695 -0.0644531 101 
0.300572 -0.62984 -0.0634581 99 
0.3 -0.629569 -0.0627901 100 
0.300978 -0.630039 -0.0615341 101 
0.301328 -0.630209 -0.0605131 101 
0.301045 -0.630076 -0.0597331 98 
0.300376 -0.629757 -0.0591041 105 
0.301115 -0.630113 -0.0579281 99 
0.301565 -0.630331 -0.0568621 99 
0.301137 -0.630129 -0.0561381 95 
0.301393 -0.630253 -0.0551451 101 
0.301991 -0.630542 -0.0540131 102 
0.301417 -0.630269 -0.0533481 105 
0.301919 -0.630512 -0.0522511 110 
0.301346 -0.630239 -0.0515861 105 
0.302093 -0.6306 -0.0503851 108 
0.301862 -0.630491 -0.0495811 108 
0.302073 -0.630594 -0.0485951 107 
0.302137 -0.630627 -0.0476681 103 
0.302891 -0.63099 -0.0464531 97 
0.303747 -0.631402 -0.0451901 97 
0.302923 -0.63101 -0.0446311 102 
0.303929 -0.631494 -0.0432991 103 
0.303154 -0.631125 -0.0427201 94 
0.304661 -0.631849 -0.0411681 89 
0.303784 -0.631431 -0.0406331 86 
0.304648 -0.631847 -0.0393481 90 
0.304468 -0.631763 -0.0385131 80 
0.303542 -0.631323 -0.0380031 83 
0.304059 -0.631572 -0.0368631 74 
0.305327 -0.632182 -0.0353881 71 
0.306152 -0.632579 -0.0341041 63 
0.307183 -0.633074 -0.0327221 62 
0.305642 -0.632339 -0.0324881 59 
0.307837 -0.633392 -0.0305771 62 
0.307657 -0.633308 -0.0297311 57 
0.306869 -0.632934 -0.0291611 59 
0.308112 -0.633531 -0.0276651 62 
0.306512 -0.632767 -0.0274691 67 
0.3075 -0.633242 -0.0260841 67 
0.306916 -0.632965 -0.0254241 68 
0.308825 -0.633882 -0.0236011 64 
0.308647 -0.633799 -0.0227481 66 
0.307195 -0.633106 -0.0224961 71 
0.308598 -0.63378 -0.0208961 66 
0.309807 -0.634361 -0.0193821 65 
0.310299 -0.634599 -0.0182041 63 
0.309812 -0.634368 -0.0174941 62 
0.309944 -0.634434 -0.0164851 62 
0.311216 -0.635045 -0.0149221 58 
0.310624 -0.634764 -0.0142621 67 
0.311174 -0.63503 -0.0130431 64 
0.311621 -0.635246 -0.0118711 65 
0.311705 -0.635289 -0.0108761 72 
0.312469 -0.635657 -0.00954213 64 
0.312293 -0.635575 -0.00867313 66 
0.312274 -0.635568 -0.00772513 63 
0.290352 -0.620347 -0.416484 0 
0.992934 -0.948217 -0.785037 0 
0.284835 -0.617776 -0.411797 8 
0.285574 -0.618124 -0.411286 8 
0.293404 -0.62178 -0.414429 8 
0.18949 -0.573286 -0.360344 7 
0.196169 -0.576405 -0.36306 0 
0.285346 -0.618026 -0.407596 7 
0.0822605 -0.523244 -0.305064 6 
0.0945445 -0.528978 -0.310626 0 
0.293841 -0.621998 -0.40919 7 
0.298367 -0.624112 -0.410544 8 
0.293862 -0.622012 -0.407386 7 
0.292219 -0.621247 -0.405667 9 
0.293316 -0.621761 -0.405307 10 
0.293611 -0.621902 -0.404549 8 
0.283479 -0.617174 -0.398702 0 
0.297652 -0.623792 -0.404708 8 
0.2967 -0.62335 -0.403338 9 
0.29234 -0.621317 -0.400332 11 
0.300801 -0.625269 -0.403489 9 
0.289385 -0.619942 -0.397132 8 
0.294411 -0.622291 -0.398629 13 
0.293573 -0.621902 -0.397335 10 
0.295675 -0.622885 -0.397427 9 
0.298524 -0.624217 -0.39786 9 
0.30014 -0.624974 -0.397707 11 
0.293962 -0.622092 -0.393938 8 
0.300509 -0.625151 -0.396062 10 
0.299015 -0.624456 -0.394469 15 
0.298256 -0.624103 -0.39322 11 
0.296733 -0.623395 -0.391629 15 
0.301544 -0.625643 -0.392906 12 
0.300484 -0.62515 -0.391523 16 
0.299818 -0.624842 -0.390322 10 
0.301884 -0.625808 -0.390341 11 
0.297533 -0.62378 -0.38751 14 
0.298464 -0.624216 -0.387027 13 
0.301883 -0.625815 -0.38763 11 
0.301752 -0.625756 -0.386671 13 
0.301965 -0.625858 -0.385863 11 
0.298486 -0.624235 -0.383461 11 
0.296589 -0.623352 -0.381754 13 
0.305127 -0.627341 -0.384514 9 
0.300816 -0.62533 -0.381777 8 
0.304418 -0.627014 -0.382405 14 
0.302907 -0.626311 -0.380867 11 
0.305398 -0.627476 -0.381011 16 
0.301477 -0.625647 -0.378477 17 
0.301985 -0.625887 -0.377794 12 
0.297464 -0.623778 -0.375041 15 
0.303595 -0.626643 -0.376667 13 
0.302193 -0.625991 -0.375201 12 
0.300414 -0.625162 -0.373589 11 
0.303903 -0.626794 -0.374107 19 
0.301088 -0.625481 -0.372086 16 
0.302768 -0.626268 -0.371868 16 
0.305551 -0.62757 -0.37208 19 
0.301107 -0.625497 -0.369435 21 
0.303277 -0.626512 -0.3694 21 
0.303398 -0.626571 -0.368558 20 
0.304701 -0.627182 -0.368175 17 
0.30507 -0.627357 -0.367426 18 
0.301566 -0.625723 -0.365195 18 
0.303592 -0.626671 -0.365084 22 
0.303617 -0.626685 -0.364207 26 
0.304823 -0.62725 -0.363776 22 
0.302154 -0.626006 -0.361891 23 
0.302814 -0.626316 -0.361256 28 
0.30495 -0.627316 -0.361164 23 
0.302916 -0.626368 -0.359532 28 
0.301727 -0.625815 -0.358218 30 
0.301125 -0.625536 -0.357123 30 
0.303096 -0.626459 -0.356959 32 
0.302005 -0.625951 -0.35569 28 
0.300825 -0.625402 -0.354394 29 
0.300999 -0.625486 -0.353584 33 
0.300932 -0.625457 -0.352689 31 
0.30048 -0.625248 -0.35166 28 
0.299599 -0.624838 -0.350485 31 
0.299678 -0.624877 -0.349645 25 
0.298706 -0.624426 -0.348446 28 
0.3007 -0.625359 -0.348263 27 
0.298294 -0.624238 -0.346581 27 
0.298755 -0.624455 -0.345875 31 
0.298075 -0.624139 -0.344786 29 
0.296503 -0.623407 -0.343405 30 
0.297857 -0.624042 -0.342997 30 
0.298034 -0.624127 -0.342197 35 
0.296981 -0.623637 -0.340997 37 
0.297063 -0.623678 -0.34017 35 
0.296346 -0.623345 -0.339086 38 
0.296899 -0.623605 -0.33841 34 
0.296746 -0.623536 -0.33751 34 
0.294912 -0.622681 -0.336081 31 
0.294484 -0.622483 -0.335101 35 
0.295125 -0.622785 -0.334455 33 
0.295023 -0.622739 -0.333578 31 
0.295108 -0.622781 -0.332759 36 
0.296595 -0.623478 -0.332367 31 
0.294163 -0.622344 -0.330785 32 
0.296157 -0.623277 -0.330542 29 
0.294659 -0.62258 -0.329251 31 
0.295676 -0.623057 -0.328711 34 
0.296277 -0.62334 -0.328044 36 
0.296083 -0.623251 -0.327145 34 
0.296125 -0.623273 -0.326314 37 
0.295653 -0.623054 -0.325337 39 
0.297191 -0.623775 -0.324935 40 
0.297374 -0.623863 -0.324144 43 
0.297041 -0.623709 -0.323208 45 
0.297272 -0.623819 -0.32243 47 
0.299012 -0.624635 -0.32207 48 
0.297406 -0.623886 -0.320785 51 
0.297826 -0.624085 -0.320059 48 
0.296325 -0.623385 -0.318812 46 
0.298717 -0.624505 -0.318616 49 
0.299141 -0.624705 -0.317887 51 
0.299329 -0.624795 -0.317095 55 
0.298713 -0.62451 -0.316092 57 
0.299517 -0.624887 -0.31546 57 
0.300133 -0.625178 -0.314778 59 
0.300276 -0.625246 -0.313972 63 
0.300753 -0.625471 -0.313251 64 
0.30104 -0.625607 -0.312481 63 
0.301614 -0.625878 -0.311782 62 
0.302287 -0.626194 -0.311105 61 
0.301379 -0.625772 -0.310039 61 
0.302868 -0.62647 -0.309559 65 
0.302726 -0.626406 -0.308681 64 
0.30297 -0.626522 -0.307895 67 
0.302541 -0.626324 -0.306951 70 
0.302882 -0.626485 -0.306189 73 
0.303513 -0.626782 -0.305493 75 
0.304387 -0.627193 -0.304851 74 
0.305023 -0.627492 -0.304152 72 
0.305272 -0.627611 -0.303363 69 
0.30557 -0.627752 -0.302584 72 
0.305577 -0.627757 -0.30174 69 
0.305828 -0.627877 -0.300951 73 
0.306128 -0.628019 -0.300171 73 
0.306087 -0.628002 -0.299317 75 
0.306976 -0.62842 -0.298662 75 
0.307034 -0.628449 -0.297828 71 
0.307927 -0.628869 -0.29717 77 
0.307789 -0.628806 -0.296294 75 
0.309776 -0.629737 -0.295855 73 
0.308253 -0.629027 -0.294696 77 
0.308708 -0.629242 -0.293941 80 
0.309809 -0.629759 -0.293313 80 
0.310268 -0.629976 -0.292554 80 
0.309735 -0.629728 -0.291601 79 
0.309996 -0.629853 -0.290804 81 
0.310457 -0.63007 -0.290044 84 
0.311319 -0.630475 -0.289358 87 
0.311184 -0.630414 -0.288483 86 
0.311149 -0.6304 -0.287627 90 
0.311465 -0.63055 -0.286836 84 
0.312383 -0.630981 -0.286152 84 
0.312701 -0.631132 -0.285358 83 
0.312567 -0.631072 -0.284484 87 
0.313139 -0.631341 -0.283734 85 
0.313459 -0.631493 -0.282938 91 
0.312975 -0.631269 -0.282005 87 
0.312994 -0.63128 -0.281158 85 
0.314428 -0.631952 -0.280546 87 
0.314803 -0.63213 -0.279755 88 
0.314571 -0.632023 -0.278865 85 
0.314339 -0.631917 -0.277977 91 
0.315478 -0.632452 -0.277305 90 
0.315806 -0.632607 -0.276504 92 
0.316391 -0.632883 -0.27574 96 
0.316108 -0.632753 -0.274843 103 
0.315572 -0.632504 -0.273911 104 
0.315903 -0.632661 -0.273108 104 
0.315929 -0.632675 -0.27226 107 
0.315904 -0.632666 -0.271404 103 
0.315524 -0.63249 -0.2705 104 
0.315246 -0.632362 -0.269611 108 
0.314818 -0.632164 -0.268703 105 
0.314846 -0.63218 -0.267859 95 
0.31447 -0.632006 -0.266962 91 
0.313592 -0.631597 -0.266001 99 
0.315087 -0.632299 -0.265348 104 
0.314308 -0.631937 -0.264402 112 
0.314138 -0.631859 -0.263535 114 
0.313213 -0.631429 -0.262578 118 
0.3139 -0.631752 -0.261817 114 
0.312927 -0.631299 -0.260859 119 
0.313111 -0.631387 -0.260038 117 
0.311945 -0.630844 -0.259064 117 
0.311929 -0.630839 -0.258223 123 
0.312364 -0.631044 -0.257432 125 
0.311751 -0.630759 -0.256527 124 
0.313288 -0.63148 -0.255851 127 
0.311974 -0.630868 -0.254874 128 
0.311414 -0.630608 -0.253979 130 
0.311104 -0.630465 -0.253112 132 
0.31159 -0.630695 -0.252324 140 
0.311082 -0.630459 -0.251439 134 
0.31152 -0.630666 -0.250644 135 
0.311361 -0.630594 -0.249794 135 
0.311104 -0.630476 -0.248936 134 
0.311792 -0.630799 -0.248161 133 
0.312034 -0.630914 -0.247346 136 
0.311678 -0.63075 -0.24648 132 
0.311423 -0.630633 -0.245624 127 
0.311268 -0.630562 -0.244777 127 
0.311262 -0.630562 -0.243943 135 
0.311506 -0.630678 -0.243127 131 
0.312099 -0.630958 -0.242336 128 
0.311598 -0.630725 -0.241465 126 
0.311148 -0.630517 -0.2406 134 
0.310898 -0.630402 -0.239751 141 
0.310945 -0.630426 -0.238921 145 
0.311093 -0.630497 -0.238098 138 
0.310894 -0.630406 -0.237254 144 
0.311738 -0.630803 -0.236471 144 
0.311192 -0.63055 -0.235607 136 
0.310945 -0.630437 -0.234761 138 
0.31224 -0.631044 -0.233997 142 
0.311396 -0.630652 -0.23312 142 
0.311647 -0.630771 -0.2323 145 
0.311601 -0.630752 -0.231465 144 
0.311257 -0.630593 -0.230618 147 
0.31151 -0.630713 -0.229796 154 
0.311864 -0.630881 -0.228978 155 
0.311671 -0.630793 -0.228138 154 
0.311627 -0.630774 -0.227304 155 
0.311336 -0.63064 -0.226462 155 
0.311245 -0.6306 -0.225628 158 
0.311501 -0.630722 -0.224804 149 
0.31146 -0.630705 -0.223971 151 
0.312017 -0.630967 -0.223154 150 
0.311381 -0.630671 -0.222306 156 
0.31045 -0.630238 -0.221455 150 
0.310659 -0.630338 -0.220629 161 
0.310177 -0.630114 -0.219791 161 
0.310733 -0.630376 -0.218971 164 
0.310597 -0.630315 -0.218139 161 
0.311007 -0.630509 -0.217314 162 
0.309589 -0.629847 -0.216471 158 
0.309554 -0.629833 -0.215643 157 
0.309668 -0.629889 -0.214816 158 
0.310226 -0.630152 -0.21399 154 
0.308963 -0.629563 -0.21316 145 
0.308637 -0.629412 -0.212334 149 
0.308312 -0.629262 -0.211509 150 
0.307842 -0.629044 -0.210687 144 
0.307422 -0.62885 -0.209866 142 
0.30749 -0.628883 -0.209042 144 
0.306635 -0.628485 -0.208228 144 
0.306316 -0.628338 -0.207411 146 
0.305756 -0.628079 -0.206598 142 
0.305488 -0.627955 -0.205783 146 
0.304788 -0.627629 -0.204977 152 
0.304906 -0.627687 -0.204157 149 
0.303922 -0.627228 -0.203361 144 
0.302848 -0.626728 -0.202572 145 
0.302777 -0.626696 -0.20176 142 
0.302516 -0.626576 -0.200954 141 
0.301545 -0.626124 -0.200171 140 
0.30124 -0.625983 -0.199369 145 
0.300042 -0.625424 -0.198601 153 
0.300584 -0.62568 -0.197771 149 
0.299953 -0.625387 -0.196986 148 
0.299652 -0.625248 -0.19619 149 
0.298885 -0.624891 -0.195415 149 
0.29896 -0.624928 -0.194605 141 
0.298848 -0.624878 -0.193803 140 
0.298365 -0.624653 -0.19302 142 
0.298394 -0.624669 -0.192212 146 
0.298331 -0.624641 -0.191409 148 
0.297155 -0.624093 -0.190669 143 
0.296447 -0.623764 -0.189906 139 
0.29588 -0.6235 -0.189137 138 
0.295636 -0.623388 -0.18835 142 
0.295668 -0.623405 -0.187547 139 
0.2957 -0.623422 -0.186743 140 
0.296285 -0.623698 -0.185901 143 
0.296042 -0.623586 -0.185115 145 
0.295709 -0.623432 -0.184336 146 
0.295422 -0.6233 -0.183555 144 
0.295228 -0.623211 -0.182768 140 
0.295676 -0.623423 -0.181931 133 
0.29585 -0.623506 -0.181114 131 
0.296162 -0.623654 -0.180284 137 
0.295052 -0.623136 -0.179574 137 
0.295089 -0.623156 -0.178769 133 
0.295815 -0.623498 -0.177902 131 
0.296176 -0.623669 -0.177065 134 
0.295985 -0.623581 -0.176277 129 
0.295336 -0.623279 -0.175534 125 
0.295973 -0.62358 -0.174668 125 
0.295095 -0.623171 -0.17395 123 
0.295044 -0.623149 -0.173151 132 
0.294582 -0.622935 -0.172395 140 
0.294213 -0.622764 -0.171631 138 
0.294667 -0.622978 -0.170779 140 
0.295076 -0.623172 -0.16993 135 
0.296454 -0.623819 -0.168972 133 
0.296083 -0.623647 -0.168206 131 
0.295575 -0.623412 -0.167457 133 
0.295483 -0.62337 -0.166661 141 
0.29719 -0.624172 -0.165649 142 
0.297423 -0.624283 -0.16481 142 
0.296497 -0.623851 -0.164113 136 
0.297425 -0.624288 -0.163187 136 
0.297892 -0.624509 -0.162315 135 
0.297988 -0.624555 -0.161489 139 
0.297572 -0.624363 -0.16073 139 
0.297343 -0.624258 -0.159948 135 
0.297859 -0.624501 -0.159064 134 
0.29791 -0.624527 -0.158243 133 
0.298008 -0.624575 -0.157414 130 
0.297735 -0.624449 -0.156637 128 
0.298394 -0.62476 -0.155727 128 
0.298634 -0.624874 -0.154875 128 
0.299016 -0.625055 -0.154 129 
0.299024 -0.625061 -0.15318 129 
0.299549 -0.625309 -0.152281 129 
0.299605 -0.625337 -0.151451 133 
0.299567 -0.625322 -0.150636 138 
0.29953 -0.625306 -0.14982 139 
0.300531 -0.625777 -0.148837 132 
0.300259 -0.625652 -0.148058 130 
0.30136 -0.626169 -0.147052 128 
0.301562 -0.626266 -0.146191 129 
0.301908 -0.62643 -0.145305 134 
0.301399 -0.626194 -0.144564 136 
0.301698 -0.626336 -0.143684 133 
0.302141 -0.626546 -0.142777 121 
0.304316 -0.627567 -0.14156 122 
0.303995 -0.627418 -0.140783 122 
0.303338 -0.627112 -0.140067 115 
0.303595 -0.627235 -0.139186 118 
0.304239 -0.627539 -0.138231 116 
0.305614 -0.628185 -0.137135 117 
0.30539 -0.628082 -0.136338 114 
0.305555 -0.628162 -0.135466 121 
0.306844 -0.628767 -0.134375 122 
0.306278 -0.628504 -0.133642 124 
0.306691 -0.6287 -0.132717 131 
0.307644 -0.629149 -0.131681 134 
0.307716 -0.629185 -0.130819 138 
0.308232 -0.629428 -0.129866 146 
0.309246 -0.629905 -0.128806 142 
0.308676 -0.629641 -0.128074 142 
0.30885 -0.629724 -0.127186 139 
0.310067 -0.630297 -0.126074 145 
0.311444 -0.630944 -0.124923 146 
0.311371 -0.630912 -0.12408 150 
0.31145 -0.630951 -0.123204 147 
0.311478 -0.630966 -0.122338 143 
0.311759 -0.6311 -0.121416 134 
0.311487 -0.630975 -0.120616 132 
0.311467 -0.630967 -0.11976 127 
0.312304 -0.631361 -0.118706 124 
0.313398 -0.631876 -0.117587 122 
0.312974 -0.63168 -0.11682 125 
0.312704 -0.631555 -0.116018 132 
0.312282 -0.63136 -0.115253 124 
0.313735 -0.632043 -0.114037 118 
0.313312 -0.631847 -0.11327 128 
0.314621 -0.632462 -0.11208 120 
0.314708 -0.632505 -0.111186 122 
0.315514 -0.632885 -0.110112 113 
0.314936 -0.632616 -0.109381 113 
0.314769 -0.63254 -0.108549 117 
0.314603 -0.632465 -0.107717 122 
0.315256 -0.632773 -0.106673 121 
0.31545 -0.632866 -0.105745 125 
0.315542 -0.632911 -0.104843 131 
0.315377 -0.632836 -0.104007 132 
0.315881 -0.633075 -0.102994 132 
0.315872 -0.633073 -0.102115 136 
0.315605 -0.63295 -0.101306 138 
0.315854 -0.633069 -0.100356 142 
0.315743 -0.633019 -0.0995041 136 
0.315323 -0.632824 -0.0987371 137 
0.315008 -0.632679 -0.0979431 128 
0.314796 -0.632581 -0.0971201 130 
0.314789 -0.632581 -0.0962391 121 
0.314271 -0.63234 -0.0955031 119 
0.314214 -0.632315 -0.0946371 118 
0.313953 -0.632195 -0.0938291 119 
0.313437 -0.631956 -0.0930961 125 
0.313127 -0.631813 -0.0923041 127 
0.311903 -0.631241 -0.0917841 128 
0.311849 -0.631218 -0.0909191 128 
0.311491 -0.631052 -0.0901451 128 
0.312198 -0.631386 -0.0890491 121 
0.310728 -0.630699 -0.0886131 115 
0.310121 -0.630417 -0.0879191 117 
0.310623 -0.630654 -0.0868831 115 
0.309214 -0.629996 -0.0864391 115 
0.309063 -0.629927 -0.0856071 114 
0.307863 -0.629367 -0.0851051 119 
0.307415 -0.629159 -0.0843691 122 
0.306621 -0.628789 -0.0837451 128 
0.307515 -0.62921 -0.0825801 122 
0.307068 -0.629003 -0.0818451 128 
0.306771 -0.628866 -0.0810631 129 
0.306525 -0.628753 -0.0802641 137 
0.306427 -0.628709 -0.0794171 134 
0.304703 -0.627903 -0.0791111 134 
0.305986 -0.628507 -0.0778041 129 
0.30456 -0.62784 -0.0774051 126 
0.303876 -0.627522 -0.0767591 119 
0.302853 -0.627045 -0.0762311 126 
0.302954 -0.627094 -0.0753201 121 
0.302227 -0.626756 -0.0746951 112 
0.302134 -0.626714 -0.0738521 114 
0.301944 -0.626627 -0.0730421 121 
0.301705 -0.626518 -0.0722491 118 
0.301419 -0.626386 -0.0714741 115 
0.301764 -0.626549 -0.0704741 113 
0.301478 -0.626418 -0.0696981 110 
0.30163 -0.626491 -0.0687641 112 
0.301393 -0.626382 -0.0679701 107 
0.300625 -0.626024 -0.0673711 105 
0.301407 -0.626393 -0.0662051 101 
0.301852 -0.626604 -0.0651581 101 
0.301422 -0.626404 -0.0644351 96 
0.301917 -0.626638 -0.0633671 102 
0.300856 -0.626143 -0.0628811 106 
0.301691 -0.626537 -0.0616821 102 
0.302188 -0.626772 -0.0606061 103 
0.302344 -0.626848 -0.0596581 90 
0.302208 -0.626786 -0.0588221 95 
0.301195 -0.626313 -0.0583261 90 
0.302425 -0.626892 -0.0569571 93 
0.302485 -0.626923 -0.0560421 90 
0.30284 -0.627092 -0.0550101 92 
0.302754 -0.627054 -0.0541501 98 
0.302865 -0.627108 -0.0532111 106 
0.302977 -0.627162 -0.0522701 106 
0.303482 -0.627402 -0.0511701 113 
0.303151 -0.627249 -0.0504051 107 
0.303609 -0.627466 -0.0493201 106 
0.303575 -0.627452 -0.0484331 109 
0.303787 -0.627554 -0.0474441 111 
0.303754 -0.62754 -0.0465561 105 
0.30377 -0.62755 -0.0456461 103 
0.304182 -0.627745 -0.0445681 104 
0.303852 -0.627593 -0.0438021 98 
0.304315 -0.627812 -0.0426991 91 
0.30483 -0.628056 -0.0415721 88 
0.3045 -0.627903 -0.0408031 83 
0.305365 -0.628312 -0.0395211 84 
0.305384 -0.628323 -0.0385991 86 
0.305304 -0.628288 -0.0377211 81 
0.304824 -0.628065 -0.0370161 75 
0.304994 -0.628147 -0.0360271 73 
0.305264 -0.628276 -0.0349931 69 
0.306389 -0.628805 -0.0335761 64 
0.306914 -0.629054 -0.0324211 56 
0.307442 -0.629304 -0.0312621 57 
0.308276 -0.629698 -0.0299601 59 
0.308452 -0.629783 -0.0289531 62 
0.308731 -0.629916 -0.0278981 61 
0.308348 -0.629738 -0.0271431 65 
0.308424 -0.629776 -0.0261781 65 
0.308908 -0.630006 -0.0250231 72 
0.30878 -0.629948 -0.0241491 65 
0.309882 -0.630467 -0.0227001 71 
0.309806 -0.630434 -0.0217991 66 
0.309782 -0.630425 -0.0208721 71 
0.311047 -0.631021 -0.0193331 66 
0.310249 -0.630649 -0.0187711 66 
0.310742 -0.630883 -0.0175931 64 
0.310564 -0.630802 -0.0167341 68 
0.310852 -0.630939 -0.0156511 61 
0.311193 -0.631101 -0.0145391 72 
0.312107 -0.631533 -0.0131451 61 
0.312243 -0.631598 -0.0121281 63 
0.31217 -0.631567 -0.0112111 76 
0.312202 -0.631584 -0.0102421 66 
0.312182 -0.631577 -0.00929813 59 
0.313052 -0.631988 -0.00790813 64 
0.0237585 -0.494766 -0.279434 0 
0.319726 -0.630072 -0.430348 0 
0.292244 -0.617511 -0.415116 7 
0.289026 -0.616042 -0.412546 7 
0.292026 -0.617416 -0.413187 6 
0.11291 -0.535531 -0.321418 0 
0.29167 -0.617258 -0.411194 8 
0.222795 -0.585772 -0.375447 7 
0.29282 -0.617788 -0.409968 9 
0.289045 -0.616065 -0.407167 0 
0.28795 -0.615566 -0.405725 9 
0.292994 -0.617874 -0.407343 9 
0.294664 -0.61864 -0.407268 11 
0.290999 -0.616967 -0.404556 8 
0.293643 -0.618178 -0.404958 8 
0.289722 -0.616387 -0.402141 10 
0.293856 -0.61828 -0.40326 11 
0.293679 -0.618201 -0.402275 10 
0.285596 -0.614507 -0.397482 10 
0.294131 -0.618412 -0.400695 7 
0.295522 -0.61905 -0.400461 12 
0.293638 -0.618191 -0.398666 10 
0.296407 -0.61946 -0.39908 10 
0.295752 -0.619162 -0.397871 12 
0.130072 -0.543403 -0.319969 10 
0.299873 -0.621051 -0.397996 13 
0.295367 -0.618993 -0.395001 12 
0.294718 -0.618698 -0.393806 8 
0.298558 -0.620456 -0.394677 12 
0.300317 -0.621263 -0.394581 9 
0.297433 -0.619946 -0.392366 8 
0.29841 -0.620395 -0.391911 11 
0.297752 -0.620097 -0.390718 13 
0.299649 -0.620967 -0.390672 12 
0.298025 -0.620226 -0.38905 10 
0.296844 -0.619688 -0.387632 11 
0.301644 -0.621886 -0.388859 15 
0.301465 -0.621806 -0.38788 12 
0.306226 -0.623986 -0.38906 11 
0.304549 -0.623221 -0.387422 13 
0.298994 -0.620683 -0.384116 11 
0.302758 -0.622406 -0.384843 11 
0.300578 -0.621412 -0.383011 11 
0.30118 -0.621689 -0.382374 11 
0.304933 -0.623408 -0.383069 14 
0.300975 -0.6216 -0.3805 12 
0.30334 -0.622684 -0.380599 15 
0.303704 -0.622852 -0.379854 12 
0.305652 -0.623746 -0.379765 14 
0.307419 -0.624556 -0.379593 13 
0.302879 -0.622482 -0.376829 11 
0.302557 -0.622337 -0.375805 14 
0.304346 -0.623157 -0.37564 16 
0.302697 -0.622405 -0.374081 13 
0.30429 -0.623136 -0.37383 12 
0.304706 -0.623328 -0.373104 13 
0.304826 -0.623386 -0.372259 13 
0.303422 -0.622745 -0.370813 15 
0.305762 -0.623818 -0.370842 19 
0.305388 -0.623649 -0.369804 20 
0.305609 -0.623753 -0.368999 24 
0.30435 -0.623179 -0.367622 19 
0.306251 -0.624051 -0.367464 20 
0.304152 -0.623093 -0.365773 19 
0.306449 -0.624146 -0.365759 22 
0.306871 -0.624341 -0.365028 26 
0.306548 -0.624196 -0.364017 23 
0.305237 -0.623598 -0.362641 22 
0.305906 -0.623906 -0.362003 24 
0.304994 -0.623491 -0.360782 24 
0.304824 -0.623416 -0.359837 28 
0.304802 -0.623408 -0.358947 22 
0.30429 -0.623175 -0.357881 29 
0.305547 -0.623753 -0.357454 29 
0.304886 -0.623453 -0.356336 31 
0.305013 -0.623513 -0.355502 28 
0.302551 -0.622388 -0.353755 29 
0.303407 -0.622782 -0.353183 33 
0.303437 -0.622798 -0.352319 25 
0.304542 -0.623306 -0.351829 27 
0.301897 -0.622098 -0.350043 25 
0.303091 -0.622647 -0.349584 26 
0.301332 -0.621844 -0.348115 27 
0.301268 -0.621817 -0.347228 29 
0.299051 -0.620804 -0.345619 27 
0.299895 -0.621192 -0.345041 30 
0.300694 -0.62156 -0.344445 30 
0.301496 -0.62193 -0.343847 30 
0.299328 -0.62094 -0.342275 36 
0.299267 -0.620914 -0.341398 31 
0.29935 -0.620954 -0.340568 37 
0.29891 -0.620755 -0.33957 37 
0.29885 -0.62073 -0.338697 36 
0.299457 -0.621009 -0.338034 30 
0.297976 -0.620334 -0.336715 37 
0.295062 -0.619002 -0.334955 37 
0.29678 -0.619791 -0.334644 37 
0.296396 -0.619617 -0.333678 36 
0.297937 -0.620324 -0.333303 29 
0.296613 -0.61972 -0.332054 35 
0.297497 -0.620127 -0.331475 38 
0.295664 -0.61929 -0.330081 34 
0.2972 -0.619995 -0.329695 39 
0.298133 -0.620425 -0.329126 31 
0.297985 -0.620359 -0.328237 31 
0.295732 -0.61933 -0.326738 30 
0.300245 -0.621398 -0.3272 36 
0.298109 -0.620422 -0.32574 34 
0.298669 -0.62068 -0.325056 38 
0.298193 -0.620464 -0.324077 37 
0.297812 -0.620292 -0.323129 47 
0.297903 -0.620336 -0.322313 49 
0.298464 -0.620595 -0.321627 48 
0.298649 -0.620682 -0.320837 43 
0.299781 -0.621202 -0.320303 47 
0.299542 -0.621094 -0.319395 51 
0.299919 -0.621269 -0.318654 52 
0.300155 -0.621379 -0.317875 49 
0.300248 -0.621424 -0.317057 56 
0.300247 -0.621426 -0.316215 56 
0.30158 -0.622038 -0.315719 60 
0.300912 -0.621734 -0.314705 56 
0.301103 -0.621824 -0.313912 56 
0.300961 -0.621761 -0.313035 54 
0.301296 -0.621916 -0.312278 57 
0.301583 -0.62205 -0.311509 56 
0.302207 -0.622337 -0.310821 58 
0.301779 -0.622143 -0.309876 61 
0.302451 -0.622453 -0.309198 62 
0.303511 -0.622941 -0.308611 56 
0.30448 -0.623387 -0.307999 64 
0.303856 -0.623103 -0.307007 61 
0.304537 -0.623417 -0.306324 65 
0.30488 -0.623576 -0.30556 69 
0.304982 -0.623625 -0.30474 76 
0.305328 -0.623785 -0.303975 78 
0.306063 -0.624124 -0.303297 71 
0.306411 -0.624285 -0.30253 69 
0.306125 -0.624156 -0.301622 69 
0.306571 -0.624363 -0.300876 73 
0.306677 -0.624413 -0.300054 72 
0.307321 -0.62471 -0.299349 77 
0.307869 -0.624963 -0.29862 69 
0.308715 -0.625353 -0.297953 71 
0.31006 -0.625971 -0.297386 71 
0.310567 -0.626205 -0.296642 73 
0.309288 -0.625621 -0.295531 79 
0.310588 -0.626219 -0.294947 80 
0.309953 -0.625931 -0.293971 78 
0.310661 -0.626256 -0.293264 90 
0.310822 -0.626333 -0.292447 85 
0.311184 -0.6265 -0.291669 85 
0.311696 -0.626737 -0.290919 85 
0.31151 -0.626654 -0.290034 82 
0.311325 -0.626571 -0.289151 86 
0.311041 -0.626443 -0.288251 86 
0.311705 -0.626749 -0.287526 88 
0.312171 -0.626965 -0.286763 86 
0.311937 -0.62686 -0.285873 88 
0.312304 -0.62703 -0.285091 88 
0.313225 -0.627454 -0.284405 82 
0.31184 -0.626822 -0.283316 81 
0.312208 -0.626993 -0.282533 79 
0.312478 -0.627118 -0.281733 78 
0.313049 -0.627382 -0.280982 78 
0.313471 -0.627577 -0.280204 76 
0.312288 -0.627037 -0.279164 82 
0.31271 -0.627233 -0.278387 85 
0.313384 -0.627544 -0.277648 89 
0.314162 -0.627902 -0.276924 91 
0.314084 -0.627869 -0.276064 87 
0.314259 -0.627951 -0.275244 88 
0.314384 -0.62801 -0.274415 93 
0.314712 -0.628163 -0.273617 91 
0.314838 -0.628223 -0.272788 100 
0.315219 -0.628399 -0.271995 106 
0.315549 -0.628552 -0.271194 117 
0.315576 -0.628567 -0.27035 110 
0.315858 -0.628698 -0.269541 105 
0.314872 -0.628248 -0.268559 104 
0.315661 -0.628612 -0.267818 105 
0.315132 -0.628372 -0.266902 101 
0.315212 -0.628411 -0.266066 106 
0.315293 -0.62845 -0.265231 97 
0.314364 -0.628026 -0.264268 103 
0.314698 -0.628181 -0.263466 104 
0.314125 -0.627921 -0.262553 116 
0.314107 -0.627915 -0.261709 122 
0.313889 -0.627817 -0.260841 127 
0.314577 -0.628134 -0.260079 120 
0.314259 -0.627991 -0.259201 124 
0.313439 -0.627617 -0.258268 121 
0.312973 -0.627406 -0.257377 120 
0.31341 -0.627608 -0.256586 116 
0.313848 -0.627811 -0.255793 123 
0.314238 -0.627991 -0.254993 124 
0.313221 -0.627528 -0.25405 132 
0.312609 -0.627249 -0.253152 136 
0.312299 -0.627109 -0.252285 145 
0.312388 -0.627152 -0.251458 144 
0.312428 -0.627172 -0.250626 138 
0.312319 -0.627125 -0.24978 131 
0.313209 -0.627535 -0.249024 133 
0.312401 -0.627167 -0.248118 130 
0.312244 -0.627097 -0.247269 137 
0.312038 -0.627004 -0.246418 130 
0.31263 -0.627277 -0.245632 136 
0.312325 -0.62714 -0.244773 134 
0.312369 -0.627162 -0.243943 136 
0.312315 -0.627139 -0.243105 131 
0.312809 -0.627368 -0.242307 132 
0.312806 -0.627368 -0.241472 135 
0.311608 -0.626822 -0.240556 142 
0.31285 -0.627393 -0.239807 137 
0.311753 -0.626892 -0.238902 135 
0.311851 -0.626939 -0.238077 135 
0.312 -0.627009 -0.237254 141 
0.312099 -0.627057 -0.236428 142 
0.311454 -0.626763 -0.235559 138 
0.311207 -0.626653 -0.234716 139 
0.311556 -0.626814 -0.233904 139 
0.311509 -0.626795 -0.233071 140 
0.312556 -0.627277 -0.232291 146 
0.31251 -0.627258 -0.231456 144 
0.312763 -0.627376 -0.230635 141 
0.312618 -0.627312 -0.229796 143 
0.311976 -0.627019 -0.228939 155 
0.312729 -0.627367 -0.228136 154 
0.313035 -0.627509 -0.227315 160 
0.312543 -0.627285 -0.226465 158 
0.312203 -0.627131 -0.225623 156 
0.311615 -0.626864 -0.224775 152 
0.311921 -0.627007 -0.223953 158 
0.311335 -0.62674 -0.223108 148 
0.311643 -0.626883 -0.222286 147 
0.311208 -0.626686 -0.221447 150 
0.311516 -0.626829 -0.220624 164 
0.310243 -0.626247 -0.219773 162 
0.309714 -0.626007 -0.218938 169 
0.309825 -0.62606 -0.218114 164 
0.30974 -0.626023 -0.217287 172 
0.309607 -0.625964 -0.216461 158 
0.309278 -0.625815 -0.215633 158 
0.309048 -0.625712 -0.214807 156 
0.309064 -0.625721 -0.213983 145 
0.3082 -0.625328 -0.213158 144 
0.308071 -0.62527 -0.212335 156 
0.307504 -0.625013 -0.211515 152 
0.307134 -0.624845 -0.210696 147 
0.306716 -0.624655 -0.209878 141 
0.306203 -0.624422 -0.209064 143 
0.305644 -0.624168 -0.208251 137 
0.304943 -0.623848 -0.207443 139 
0.304532 -0.623662 -0.206633 143 
0.303741 -0.623301 -0.205832 149 
0.303048 -0.622986 -0.205032 146 
0.302453 -0.622715 -0.204232 148 
0.302523 -0.622749 -0.203419 149 
0.302498 -0.62274 -0.202609 152 
0.301859 -0.622449 -0.201815 147 
0.301741 -0.622397 -0.201008 143 
0.301624 -0.622345 -0.200202 143 
0.301036 -0.622077 -0.199412 148 
0.299935 -0.621575 -0.198642 155 
0.299634 -0.621438 -0.197847 153 
0.300456 -0.621817 -0.197008 151 
0.299127 -0.62121 -0.196256 147 
0.299387 -0.621331 -0.19544 149 
0.299555 -0.62141 -0.194626 149 
0.297816 -0.620615 -0.193903 149 
0.296782 -0.620143 -0.193151 147 
0.29718 -0.620327 -0.19233 152 
0.297903 -0.620661 -0.191489 147 
0.29687 -0.620189 -0.190744 140 
0.296625 -0.620078 -0.189956 141 
0.296471 -0.62001 -0.189165 135 
0.296365 -0.619963 -0.18837 135 
0.296857 -0.620191 -0.187538 136 
0.297721 -0.620589 -0.186679 137 
0.296646 -0.620098 -0.185948 137 
0.296312 -0.619947 -0.18517 144 
0.297083 -0.620302 -0.184313 146 
0.297118 -0.62032 -0.183507 143 
0.296738 -0.620148 -0.182733 137 
0.297558 -0.620527 -0.181866 136 
0.296533 -0.620058 -0.181143 136 
0.2968 -0.620183 -0.180319 138 
0.296699 -0.620138 -0.179524 130 
0.297939 -0.620709 -0.178613 133 
0.296636 -0.620114 -0.177922 136 
0.296123 -0.61988 -0.177165 138 
0.296024 -0.619837 -0.176371 132 
0.295788 -0.61973 -0.175591 133 
0.295828 -0.619751 -0.174784 125 
0.296881 -0.620236 -0.173877 128 
0.297061 -0.620321 -0.173054 130 
0.296135 -0.619898 -0.172343 132 
0.296085 -0.619877 -0.171544 134 
0.297143 -0.620364 -0.170626 136 
