0.466942,0.0181661,0.112547,129
0.467579,0.0181149,0.1136,122
0.468101,0.0180726,0.114628,124
0.469453,0.0179663,0.115868,127
0.469034,0.0179966,0.116663,125
0.469325,0.0179721,0.11764,117
0.470746,0.0178604,0.118909,112
0.470029,0.0179137,0.119629,108
0.471039,0.0178337,0.120799,105
0.471456,0.0177995,0.121818,106
0.471395,0.0178022,0.122711,109
0.471993,0.0177539,0.123782,106
0.472113,0.0177426,0.124726,110
0.473922,0.0176009,0.12613,110
0.474469,0.0175566,0.127197,107
0.473442,0.0176338,0.127834,104
0.474961,0.0175145,0.129173,99
0.475513,0.0174698,0.130248,98
0.475334,0.0174815,0.131121,95
0.475644,0.0174555,0.132133,99
0.476568,0.0173821,0.133321,95
0.476574,0.0173794,0.13425,98
0.47812,0.017258,0.135625,100
0.47887,0.0171979,0.136776,101
0.479686,0.0171328,0.137949,98
0.479385,0.0171539,0.138797,88
0.479893,0.0171126,0.139884,87
0.481969,0.0169501,0.141443,94
0.482296,0.0169227,0.142485,96
0.481555,0.0169779,0.143205,98
0.483776,0.0168041,0.144826,98
0.484108,0.0167764,0.145877,95
0.483932,0.0167877,0.146773,88
0.485285,0.0166811,0.148145,85
0.484664,0.0167269,0.148904,87
0.484936,0.0167037,0.149944,84
0.484763,0.0167149,0.150844,83
0.485356,0.0166669,0.151989,91
0.48608,0.0166088,0.153179,84
0.486807,0.0165505,0.154373,79
0.487343,0.0165068,0.155509,76
0.488399,0.016423,0.156819,80
0.487645,0.0164791,0.157537,83
0.487345,0.0165001,0.158404,88
0.488404,0.016416,0.159723,83
0.487975,0.016447,0.160548,85
0.48969,0.0163122,0.162096,78
0.489195,0.0163483,0.162901,81
0.488635,0.0163894,0.163683,82
0.488923,0.016365,0.164755,82
0.487651,0.0164611,0.16529,80
0.487678,0.0164568,0.166273,86
0.487836,0.0164424,0.167301,87
0.48767,0.016453,0.168218,89
0.48731,0.0164786,0.169066,89
0.487081,0.0164942,0.16996,92
0.487305,0.0164746,0.171015,85
0.487012,0.0164951,0.171887,94
0.486461,0.0165355,0.172665,97
0.485332,0.0166207,0.173232,95
0.485299,0.0166211,0.174196,104
0.484495,0.016681,0.174877,99
0.484271,0.0166962,0.17577,92
0.483983,0.0167163,0.176639,85
0.484722,0.0166569,0.177891,83
0.485013,0.0166321,0.178979,85
0.484533,0.0166671,0.179778,84
0.484375,0.0166771,0.180698,84
0.486475,0.0165122,0.18248,81
0.484703,0.0166472,0.182786,78
0.485255,0.0166023,0.183982,71
0.487627,0.0164163,0.185887,72
0.486171,0.0165269,0.18631,71
0.487054,0.0164562,0.187645,72
0.486119,0.0165264,0.188268,72
0.486288,0.0165111,0.189326,67
0.489137,0.0162881,0.191452,64
0.489377,0.0162673,0.192546,62
0.487257,0.0164293,0.192694,53
0.489397,0.0162612,0.194555,50
0.488455,0.0163319,0.195175,48
0.490609,0.0161628,0.197055,56
0.490787,0.0161467,0.198134,52
0.490501,0.0161665,0.199025,55
0.489292,0.016258,0.199531,49
0.490529,0.0161598,0.201053,57
0.49124,0.0161024,0.202361,60
0.490028,0.0161941,0.202864,56
0.490275,0.0161726,0.203979,61
0.490523,0.0161511,0.205097,62
0.491971,0.0160365,0.20673,64
0.490158,0.0161748,0.20697,60
0.491339,0.0160809,0.208494,61
0.489862,0.0161932,0.208873,62
0.489383,0.016228,0.209681,61
0.488246,0.0163139,0.2102,59
0.488561,0.0162872,0.211354,63
0.487099,0.0163983,0.211726,62
0.488336,0.0163,0.213289,62
0.487072,0.0163958,0.213745,65
0.487717,0.0163434,0.21505,72
0.487047,0.0163931,0.215768,64
0.486969,0.0163968,0.216752,62
0.487353,0.0163648,0.217946,64
0.232622,0.038417,-0.110384,0
0.138383,0.0447909,-0.067268,0
0.434043,0.0247968,-0.203795,8
0.409906,0.0264265,-0.191531,7
0.435842,0.024671,-0.202814,7
0.443225,0.0241698,-0.205343,7
0.434189,0.0247787,-0.200218,7
0.433628,0.0248146,-0.19905,11
0.446037,0.0239733,-0.203853,10
0.438801,0.0244606,-0.199606,7
0.306841,0.0333847,-0.138774,8
0.435815,0.0246584,-0.19642,12
0.440487,0.0243403,-0.197622,10
0.437206,0.0245602,-0.19523,10
0.279817,0.0352076,-0.124274,0
0.435553,0.024668,-0.192676,8
0.440641,0.0243216,-0.194029,10
0.489911,0.0209854,-0.21488,0
0.443411,0.0241301,-0.193419,9
0.44143,0.0242621,-0.191635,14
0.442464,0.02419,-0.191173,9
0.444208,0.0240699,-0.191014,13
0.4452,0.0240006,-0.190525,11
0.443476,0.0241153,-0.188868,11
0.438205,0.0244701,-0.185704,11
0.463451,0.0227587,-0.195531,0
0.454655,0.0233521,-0.190857,10
0.44278,0.0241541,-0.184927,15
0.43991,0.0243465,-0.182817,14
0.447872,0.0238052,-0.185232,12
0.442828,0.0241447,-0.182224,13
0.440758,0.0242829,-0.180464,13
0.448194,0.0237772,-0.182614,14
0.44245,0.0241642,-0.179353,11
0.451721,0.0235341,-0.182218,14
0.446543,0.0238828,-0.179203,10
0.4487,0.0237346,-0.179161,10
0.446852,0.0238578,-0.177509,11
0.44676,0.0238619,-0.176564,8
0.463851,0.0227016,-0.182428,8
0.34112,0.0310182,-0.133246,0
0.452678,0.0234546,-0.176164,12
0.440863,0.0242535,-0.170639,9
0.453782,0.0233757,-0.174759,8
0.447806,0.0237788,-0.171534,10
0.451136,0.0235509,-0.171908,10
0.447901,0.0237682,-0.169762,11
0.454986,0.0232857,-0.17155,15
0.452534,0.0234499,-0.169706,16
0.452108,0.0234767,-0.168635,14
0.452297,0.0234619,-0.167796,11
0.455747,0.0232258,-0.16817,14
0.454977,0.023276,-0.16697,16
0.448769,0.0236951,-0.163774,14
0.454401,0.0233109,-0.164934,11
0.44931,0.0236543,-0.162172,13
0.453494,0.0233684,-0.162786,15
0.450515,0.0235684,-0.160808,13
0.454439,0.0233001,-0.161311,20
0.450841,0.0235422,-0.159125,18
0.45703,0.0231202,-0.160414,21
0.4566,0.0231473,-0.159352,20
0.453978,0.0233232,-0.157526,18
0.453166,0.0233763,-0.15634,20
0.452858,0.0233952,-0.155333,21
0.454955,0.0232508,-0.155154,22
0.45269,0.0234025,-0.153477,22
0.454729,0.023262,-0.153272,24
0.453025,0.0233757,-0.151796,25
0.454786,0.0232541,-0.15149,23
0.456221,0.0231546,-0.151069,25
0.453837,0.0233145,-0.149377,27
0.453588,0.0233294,-0.148398,26
0.455016,0.0232303,-0.147971,31
0.454263,0.0232795,-0.146829,34
0.454406,0.0232677,-0.14598,30
0.454661,0.0232484,-0.145168,28
0.454805,0.0232366,-0.144319,30
0.453777,0.0233044,-0.143098,24
0.4542,0.0232736,-0.142341,27
0.45312,0.023345,-0.141111,25
0.452766,0.0233671,-0.140112,23
0.451475,0.0234528,-0.138825,24
0.451565,0.0234447,-0.137968,24
0.450831,0.0234926,-0.13686,22
0.454965,0.0232096,-0.137236,20
0.452721,0.0233601,-0.135669,28
0.451214,0.0234605,-0.134334,33
0.452795,0.0233511,-0.133925,34
0.449975,0.0235408,-0.132208,29
0.448707,0.0236251,-0.130958,35
0.451971,0.0234012,-0.131039,28
0.451954,0.0234003,-0.130155,28
0.449912,0.0235372,-0.128689,34
0.449027,0.0235954,-0.127562,31
0.448255,0.023646,-0.126471,34
0.44668,0.0237512,-0.125158,34
0.447205,0.0237135,-0.12444,32
0.446924,0.0237306,-0.123496,35
0.444563,0.0238893,-0.121979,33
0.44642,0.023761,-0.121629,33
0.443061,0.0239876,-0.119852,36
0.443686,0.0239432,-0.119166,37
0.443889,0.0239274,-0.118365,40
0.443089,0.0239799,-0.117296,38
0.44398,0.0239174,-0.116678,38
0.443075,0.023977,-0.115586,39
0.442228,0.0240328,-0.114513,41
0.441019,0.0241132,-0.11335,46
0.440337,0.0241577,-0.112328,44
0.440021,0.0241773,-0.111403,49
0.439706,0.0241968,-0.110479,44
0.440326,0.0241527,-0.109792,48
0.440427,0.024144,-0.108974,45
0.439026,0.0242374,-0.107785,56
0.438767,0.0242532,-0.106882,48
0.439695,0.0241881,-0.106269,54
0.437942,0.0243056,-0.105006,52
0.437942,0.0243037,-0.10417,56
0.43697,0.024368,-0.103104,55
0.43738,0.0243382,-0.102368,61
0.437382,0.0243362,-0.101535,57
0.437691,0.0243133,-0.100774,59
0.436723,0.0243774,-0.0997189,60
0.437083,0.024351,-0.0989706,62
0.437188,0.0243419,-0.098164,58
0.437447,0.0243223,-0.097392,58
0.437656,0.0243062,-0.0966083,62
0.43761,0.0243075,-0.095768,64
0.437156,0.0243366,-0.0948394,62
0.437519,0.02431,-0.09409,64
0.437372,0.0243181,-0.0932302,63
0.438145,0.0242635,-0.0925672,69
0.437999,0.0242716,-0.0917079,66
0.437393,0.024311,-0.0907539,62
0.437963,0.0242703,-0.0900457,65
0.43833,0.0242434,-0.0892943,74
0.437573,0.0242932,-0.0883136,72
0.437889,0.0242698,-0.0875522,73
0.43749,0.0242951,-0.0866478,63
0.438779,0.0242053,-0.0860783,66
0.439612,0.0241466,-0.0854153,70
0.438648,0.0242105,-0.0844017,70
0.438302,0.0242323,-0.0835106,66
0.439134,0.0241736,-0.082845,70
0.438993,0.0241814,-0.0819938,68
0.438341,0.024224,-0.0810485,71
0.439021,0.0241758,-0.0803513,67
0.439549,0.0241379,-0.0796242,71
0.439512,0.0241385,-0.0787939,77
0.439271,0.0241531,-0.0779276,70
0.440574,0.0240623,-0.0773351,74
0.439817,0.0241121,-0.0763787,83
0.440504,0.0240633,-0.0756747,83
0.440264,0.0240779,-0.0748101,87
0.440849,0.024036,-0.0740864,85
0.441436,0.023994,-0.0733612,92
0.440371,0.024065,-0.0723612,83
0.440751,0.0240371,-0.0716017,93
0.441185,0.0240056,-0.0708497,87
0.441671,0.0239706,-0.0701049,88
0.441744,0.0239637,-0.0692935,81
0.441507,0.0239781,-0.0684339,88
0.441529,0.0239747,-0.0676154,84
0.441035,0.0240066,-0.0667188,85
0.442094,0.0239324,-0.0660574,90
0.442585,0.023897,-0.0653083,94
0.44209,0.0239289,-0.0644135,93
0.442011,0.0239324,-0.063581,95
0.441158,0.0239889,-0.0626386,96
0.441856,0.0239394,-0.0619181,104
0.442193,0.0239144,-0.0611453,107
0.442324,0.0239036,-0.0603432,108
0.443184,0.023843,-0.0596393,104
0.442692,0.0238748,-0.0587526,109
0.443762,0.0237998,-0.0580732,114
0.44327,0.0238315,-0.0571879,119
0.444816,0.023724,-0.0565646,117
0.443643,0.0238023,-0.0555943,117
0.443779,0.0237912,-0.0547906,113
0.443915,0.02378,-0.0539868,113
0.444365,0.0237474,-0.0532204,111
0.445868,0.0236427,-0.052577,113
0.445796,0.0236458,-0.0517452,104
0.445252,0.0236811,-0.0508599,109
0.447609,0.023518,-0.0503035,107
0.446638,0.0235826,-0.0493701,106
0.446622,0.0235819,-0.0485445,103
0.446394,0.0235956,-0.0476966,109
0.447118,0.0235441,-0.0469499,109
0.447633,0.0235071,-0.0461791,111
0.447565,0.0235098,-0.0453476,113
0.448401,0.0234508,-0.0446065,115
0.448281,0.0234571,-0.0437693,118
0.447896,0.0234816,-0.0429073,123
0.448894,0.0234114,-0.0421769,126
0.450112,0.0233261,-0.0414632,132
0.449726,0.0233507,-0.0406005,129
0.449501,0.0233642,-0.0397538,131
0.449384,0.0233704,-0.0389175,132
0.45007,0.0233215,-0.0381497,131
0.450383,0.0232982,-0.0373487,133
0.450482,0.0232896,-0.0365294,132
0.451173,0.0232404,-0.0357568,127
0.451489,0.0232168,-0.0349528,123
0.451644,0.0232043,-0.0341357,124
0.451584,0.0232066,-0.0333025,127
0.452065,0.0231718,-0.0325083,124
0.452981,0.0231072,-0.0317429,126
0.453085,0.0230981,-0.0309192,123
0.452431,0.0231411,-0.0300452,122
0.453241,0.0230837,-0.0292677,127
0.454328,0.0230073,-0.0285046,130
0.454272,0.0230093,-0.0276685,136
0.454598,0.022985,-0.0268552,136
0.454598,0.0229832,-0.0260223,140
0.455419,0.022925,-0.0252346,141
0.455584,0.0229118,-0.0244093,140
0.45575,0.0228985,-0.0235834,133
0.456027,0.0228776,-0.0227626,129
0.457354,0.0227848,-0.0219906,128
0.457302,0.0227865,-0.021151,135
0.458581,0.0226969,-0.0203699,130
0.458474,0.0227023,-0.0195261,132
0.459259,0.0226466,-0.0187185,134
0.459656,0.0226174,-0.0178933,143
0.460054,0.0225882,-0.0170667,144
0.46079,0.0225358,-0.0162504,141
0.461417,0.022491,-0.0154279,151
0.46182,0.0224614,-0.0145963,149
0.461942,0.0224511,-0.0137551,144
0.4628,0.0223903,-0.0129334,138
0.463151,0.0223643,-0.0120959,145
0.463901,0.0223109,-0.0112664,143
0.464312,0.0222808,-0.0104269,139
0.464782,0.0222467,-0.00958709,141
0.465081,0.0222242,-0.00874256,140
0.465038,0.0222252,-0.00789154,136
0.465684,0.022179,-0.00705033,135
0.466619,0.0221129,-0.00621028,138
0.467039,0.0220821,-0.00536149,137
0.466595,0.0221106,-0.0045039,140
0.468058,0.0220083,-0.00366047,140
0.468541,0.0219732,-0.00280701,146
0.468967,0.021942,-0.00195161,147
0.469395,0.0219106,-0.00109463,141
0.469067,0.0219313,-0.000236713,141
0.469205,0.0219198,0.000621263,142
0.468994,0.0219324,0.00147817,141
0.470419,0.0218326,0.00234484,137
0.469741,0.0218772,0.00319938,131
0.471231,0.0217729,0.00407344,128
0.471845,0.0217288,0.00494255,135
0.471518,0.0217493,0.00580093,128
0.471192,0.0217697,0.00665815,135
0.471278,0.0217618,0.00752147,126
0.472073,0.0217053,0.00839891,130
0.471395,0.0217499,0.00924802,126
0.472723,0.0216567,0.0101411,123
0.472754,0.0216526,0.0110068,118
0.473438,0.0216037,0.0118902,122
0.472463,0.0216687,0.0127285,119
0.472083,0.0216929,0.0135815,123
0.471881,0.0217048,0.014439,119
0.472387,0.0216681,0.0153201,124
0.471479,0.0217286,0.016152,121
0.4724,0.0216633,0.0170502,117
0.472023,0.0216872,0.0179002,123
0.471294,0.0217354,0.0187342,124
0.471627,0.0217106,0.0196118,120
0.471842,0.0216938,0.0204856,122
0.472473,0.0216485,0.0213798,123
0.472158,0.0216681,0.0222301,121
0.472436,0.0216471,0.0231096,126
0.472833,0.0216178,0.0239966,124
0.472698,0.0216251,0.024856,118
0.474108,0.0215262,0.0258026,121
0.472786,0.0216152,0.0265948,126
0.472476,0.0216346,0.0274434,131
0.472166,0.0216539,0.0282909,137
0.471446,0.0217015,0.0291112,140
0.471198,0.0217166,0.0299601,140
0.471894,0.0216668,0.0308723,143
0.471412,0.021698,0.0317051,144
0.471992,0.0216561,0.0326124,149
0.471275,0.0217035,0.0334268,137
0.471384,0.021694,0.0343009,137
0.470612,0.0217452,0.0351077,142
0.470605,0.0217438,0.0359722,147
0.469894,0.0217907,0.0367801,142
0.470182,0.021769,0.037668,142
0.470705,0.021731,0.0385772,135
0.46912,0.0218382,0.0393063,135
0.468358,0.0218887,0.0401025,128
0.468821,0.0218548,0.0410065,139
0.46847,0.0218771,0.0418375,141
0.468526,0.0218712,0.0427057,145
0.467944,0.0219094,0.0435132,147
0.467944,0.0219075,0.0443757,154
0.467828,0.0219135,0.0452269,144
0.468294,0.0218794,0.046137,145
0.467889,0.0219054,0.0469591,146
0.467718,0.0219152,0.0478045,144
0.467431,0.0219331,0.0486372,135
0.466104,0.0220225,0.049356,138
0.466167,0.0220163,0.0502238,137
0.465768,0.0220418,0.0510403,137
0.465601,0.0220513,0.0518822,137
0.464861,0.0221005,0.0526569,136
0.464409,0.0221296,0.0534633,137
0.465162,0.0220757,0.0544132,137
0.464368,0.0221286,0.0551772,140
0.463976,0.0221537,0.0559886,142
0.464329,0.0221274,0.0568925,142
0.463824,0.0221602,0.0576885,135
0.463093,0.0222087,0.0584537,129
0.463732,0.0221627,0.0593965,126
0.463573,0.0221717,0.0602356,132
0.462503,0.0222436,0.0609514,135
0.462744,0.022225,0.0618432,131
0.462076,0.0222692,0.06261,132
0.462033,0.0222701,0.0634627,136
0.461199,0.0223258,0.0642025,134
0.46048,0.0223734,0.0649564,132
0.45982,0.022417,0.0657166,134
0.460344,0.022379,0.0666502,132
0.461322,0.0223095,0.0676544,131
0.459816,0.0224115,0.0682849,126
0.460229,0.0223811,0.0692055,127
0.460474,0.0223622,0.070102,130
0.459087,0.022456,0.0707423,128
0.4595,0.0224256,0.0716652,123
0.460422,0.0223599,0.0726724,120
0.460219,0.0223721,0.0734993,122
0.458387,0.0224966,0.0740568,117
0.459082,0.0224467,0.0750303,115
0.460344,0.0223575,0.0761028,114
0.460538,0.0223422,0.0769979,116
0.459379,0.0224203,0.07766,121
0.461609,0.0222643,0.0789109,125
0.461012,0.0223037,0.0796708,124
0.460982,0.0223037,0.0805305,128
0.460557,0.0223312,0.081319,134
0.460528,0.0223312,0.0821787,134
0.460897,0.0223038,0.0831121,140
0.4607,0.0223154,0.0839419,138
0.460446,0.0223309,0.0847609,138
0.461157,0.0222799,0.0857627,137
0.460735,0.0223071,0.0865501,135
0.460937,0.0222912,0.0874574,139
0.460629,0.0223105,0.0882663,144
0.460266,0.0223336,0.0890634,145
0.461321,0.0222587,0.0901427,143
0.461754,0.0222268,0.0911013,144
0.461448,0.022246,0.0919116,135
0.462454,0.0221745,0.0929908,126
0.462605,0.0221621,0.0938972,132
0.462356,0.0221773,0.094721,134
0.46268,0.0221529,0.0956653,130
0.462547,0.0221601,0.096514,122
0.46293,0.0221316,0.0974737,123
0.462397,0.0221665,0.0982367,120
0.463644,0.0220783,0.0993875,113
0.464551,0.0220136,0.100469,116
0.463958,0.0220526,0.10122,115
0.464058,0.0220436,0.102126,106
0.46416,0.0220346,0.103032,106
0.464204,0.0220296,0.103926,105
0.46564,0.0219282,0.105142,103
0.465744,0.021919,0.106055,114
0.466665,0.0218532,0.10716,117
0.466013,0.0218964,0.107897,126
0.466937,0.0218304,0.109008,125
0.467689,0.0217763,0.110082,129
0.468859,0.0216933,0.11126,127
0.468025,0.021749,0.111955,128
0.468784,0.0216944,0.113039,129
0.468364,0.0217215,0.113834,125
0.469837,0.0216175,0.115101,131
0.469475,0.0216405,0.115912,126
0.470361,0.0215771,0.11704,126
0.470595,0.0215588,0.118004,120
0.47083,0.0215405,0.118971,114
0.471305,0.0215056,0.120001,110
0.472082,0.0214497,0.121113,104
0.472922,0.0213894,0.122245,104
0.472681,0.0214041,0.123094,111
0.473102,0.0213728,0.12412,108
0.473284,0.0213582,0.125083,105
0.473466,0.0213435,0.126048,108
0.474924,0.0212404,0.127364,105
0.474988,0.0212339,0.128301,103
0.475235,0.0212147,0.129291,102
0.476339,0.0211361,0.130521,99
0.476835,0.0210997,0.131586,95
0.476595,0.0211142,0.132445,97
0.476969,0.0210861,0.133479,98
0.477592,0.0210409,0.134586,97
0.479084,0.0209353,0.135948,99
0.47959,0.0208981,0.137029,96
0.481223,0.0207828,0.138443,92
0.48067,0.020819,0.13922,92
0.481119,0.0207857,0.140292,98
0.482073,0.0207175,0.141519,106
0.482653,0.0206751,0.142637,107
0.481972,0.0207202,0.143376,104
0.484137,0.0205679,0.144981,95
0.484788,0.0205206,0.146131,88
0.485186,0.0204908,0.147206,89
0.485011,0.0205008,0.148105,86
0.487403,0.0203327,0.149807,79
0.48697,0.0203606,0.15063,82
0.487182,0.0203437,0.151657,81
0.488106,0.0202774,0.152912,85
0.487932,0.0202873,0.153819,88
0.488666,0.0202342,0.15502,84
0.488104,0.020271,0.155803,76
0.48936,0.0201816,0.15718,80
0.490167,0.0201234,0.158414,79
0.489147,0.0201921,0.159048,77
0.490805,0.0200747,0.16057,78
0.489914,0.0201344,0.161246,84
0.490857,0.0200668,0.162537,86
0.49049,0.02009,0.163388,82
0.490582,0.0200814,0.164396,82
0.490544,0.0200818,0.16536,90
0.489328,0.0201641,0.165919,89
0.489683,0.0201372,0.167018,90
0.489385,0.0201557,0.167892,91
0.48948,0.0201469,0.168903,90
0.489576,0.020138,0.169916,87
0.489214,0.0201609,0.170768,87
0.488722,0.0201929,0.171573,85
0.487906,0.0202474,0.17226,90
0.488785,0.0201841,0.173557,88
0.48745,0.0202747,0.174054,96
0.48554,0.0204052,0.174337,100
0.485701,0.0203918,0.175373,94
0.48554,0.0204007,0.176292,94
0.485638,0.0203917,0.177307,86
0.485413,0.0204051,0.178203,79
0.485189,0.0204184,0.1791,81
0.485611,0.0203869,0.18024,84
0.4861,0.0203507,0.181408,82
0.486201,0.0203415,0.182431,76
0.486692,0.0203051,0.183604,75
0.48738,0.020255,0.184857,73
0.486637,0.0203044,0.185559,66
0.487849,0.0202179,0.18702,75
0.487562,0.0202356,0.1879,77
0.487667,0.0202261,0.188935,70
0.490403,0.0200335,0.191011,66
0.489389,0.0201018,0.191609,64
0.488314,0.0201743,0.192178,63
0.489474,0.0200913,0.193643,58
0.490774,0.0199986,0.195169,55
0.489892,0.0200577,0.195816,50
0.490268,0.0200293,0.196974,51
0.490446,0.0200146,0.198053,50
0.490425,0.0200138,0.199052,54
0.490339,0.0200175,0.200025,53
0.491184,0.0199564,0.201385,59
0.491365,0.0199415,0.202473,60
0.491147,0.0199544,0.203394,59
0.49173,0.0199115,0.204654,59
0.490315,0.0200078,0.205069,61
0.491764,0.0199046,0.206701,64
0.490348,0.0200008,0.207112,64
0.490998,0.0199533,0.208408,61
0.490118,0.0200123,0.209045,65
0.489439,0.0200572,0.209768,63
0.489557,0.0200467,0.210836,66
0.48855,0.0201146,0.211412,65
0.488999,0.020081,0.212628,69
0.487731,0.020167,0.213085,65
0.488974,0.0200782,0.214656,65
0.487771,0.0201596,0.215139,78
0.488619,0.0200983,0.21654,66
0.48788,0.0201474,0.217229,70
0.486814,0.0202194,0.217767,67
0.722016,0.0110044,-0.343508,7
0.431799,0.0283286,-0.203742,6
0.439062,0.0278928,-0.206265,7
0.438164,0.0279444,-0.204919,10
0.427588,0.0285739,-0.199046,9
0.461559,0.0265429,-0.21399,0
0.437502,0.0279777,-0.201852,10
0.436034,0.0280633,-0.200258,8
0.436783,0.0280165,-0.199689,9
0.276418,0.0375968,-0.125782,0
0.437492,0.02797,-0.198187,6
0.444928,0.0275236,-0.200648,9
0.438257,0.0279202,-0.196708,8
0.443422,0.0276094,-0.198116,12
0.437699,0.0279494,-0.194633,9
0.443661,0.027591,-0.196379,11
0.44487,0.0275166,-0.195994,7
0.447905,0.027333,-0.19641,10
0.439608,0.027827,-0.191838,8
0.439675,0.027821,-0.190958,10
0.447828,0.0273314,-0.193594,9
0.44136,0.0277161,-0.189869,15
0.44391,0.0275615,-0.190056,14
0.446873,0.0273822,-0.190411,10
0.448541,0.0272804,-0.190202,12
0.440616,0.0277524,-0.185914,10
0.450569,0.0271548,-0.189213,9
0.44908,0.0272419,-0.187661,9
0.444213,0.027531,-0.184703,11
0.254544,0.0388803,-0.105399,0
0.453093,0.0269955,-0.186561,11
0.442695,0.0276156,-0.181347,12
0.445527,0.0274441,-0.181603,14
0.446527,0.0273822,-0.1811,11
0.449739,0.0271878,-0.181494,12
0.448428,0.0272643,-0.180046,13
0.454255,0.0269133,-0.181476,8
0.448352,0.0272647,-0.178189,0
0.442661,0.0276034,-0.175012,9
0.69278,0.0126231,-0.273449,0
0.45432,0.026901,-0.177807,8
0.452368,0.0270159,-0.17612,9
0.449382,0.0271927,-0.174039,10
0.45894,0.026618,-0.176836,9
0.451307,0.0270733,-0.172962,13
0.451772,0.0270433,-0.172229,10
0.447154,0.027318,-0.169553,14
0.450533,0.0271135,-0.169934,13
0.451666,0.0270435,-0.169453,11
0.44969,0.0271599,-0.167801,12
0.45485,0.0268485,-0.168824,16
0.455777,0.0267909,-0.168254,12
0.447451,0.027288,-0.164261,12
0.453732,0.0269094,-0.165672,13
0.451519,0.02704,-0.163953,13
0.455468,0.0268012,-0.164484,14
0.454644,0.0268485,-0.163274,22
0.454161,0.0268754,-0.16219,19
0.4534,0.026919,-0.16101,18
0.453985,0.0268819,-0.160313,19
0.4525,0.0269689,-0.158882,22
0.453028,0.0269352,-0.158165,16
0.453949,0.0268779,-0.157585,19
0.455776,0.0267662,-0.157316,18
0.453722,0.0268875,-0.1557,20
0.454871,0.0268165,-0.155193,24
0.456592,0.0267111,-0.154877,23
0.458554,0.0265913,-0.154638,18
0.455629,0.0267648,-0.152742,24
0.455376,0.026778,-0.151754,20
0.454226,0.026845,-0.150469,23
0.453919,0.0268614,-0.149469,28
0.457329,0.0266546,-0.149696,27
0.453142,0.026904,-0.147422,28
0.453118,0.0269034,-0.14652,31
0.45226,0.0269529,-0.145349,30
0.451517,0.0269955,-0.14422,24
0.453714,0.0268615,-0.144033,34
0.454026,0.0268408,-0.14324,29
0.452501,0.0269304,-0.141867,28
0.452534,0.0269264,-0.140989,25
0.451683,0.0269755,-0.139836,23
0.449575,0.0271001,-0.138298,21
0.452859,0.0269008,-0.138428,20
0.452451,0.0269233,-0.137417,26
0.450449,0.0270417,-0.135923,28
0.453911,0.0268316,-0.136088,25
0.449701,0.0270827,-0.133939,24
0.451218,0.0269895,-0.133514,28
0.448578,0.0271462,-0.131853,34
0.450142,0.0270502,-0.131439,35
0.448655,0.0271376,-0.130128,35
0.447989,0.0271757,-0.129063,35
0.448734,0.0271289,-0.128406,35
0.446397,0.0272675,-0.126867,35
0.44811,0.0271625,-0.126487,34
0.445943,0.0272909,-0.125006,33
0.445503,0.0273154,-0.124019,35
0.445866,0.0272916,-0.123257,35
0.443142,0.0274535,-0.121642,32
0.443133,0.0274522,-0.120782,37
0.443176,0.0274476,-0.119938,39
0.442061,0.0275128,-0.118781,35
0.44459,0.0273587,-0.118607,33
0.443786,0.0274051,-0.117535,35
0.442248,0.0274957,-0.116274,39
0.440723,0.0275856,-0.115021,42
0.442603,0.0274705,-0.114664,38
0.441967,0.0275069,-0.113648,41
0.442487,0.0274736,-0.112933,42
0.439455,0.0276543,-0.11131,49
0.439192,0.0276682,-0.110401,46
0.438363,0.0277162,-0.109351,49
0.438463,0.0277083,-0.108536,46
0.438822,0.0276848,-0.107785,54
0.437585,0.0277574,-0.106642,51
0.437892,0.027737,-0.10588,51
0.438252,0.0277134,-0.10513,53
0.437995,0.027727,-0.104232,52
0.436714,0.0278023,-0.103092,54
0.437432,0.0277572,-0.102428,54
0.43636,0.0278199,-0.101344,55
0.437077,0.0277748,-0.100679,55
0.435805,0.0278495,-0.0995551,52
0.437184,0.0277645,-0.0990405,59
0.437086,0.0277686,-0.0981871,58
0.437396,0.027748,-0.0974263,59
0.437605,0.0277335,-0.0966424,62
0.437252,0.027753,-0.0957343,62
0.437718,0.027723,-0.0950068,59
0.437877,0.0277115,-0.0942117,61
0.437883,0.0277093,-0.0933838,70
0.437583,0.0277255,-0.0924911,70
0.438718,0.0276552,-0.0919024,70
0.438725,0.0276529,-0.0910745,68
0.438425,0.0276691,-0.0901835,65
0.438742,0.0276481,-0.0894204,67
0.437726,0.0277075,-0.0883862,70
0.43748,0.0277205,-0.0875111,73
0.439079,0.0276222,-0.0870048,71
0.439295,0.0276073,-0.0862202,71
0.439203,0.0276109,-0.085375,68
0.439112,0.0276146,-0.0845308,72
0.439278,0.0276027,-0.0837367,72
0.440115,0.0275503,-0.0830696,70
0.439201,0.0276036,-0.0820709,68
0.439574,0.0275792,-0.0813156,74
0.440155,0.0275423,-0.0805974,72
0.44017,0.0275395,-0.0797743,74
0.440081,0.027543,-0.0789331,77
0.439788,0.0275589,-0.078056,81
0.440216,0.0275311,-0.0773078,85
0.440749,0.0274971,-0.0765767,82
0.44118,0.0274692,-0.0758264,83
0.441561,0.0274443,-0.0750662,86
0.441994,0.0274163,-0.074314,83
0.441805,0.0274258,-0.0734565,81
0.441305,0.0274542,-0.0725489,84
0.443355,0.0273285,-0.0720596,86
0.442176,0.0273979,-0.0710421,83
0.442717,0.0273633,-0.0703038,87
0.441698,0.027423,-0.069318,80
0.443962,0.0272843,-0.0688474,82
0.442365,0.0273789,-0.067775,82
0.442284,0.027382,-0.0669392,83
0.442204,0.027385,-0.0661041,89
0.441812,0.0274068,-0.0652237,91
0.4422,0.0273815,-0.064459,90
0.442797,0.0273435,-0.0637235,94
0.442875,0.027337,-0.062912,97
0.442901,0.0273335,-0.0620934,105
0.443606,0.027289,-0.0613692,99
0.443947,0.0272666,-0.0605928,109
0.444132,0.0272535,-0.0597944,108
0.444265,0.0272436,-0.0589888,109
0.443718,0.0272748,-0.0580938,113
0.443382,0.0272933,-0.0572284,118
0.444301,0.0272358,-0.0565245,111
0.445224,0.0271781,-0.0558181,121
0.444887,0.0271966,-0.0549526,126
0.445814,0.0271387,-0.0542426,118
0.445057,0.0271827,-0.0533274,111
0.446249,0.0271087,-0.0526456,105
0.445807,0.0271335,-0.0517697,107
0.446528,0.027088,-0.0510287,108
0.447092,0.027052,-0.0502677,111
0.447712,0.0270127,-0.0495109,110
0.447535,0.0270215,-0.0486655,113
0.447784,0.0270045,-0.0478665,118
0.447928,0.026994,-0.0470558,121
0.448926,0.0269317,-0.046333,123
0.449017,0.0269243,-0.0455149,116
0.449699,0.0268811,-0.0447553,117
0.449792,0.0268736,-0.0439361,122
0.44935,0.0268985,-0.0430655,126
0.450035,0.0268552,-0.0423025,123
0.449486,0.0268865,-0.0414238,131
0.450011,0.0268529,-0.040644,129
0.450376,0.0268289,-0.0398485,131
0.451336,0.0267689,-0.0391031,132
0.451542,0.0267545,-0.0382907,126
0.450993,0.0267859,-0.0374154,127
0.451524,0.0267518,-0.0366295,126
0.452003,0.0267209,-0.0358378,126
0.45232,0.0266998,-0.035032,134
0.453618,0.0266193,-0.034299,130
0.453394,0.026631,-0.0334497,136
0.453988,0.0265931,-0.0326599,131
0.453166,0.026641,-0.0317694,123
0.454361,0.0265667,-0.0310189,126
0.454741,0.0265418,-0.0302104,126
0.453918,0.0265898,-0.0293235,127
0.455064,0.0265184,-0.0285625,133
0.454898,0.0265266,-0.027718,135
0.454787,0.0265315,-0.0268776,139
0.45594,0.0264596,-0.0261093,135
0.455664,0.0264744,-0.0252587,142
0.456492,0.0264224,-0.0244675,137
0.458043,0.0263263,-0.0237105,134
0.457435,0.0263614,-0.0228414,127
0.457659,0.0263459,-0.0220142,130
0.459389,0.026239,-0.0212548,129
0.459616,0.0262233,-0.0204235,130
0.459677,0.0262177,-0.0195844,130
0.460242,0.0261815,-0.0187655,137
0.46143,0.0261075,-0.0179681,142
0.46138,0.0261087,-0.0171217,148
0.462008,0.0260686,-0.0162989,140
0.462979,0.0260077,-0.0154849,146
0.463158,0.0259949,-0.0146432,145
0.463851,0.025951,-0.0138156,144
0.464431,0.0259138,-0.0129825,135
0.465186,0.0258661,-0.0121517,139
0.465944,0.0258181,-0.0113183,138
0.465784,0.0258259,-0.0104624,136
0.466027,0.0258092,-0.0096151,140
0.466328,0.025789,-0.00876794,146
0.466862,0.0257546,-0.00792338,139
0.467687,0.0257026,-0.00708095,146
0.467297,0.0257243,-0.00622078,142
0.468474,0.0256509,-0.00537814,148
0.468433,0.0256514,-0.00452093,142
0.4695,0.0255846,-0.00367114,139
0.469519,0.0255816,-0.00281248,139
0.469305,0.0255926,-0.0019531,136
0.46991,0.0255539,-0.00109532,139
0.471458,0.0254579,-0.000234465,143
0.471009,0.0254832,0.000626693,141
0.470973,0.0254835,0.00148809,136
0.470879,0.0254873,0.002349,134
0.471256,0.0254624,0.00321349,131
0.471929,0.0254195,0.00408241,122
0.472309,0.0253944,0.00495035,127
0.473284,0.0253332,0.00582799,129
0.472896,0.0253548,0.00668786,133
0.474411,0.0252607,0.00757979,128
0.473785,0.0252969,0.00843578,131
0.473042,0.0253401,0.00928702,126
0.472835,0.0253507,0.010148,118
0.472984,0.0253397,0.0110171,119
0.474206,0.0252634,0.0119157,115
0.473108,0.0253282,0.0127523,119
0.473974,0.0252736,0.013645,124
0.473235,0.0253166,0.0144889,123
0.473567,0.0252945,0.0153668,125
0.47283,0.0253373,0.0162075,124
0.472985,0.0253259,0.0170794,122
0.472963,0.0253253,0.017945,116
0.473178,0.0253102,0.0188205,118
0.472387,0.0253565,0.019653,123
0.473197,0.0253052,0.0205555,121
0.472999,0.0253153,0.0214135,121
0.472743,0.0253289,0.022268,125
0.472192,0.0253605,0.0231066,125
0.471998,0.0253704,0.0239622,127
0.472514,0.025337,0.024856,127
0.473032,0.0253035,0.0257521,125
0.474745,0.0251971,0.0267202,125
0.473359,0.0252796,0.0275078,129
0.473346,0.0252785,0.0283757,130
0.472858,0.0253062,0.0292135,142
0.473261,0.0252797,0.0301083,136
0.473667,0.025253,0.0310049,141
0.471817,0.0253638,0.0317462,136
0.472162,0.0253408,0.0326378,140
0.472627,0.0253105,0.0335395,136
0.4725,0.0253163,0.0343988,129
0.471604,0.0253689,0.0351985,134
0.470949,0.0254069,0.036014,141
0.470472,0.025434,0.0368417,139
0.470525,0.0254288,0.0377117,135
0.469464,0.0254915,0.038488,131
0.46987,0.0254648,0.0393872,135
0.469456,0.0254881,0.0402159,131
0.469219,0.0255006,0.0410592,133
0.469451,0.0254845,0.0419449,136
0.46834,0.0255503,0.0427057,131
0.468923,0.0255128,0.0436248,131
0.467641,0.0255891,0.0443644,140
0.46834,0.0255445,0.0452964,137
0.46741,0.0255992,0.0460663,138
0.467877,0.0255688,0.0469771,144
0.467822,0.0255702,0.0478351,143
0.46678,0.0256318,0.0485876,143
0.466148,0.0256685,0.0493811,143
0.465749,0.0256909,0.0501983,142
0.465005,0.0257343,0.0509755,142
0.465414,0.0257074,0.0518822,139
0.464328,0.0257718,0.0526168,141
0.464737,0.0257449,0.0535243,136
0.465262,0.0257108,0.0544477,139
0.464122,0.0257785,0.0551702,135
0.464131,0.025776,0.0560311,141
0.46334,0.0258224,0.0567918,137
0.464094,0.0257744,0.0577469,136
0.462506,0.0258695,0.058402,128
0.46343,0.0258111,0.0593815,124
0.463728,0.0257909,0.0602813,124
0.463913,0.0257777,0.0611674,126
0.463297,0.0258134,0.0619448,131
0.463425,0.0258036,0.0628236,136
0.461958,0.0258913,0.0634787,140
0.460783,0.0259611,0.0641703,141
0.462387,0.0258612,0.0652595,135
0.460758,0.0259588,0.0658817,138
0.46021,0.0259903,0.0666585,130
0.460397,0.025977,0.067544,130
0.460359,0.0259774,0.0683963,136
0.460152,0.0259881,0.0692229,133
0.461189,0.0259227,0.0702431,127
0.461039,0.0259299,0.0710803,118
0.46106,0.0259267,0.0719446,125
0.460346,0.0259685,0.0726906,118
0.461728,0.025882,0.073777,115
0.46124,0.0259099,0.0745598,118
0.461206,0.02591,0.0754173,118
0.461117,0.0259135,0.0762656,112
0.46171,0.0258753,0.0772306,115
0.461735,0.0258718,0.0781002,122
0.460909,0.0259203,0.0788216,128
0.461333,0.0258925,0.0797611,132
0.46119,0.0258993,0.0806014,135
0.461616,0.0258712,0.0815443,142
0.461473,0.025878,0.0823857,145
0.461389,0.0258812,0.0832377,148
0.461191,0.0258913,0.0840687,154
0.46162,0.0258631,0.0850173,148
0.461423,0.0258732,0.0858491,146
0.462025,0.0258344,0.086834,139
0.461829,0.0258444,0.087667,145
0.462491,0.025802,0.0886676,142
0.461896,0.0258364,0.0894229,141
0.461473,0.0258603,0.0902109,137
0.461394,0.0258632,0.0910669,137
0.462458,0.0257961,0.0921555,130
0.462953,0.0257638,0.093132,132
0.463162,0.025749,0.0940517,130
0.46297,0.0257587,0.0948888,128
0.463181,0.0257438,0.0958107,129
0.46299,0.0257536,0.0966484,124
0.46326,0.0257351,0.0975848,121
0.462668,0.0257693,0.0983361,116
0.463283,0.0257296,0.0993497,111
0.463786,0.0256968,0.100341,107
0.465974,0.0255608,0.101711,108
0.465319,0.0255989,0.102451,112
0.465189,0.0256049,0.103308,112
0.465175,0.0256037,0.104191,110
0.465977,0.0255525,0.105263,107
0.466082,0.0255441,0.106177,112
0.467065,0.0254818,0.107297,111
0.467582,0.0254481,0.108312,115
0.467984,0.0254214,0.109302,119
0.468446,0.025391,0.110308,126
0.468674,0.025375,0.11126,130
0.469554,0.025319,0.112373,128
0.469903,0.0252956,0.113359,128
0.470789,0.0252392,0.114481,127
0.470605,0.0252485,0.115339,116
0.471436,0.0251954,0.116452,112
0.471252,0.0252047,0.117312,110
0.471128,0.0252102,0.118187,112
0.472746,0.0251089,0.119511,110
0.472081,0.0251476,0.12025,109
0.473768,0.025042,0.121601,101
0.47268,0.0251068,0.122229,104
0.473888,0.0250305,0.123462,102
0.473403,0.0250582,0.124249,108
0.474192,0.0250077,0.125377,116
0.475961,0.024897,0.126774,113
0.474682,0.0249735,0.127347,115
0.475722,0.0249075,0.128553,102
0.476706,0.024845,0.129749,96
0.476588,0.0248502,0.130641,99
0.476654,0.024844,0.131586,93
0.477214,0.0248076,0.132671,92
0.477343,0.0247975,0.133637,91
0.477473,0.0247874,0.134604,97
0.479963,0.0246323,0.136253,89
0.479162,0.0246794,0.136956,92
0.480669,0.0245847,0.138333,92
0.481369,0.0245396,0.139478,94
0.483146,0.0244283,0.140947,97
0.482905,0.0244409,0.14182,95
0.485462,0.0242816,0.143535,92
0.483628,0.0243922,0.143931,94
0.484724,0.0243227,0.145214,94
0.48679,0.0241935,0.146799,94
0.486806,0.0241904,0.14776,90
0.486952,0.0241792,0.148763,83
0.486905,0.0241799,0.149706,80
0.488411,0.0240852,0.151139,84
0.487718,0.0241257,0.151882,77
0.48871,0.0240625,0.15316,80
0.488861,0.024051,0.154173,77
0.490449,0.0239511,0.155651,81
0.491127,0.0239072,0.156842,78
0.491611,0.0238753,0.157972,81
0.491043,0.023908,0.158759,78
0.49166,0.0238678,0.159936,80
0.491949,0.0238479,0.161008,77
0.491052,0.0239008,0.161685,84
0.491144,0.0238929,0.162692,80
0.491171,0.0238891,0.163678,83
0.492122,0.0238283,0.164979,83
0.492283,0.0238162,0.166015,82
0.492643,0.0237918,0.167121,84
0.49168,0.0238489,0.16777,82
0.491116,0.0238814,0.168556,86
0.489962,0.0239502,0.169133,90
0.490716,0.0239016,0.170379,86
0.490418,0.0239177,0.171256,85
0.490779,0.0238933,0.172368,84
0.489496,0.0239701,0.172893,91
0.489594,0.0239618,0.173911,92
0.488187,0.0240462,0.174385,93
0.487633,0.0240782,0.175164,92
0.487992,0.0240538,0.176278,90
0.487244,0.0240977,0.176985,88
0.486693,0.0241294,0.177764,89
0.488553,0.0240126,0.17944,85
0.488393,0.0240202,0.180367,84
0.487645,0.0240641,0.181072,83
0.487616,0.0240636,0.182049,75
0.487196,0.0240873,0.182877,74
0.488803,0.023986,0.18448,74
0.490423,0.0238839,0.186096,71
0.488487,0.024001,0.186343,74
0.489447,0.0239395,0.18771,74
0.490676,0.0238615,0.189187,72
0.48887,0.0239706,0.189476,75
0.489702,0.0239171,0.190802,64
0.490869,0.0238428,0.192266,62
0.489522,0.0239236,0.192731,61
0.4895,0.0239228,0.193722,54
0.491466,0.0237992,0.195518,53
0.493854,0.0236495,0.197494,52
0.491158,0.0238136,0.197407,47
0.491403,0.0237962,0.198516,54
0.489856,0.0238894,0.198888,54
0.489439,0.0239129,0.199723,48
0.489419,0.0239118,0.200722,52
0.492664,0.0237092,0.203088,55
0.489846,0.0238809,0.202919,58
0.491025,0.0238059,0.204429,61
0.490674,0.0238252,0.205295,59
0.49253,0.0237083,0.207101,64
0.489578,0.0238883,0.206856,63
0.489164,0.0239115,0.207693,64
0.488818,0.0239306,0.208557,66
0.489598,0.0238801,0.209912,70
0.488524,0.0239442,0.21046,62
0.489039,0.0239101,0.211703,65
0.489756,0.0238635,0.213038,65
0.488814,0.0239194,0.213641,67
0.488007,0.023967,0.214302,63
0.488325,0.023945,0.215464,72
0.487322,0.0240047,0.216035,64
0.488501,0.0239295,0.217587,68
0.487431,0.0239933,0.218126,67
0.430779,0.0317617,-0.204279,7
0.429198,0.0318416,-0.20262,7
0.575865,0.0242373,-0.271135,0
0.430194,0.0317859,-0.201281,8
0.438954,0.0313297,-0.204477,9
0.424647,0.0320694,-0.19689,7
0.435632,0.0314978,-0.201093,8
0.441183,0.0312079,-0.202743,10
0.436866,0.0314297,-0.199835,10
0.433469,0.0316038,-0.197367,8
0.43594,0.0314736,-0.197586,10
0.443443,0.0310823,-0.200078,9
0.4376,0.0313833,-0.196516,10
0.432122,0.0316655,-0.193144,9
0.436779,0.0314218,-0.194326,9
0.43574,0.0314737,-0.192956,8
0.439457,0.0312787,-0.193697,11
0.446242,0.0309245,-0.195777,8
0.45053,0.0306998,-0.196734,8
0.442178,0.0311313,-0.192152,10
0.447268,0.0308649,-0.19345,10
0.446343,0.0309109,-0.192125,11
0.444223,0.0310189,-0.19029,11
0.445601,0.0309452,-0.189964,12
0.448868,0.0307735,-0.190439,11
0.444373,0.0310049,-0.187607,12
0.443953,0.0310246,-0.186515,12
0.457566,0.0303154,-0.191325,9
0.444201,0.0310076,-0.184794,11
0.445578,0.030934,-0.184455,9
0.449117,0.030748,-0.185008,11
0.451811,0.0306059,-0.185198,10
0.451826,0.0306031,-0.18428,11
0.448222,0.0307883,-0.181885,8
0.448846,0.0307538,-0.181223,12
0.452602,0.0305565,-0.181825,11
0.464935,0.0299131,-0.18586,10
0.454102,0.0304743,-0.18058,11
0.451138,0.0306264,-0.178476,11
0.445858,0.0308989,-0.175469,8
0.4519,0.0305826,-0.176942,10
0.451526,0.0306,-0.175879,10
0.452216,0.030562,-0.175232,11
0.454035,0.0304653,-0.175021,10
0.447871,0.030784,-0.171725,12
0.455149,0.0304032,-0.173611,14
0.45023,0.0306571,-0.170814,9
0.451252,0.0306019,-0.170293,12
0.451161,0.0306045,-0.169348,15
0.452746,0.0305199,-0.169034,13
0.452543,0.0305284,-0.168047,13
0.452397,0.030534,-0.167082,13
0.455971,0.0303458,-0.167493,11
0.450326,0.0306377,-0.164503,12
0.456129,0.0303335,-0.16572,13
0.452711,0.0305094,-0.163563,19
0.453183,0.0304828,-0.162827,19
0.456197,0.0303238,-0.163003,19
0.453623,0.0304558,-0.161171,18
0.454548,0.0304056,-0.160593,21
0.453561,0.0304549,-0.159337,17
0.456067,0.0303223,-0.159312,17
0.451436,0.0305616,-0.156785,16
0.453806,0.030436,-0.15671,17
0.452546,0.0304996,-0.155372,21
0.457136,0.0302583,-0.156048,23
0.454899,0.0303729,-0.154376,19
0.454476,0.0303929,-0.15333,23
0.455405,0.0303425,-0.152742,25
0.457303,0.0302414,-0.152476,25
0.453162,0.0304554,-0.150189,27
0.456113,0.0302994,-0.150271,25
0.45434,0.0303898,-0.148785,27
0.453754,0.0304184,-0.147696,29
0.455469,0.0303269,-0.147359,30
0.452312,0.0304896,-0.145439,32
0.452011,0.0305033,-0.144451,31
0.452598,0.0304706,-0.143749,27
0.453187,0.0304379,-0.143045,28
0.454393,0.0303729,-0.142535,24
0.454931,0.0303428,-0.141811,25
0.452676,0.0304585,-0.140215,24
0.451382,0.0305241,-0.138927,26
0.452745,0.0304509,-0.138462,23
0.450406,0.030571,-0.13686,27
0.450882,0.0305442,-0.136124,26
0.448837,0.030649,-0.134625,30
0.449092,0.0306337,-0.133825,33
0.44984,0.0305927,-0.133171,31
0.448677,0.0306514,-0.13195,31
0.447846,0.0306928,-0.130831,38
0.450009,0.0305778,-0.13059,35
0.447545,0.0307046,-0.129,32
0.447747,0.0306921,-0.128188,30
0.445044,0.0308314,-0.126545,35
0.447883,0.0306811,-0.126487,36
0.446144,0.03077,-0.125127,31
0.444634,0.030847,-0.123839,31
0.443241,0.0309179,-0.12259,33
0.444079,0.0308721,-0.121964,37
0.443804,0.0308845,-0.121029,41
0.441577,0.0309991,-0.119565,35
0.443732,0.0308844,-0.119295,42
0.4433,0.0309051,-0.118322,39
0.441553,0.0309945,-0.117002,44
0.440812,0.0310313,-0.115955,43
0.441487,0.0309941,-0.115282,44
0.440696,0.0310336,-0.114227,40
0.440273,0.0310538,-0.113269,43
0.440216,0.0310549,-0.112409,42
0.439483,0.0310913,-0.111376,51
0.44026,0.0310488,-0.110729,49
0.438131,0.0311582,-0.109351,51
0.438645,0.0311294,-0.108639,50
0.437561,0.0311843,-0.10753,50
0.436636,0.0312308,-0.106466,50
0.437096,0.0312048,-0.105743,49
0.437558,0.0311788,-0.105019,48
0.439778,0.0310606,-0.104714,48
0.438072,0.0311481,-0.103469,54
0.436279,0.0312401,-0.102211,53
0.437715,0.031163,-0.101715,58
0.436947,0.0312013,-0.100703,63
0.437411,0.0311752,-0.0999772,61
0.436748,0.031208,-0.0989939,61
0.437828,0.0311496,-0.0984069,61
0.437729,0.0311529,-0.0975526,60
0.43799,0.0311373,-0.096779,60
0.437943,0.0311379,-0.0959372,62
0.438102,0.0311277,-0.0951411,66
0.4409,0.0309792,-0.0949154,64
0.438319,0.0311125,-0.0935268,70
0.437864,0.0311345,-0.0925999,69
0.438127,0.0311188,-0.0918267,67
0.438701,0.0310869,-0.0911175,76
0.438246,0.0311089,-0.0901941,67
0.43846,0.0310958,-0.0894099,70
0.439913,0.0310177,-0.0888767,67
0.43925,0.0310506,-0.0879134,73
0.439828,0.0310184,-0.0871999,66
0.439529,0.0310322,-0.0863117,67
0.439282,0.0310433,-0.0854354,67
0.439913,0.0310084,-0.0847302,74
0.439873,0.0310086,-0.0838947,73
0.43906,0.0310494,-0.0829132,73
0.439898,0.0310035,-0.0822451,70
0.441155,0.0309357,-0.081652,73
0.440132,0.0309875,-0.0806354,67
0.44056,0.0309631,-0.0798873,77
0.44099,0.0309387,-0.0791381,67
0.440384,0.0309687,-0.0782032,71
0.440555,0.0309578,-0.0774081,74
0.441765,0.0308924,-0.076794,74
0.440537,0.0309551,-0.0757549,76
0.441228,0.0309169,-0.0750485,85
0.44213,0.0308677,-0.0743755,81
0.442044,0.0308703,-0.0735346,82
0.442741,0.0308318,-0.0728236,82
0.442448,0.0308454,-0.0719488,80
0.442103,0.0308616,-0.0710673,77
0.442176,0.0308559,-0.0702539,82
0.443607,0.0307788,-0.0696547,83
0.442375,0.0308417,-0.0686359,84
0.443285,0.030792,-0.0679515,84
0.442524,0.0308302,-0.0670103,95
0.442756,0.0308161,-0.0662213,92
0.443146,0.0307938,-0.065455,94
0.443379,0.0307796,-0.0646648,96
0.4444,0.0307241,-0.0639878,101
0.444373,0.0307236,-0.063158,100
0.445031,0.0306872,-0.0624248,98
0.444689,0.0307033,-0.061551,107
0.444716,0.0307,-0.0607292,107
0.443957,0.0307381,-0.0598015,115
0.4443,0.0307182,-0.0590237,123
0.444959,0.0306816,-0.0582865,121
0.445094,0.0306726,-0.0574792,122
0.445388,0.0306553,-0.056692,118
0.445102,0.0306685,-0.0558313,117
0.445555,0.0306428,-0.0550633,116
0.446486,0.030592,-0.0543521,110
0.447049,0.0305605,-0.0535936,110
0.446075,0.0306098,-0.0526518,114
0.447594,0.030528,-0.0520037,113
0.447735,0.0305187,-0.0511925,111
0.447823,0.0305122,-0.0503753,104
0.448499,0.0304748,-0.0496229,110
0.448054,0.0304963,-0.0487465,109
0.448304,0.0304813,-0.0479463,111
0.448502,0.030469,-0.0471398,115
0.449879,0.0303946,-0.0464546,115
0.450349,0.030368,-0.0456725,111
0.451089,0.0303271,-0.0449159,112
0.449728,0.0303969,-0.0439518,112
0.450253,0.0303674,-0.0431733,117
0.451481,0.0303008,-0.0424593,120
0.450713,0.0303394,-0.0415572,123
0.450593,0.0303439,-0.0407167,127
0.45069,0.0303369,-0.039896,128
0.450842,0.030327,-0.0390798,131
0.452184,0.0302544,-0.038364,127
0.451633,0.0302815,-0.0374868,126
0.452275,0.0302458,-0.0367083,124
0.453573,0.0301755,-0.0359794,122
0.453348,0.0301855,-0.0351284,124
0.453559,0.0301725,-0.0343113,129
0.45388,0.0301536,-0.0335017,132
0.454696,0.0301087,-0.0327264,136
0.454143,0.030136,-0.031853,132
0.455291,0.0300736,-0.031097,128
0.454573,0.0301096,-0.030214,131
0.45611,0.0300266,-0.0294782,136
0.456107,0.0300248,-0.0286412,145
0.456382,0.0300085,-0.027821,142
0.456436,0.0300037,-0.026987,144
0.456933,0.0299756,-0.0261781,141
0.457654,0.0299357,-0.0253798,143
0.457766,0.0299279,-0.0245467,135
0.458101,0.0299083,-0.0237247,130
0.458381,0.0298916,-0.0228988,129
0.459277,0.0298424,-0.0221013,131
0.460009,0.0298018,-0.021293,128
0.459676,0.0298175,-0.0204357,131
0.46103,0.0297441,-0.0196502,132
0.461769,0.0297031,-0.0188352,139
0.461267,0.0297278,-0.0179703,144
0.462632,0.0296538,-0.017175,138
0.462866,0.0296395,-0.0163359,146
0.464185,0.0295679,-0.0155312,146
0.465111,0.0295171,-0.0147097,147
0.465407,0.0294995,-0.0138667,144
0.465245,0.0295061,-0.0130103,145
0.465256,0.0295036,-0.0121589,138
0.466073,0.0294585,-0.0113263,146
0.466489,0.0294346,-0.0104821,141
0.466155,0.0294503,-0.00962185,146
0.466689,0.0294202,-0.00877814,152
0.46734,0.0293838,-0.00793437,155
0.468459,0.0293227,-0.00709475,151
0.468125,0.0293384,-0.00623342,148
0.469016,0.0292894,-0.00538591,144
0.469618,0.0292556,-0.00453269,135
0.469929,0.0292372,-0.00367535,142
0.469831,0.0292405,-0.00281495,131
0.47132,0.0291598,-0.00195943,134
0.470634,0.0291941,-0.00109624,135
0.471893,0.0291255,-0.000233898,141
0.471915,0.0291224,0.000629749,140
0.472056,0.029113,0.00149404,135
0.471253,0.0291536,0.00235279,128
0.471572,0.0291347,0.00321789,127
0.472543,0.0290814,0.00409082,128
0.472569,0.029078,0.00495604,124
0.473427,0.0290307,0.00583293,127
0.473693,0.0290146,0.00670374,132
0.473126,0.0290427,0.00756095,130
0.473571,0.0290172,0.00843578,126
0.473303,0.0290294,0.00929713,121
0.474049,0.0289879,0.010181,125
0.473961,0.0289906,0.0110469,124
0.474889,0.0289395,0.0119398,124
0.475282,0.0289167,0.0128209,122
0.474477,0.0289574,0.0136669,129
0.474272,0.0289663,0.0145294,124
0.47377,0.0289909,0.0153811,124
0.473806,0.0289871,0.0162505,125
0.473247,0.0290147,0.0170975,125
0.475076,0.0289159,0.0180377,123
0.475414,0.028896,0.0189226,119
0.473004,0.0290218,0.0196892,120
0.473043,0.0290177,0.0205582,119
0.473738,0.0289789,0.0214585,119
0.473362,0.0289969,0.0223088,123
0.47394,0.0289643,0.0232066,125
0.473148,0.0290043,0.0240342,125
0.474145,0.0289495,0.024957,124
0.474189,0.0289452,0.0258296,127
0.472922,0.0290104,0.0266261,134
0.47398,0.0289523,0.0275581,131
0.472716,0.0290174,0.0283499,130
0.473537,0.0289719,0.0292706,139
0.472454,0.0290274,0.0300692,140
0.473394,0.0289755,0.0310009,137
0.472492,0.0290215,0.0318081,135
0.472779,0.0290043,0.0326971,128
0.471998,0.0290437,0.0335091,127
0.471812,0.0290516,0.0343631,129
0.472457,0.0290155,0.0352806,129
0.471916,0.0290422,0.0361072,134
0.471141,0.0290814,0.0369131,136
0.471254,0.0290734,0.0377897,138
0.470482,0.0291124,0.0385922,145
0.469538,0.0291606,0.0393771,137
0.469945,0.029137,0.040278,128
0.46918,0.0291757,0.041075,133
0.469471,0.0291583,0.0419665,141
0.469587,0.0291502,0.0428429,139
0.468533,0.0292042,0.0436081,143
0.468708,0.029193,0.0444895,139
0.468592,0.0291972,0.0453428,135
0.467835,0.0292354,0.0461311,140
0.46772,0.0292396,0.0469831,143
0.467316,0.0292591,0.0478045,146
0.467319,0.029257,0.0486683,143
0.467614,0.0292394,0.0495641,144
0.467153,0.0292619,0.0503776,149
0.465192,0.0293642,0.0510209,148
0.464622,0.0293926,0.0518163,139
0.464054,0.0294208,0.0526102,137
0.464751,0.0293818,0.0535515,138
0.464989,0.0293672,0.0544408,146
0.46425,0.0294046,0.0552122,148
0.464431,0.029393,0.056095,146
0.464096,0.0294089,0.0569141,140
0.464279,0.0293972,0.0577981,137
0.464118,0.0294038,0.0586388,136
0.463842,0.0294165,0.0594641,132
0.464889,0.0293589,0.0604649,128
0.464442,0.0293807,0.0612682,127
0.462908,0.0294604,0.0619213,132
0.462352,0.0294881,0.0627047,138
0.462424,0.0294823,0.0635748,132
0.46204,0.0295008,0.0643806,136
0.462398,0.0294798,0.0652924,133
0.46213,0.0294921,0.0661143,135
0.461521,0.0295226,0.0668852,132
0.461028,0.0295469,0.0676714,124
0.461557,0.0295167,0.0686116,120
0.461804,0.0295017,0.0695107,122
0.460688,0.0295592,0.0701989,121
0.460538,0.0295652,0.0710356,121
0.461012,0.029538,0.0719717,120
0.461375,0.0295167,0.072892,119
0.461113,0.0295287,0.073712,115
0.461818,0.0294892,0.0746914,112
0.462127,0.0294708,0.0756075,110
0.46198,0.0294767,0.0764483,111
0.461834,0.0294825,0.077289,117
0.461917,0.0294761,0.0781692,117
0.461658,0.029488,0.0789904,120
0.462999,0.0294145,0.0800938,128
0.462855,0.0294202,0.0809375,137
0.462597,0.029432,0.0817606,132
0.463602,0.0293765,0.0828134,138
0.462141,0.0294524,0.0834162,142
0.46303,0.029403,0.0844514,148
0.462946,0.0294055,0.0853075,143
0.463093,0.0293957,0.0862075,149
0.462151,0.029444,0.0868997,138
0.462699,0.0294128,0.0878776,143
0.463019,0.0293938,0.0888134,142
0.462709,0.0294083,0.0896264,142
0.462858,0.0293984,0.0905304,142
0.46393,0.0293392,0.0916212,134
0.463908,0.0293384,0.0924944,131
0.464003,0.0293314,0.0933919,124
0.464503,0.0293027,0.0943742,116
0.464426,0.0293048,0.0952383,117
0.465451,0.0292481,0.0963352,122
0.464041,0.0293214,0.0969183,124
0.464081,0.0293172,0.0978078,121
0.465108,0.0292604,0.0989118,111
0.467721,0.0291189,0.100367,107
0.465949,0.0292115,0.100866,104
0.468161,0.0290914,0.102245,103
0.467147,0.0291435,0.102909,102
0.467427,0.0291265,0.103863,105
0.466652,0.0291659,0.104577,102
0.467108,0.0291395,0.105573,96
0.467978,0.029091,0.106667,103
0.467261,0.0291273,0.107393,106
0.468252,0.0290724,0.10852,112
0.469544,0.0290013,0.109724,117
0.469594,0.0289966,0.110635,126
0.470538,0.0289441,0.111763,127
0.47059,0.0289393,0.112678,118
0.471181,0.0289057,0.113726,118
0.471654,0.0288783,0.114747,114
0.471229,0.028899,0.115547,113
0.471223,0.0288973,0.116452,113
0.471879,0.0288602,0.117525,113
0.472899,0.0288036,0.118694,103
0.473258,0.0287823,0.119697,103
0.473256,0.0287803,0.120609,98
0.474589,0.028707,0.121871,99
0.475075,0.0286789,0.122915,94
0.475931,0.028631,0.12406,98
0.475015,0.028678,0.124736,97
0.475504,0.0286497,0.125787,99
0.475078,0.0286704,0.126592,101
0.476674,0.0285829,0.127948,102
0.476554,0.0285873,0.12884,98
0.47742,0.0285388,0.130005,94
0.477857,0.0285133,0.131054,97
0.478296,0.0284877,0.132106,88
0.479296,0.0284321,0.133319,95
0.478619,0.0284662,0.13406,95
0.479809,0.0284004,0.135333,95
0.480505,0.028361,0.13647,98
0.481141,0.0283248,0.137592,100
0.481591,0.0282986,0.138664,99
0.483435,0.0281977,0.140148,96
0.482686,0.0282357,0.140872,92
0.48454,0.0281342,0.14237,98
0.485128,0.0281005,0.143496,98
0.487005,0.0279978,0.145015,96
0.485221,0.0280912,0.145428,92
0.484981,0.028102,0.146307,89
0.485701,0.0280612,0.147482,86
0.487005,0.0279891,0.148843,87
0.488642,0.0278992,0.150313,78
0.488922,0.0278821,0.151364,83
0.489267,0.0278614,0.152437,81
0.489027,0.0278721,0.153326,84
0.490223,0.0278057,0.154675,86
0.490573,0.0277848,0.155757,84
0.491582,0.0277284,0.157055,85
0.491145,0.0277497,0.157886,86
0.492026,0.0277002,0.159148,77
0.492382,0.0276789,0.160242,80
0.492871,0.0276505,0.161382,82
0.493629,0.0276076,0.162614,84
0.494189,0.0275753,0.163785,80
0.493218,0.0276252,0.164439,79
0.493779,0.0275929,0.165613,77
0.493209,0.0276213,0.166402,78
0.493238,0.0276175,0.167396,77
0.492471,0.0276564,0.168115,88
0.492236,0.0276668,0.169017,84
0.492998,0.0276237,0.170268,86
0.491569,0.0276982,0.170752,86
