ply
format ascii 1.0
comment VCGLIB generated
element vertex 911
property float x
property float y
property float z
property float nx
property float ny
property float nz
property uchar red
property uchar green
property uchar blue
property uchar alpha
element face 0
property list uchar int vertex_indices
end_header
1.544107 -1.387528 0.2321627 0 0 0 148 143 137 255 
-2.573646 1.901712 0.2554491 0 0 0 146 129 121 255 
-1.775086 0.9512905 0.3119843 0 0 0 144 135 126 255 
-2.667624 0.4386285 0.3540106 0 0 0 95 92 88 255 
-2.219273 1.111388 0.203655 0 0 0 148 138 128 255 
-2.108469 1.39405 0.270436 0 0 0 155 146 135 255 
-2.134819 0.1019429 0.1595922 0 0 0 114 109 103 255 
0.4931824 2.019655 0.2446253 0 0 0 127 122 118 255 
-1.059202 -1.361276 0.2949469 0 0 0 103 101 102 255 
-1.947221 0.8453819 0.2600989 0 0 0 135 125 115 255 
-2.501237 0.9438065 0.2128301 0 0 0 177 164 156 255 
2.048261 -1.419764 0.2860606 0 0 0 100 87 79 255 
-2.423903 1.104557 0.1842396 0 0 0 166 156 147 255 
-0.981684 1.399124 0.1583719 0 0 0 118 108 99 255 
2.578512 1.203537 0.488461 0 0 0 182 179 172 255 
-2.17802 0.7099017 0.1967211 0 0 0 140 135 131 255 
0.6811616 -1.526361 0.205816 0 0 0 138 128 119 255 
0.9629806 -2.038756 0.3021965 0 0 0 101 96 100 255 
-2.708608 -0.280046 0.3460727 0 0 0 113 105 103 255 
-2.193975 1.067988 0.2053034 0 0 0 115 104 98 255 
-2.524551 0.7619891 0.2533362 0 0 0 185 178 170 255 
-2.589386 2.132898 0.2737627 0 0 0 192 178 167 255 
0.5308367 -1.615093 0.2191296 0 0 0 85 83 84 255 
-2.037417 0.05169322 0.1719377 0 0 0 156 147 138 255 
1.082774 1.752037 0.1570907 0 0 0 110 109 107 255 
-1.558038 0.6923205 0.2952836 0 0 0 117 114 109 255 
-1.537533 -1.161969 0.2366414 0 0 0 162 155 149 255 
1.261192 0.06849869 0.195507 0 0 0 109 107 94 255 
2.835833 -3.559796 0.6486063 0 0 0 115 115 115 255 
1.735882 -2.414104 0.2696772 0 0 0 0 0 0 255 
-0.890181 -0.9630215 0.1352949 0 0 0 169 166 161 255 
-2.359211 0.3841505 0.189069 0 0 0 191 184 178 255 
0.5121982 -0.06060816 -0.04123783 0 0 0 61 60 55 255 
-0.434512 -2.08975 0.3392205 0 0 0 130 116 105 255 
-1.403708 1.094072 0.1836679 0 0 0 130 117 101 255 
3.068796 -1.40853 0.5044198 0 0 0 97 85 71 255 
-2.139871 1.024969 0.2219098 0 0 0 150 141 132 255 
-2.145745 2.419768 0.3113747 0 0 0 118 101 91 255 
-1.529571 -0.811507 0.2031038 0 0 0 166 159 153 255 
-2.395308 0.6244778 0.1883461 0 0 0 121 110 105 255 
-2.138597 -0.2144594 0.1631672 0 0 0 122 114 111 255 
-1.529755 -0.8112743 0.2034802 0 0 0 166 159 153 255 
-1.581352 -1.566973 0.2503054 0 0 0 145 142 133 255 
-1.950226 1.557459 0.3401961 0 0 0 175 162 153 255 
0.06072498 -2.389972 0.3883471 0 0 0 169 164 161 255 
-2.526875 0.6321946 0.2693009 0 0 0 186 179 171 255 
-0.4139746 -0.05416346 -0.304863 0 0 0 113 59 83 255 
1.947238 1.742283 0.3668311 0 0 0 111 107 96 255 
1.976739 0.2763528 0.2571247 0 0 0 126 112 101 255 
-2.228555 2.334497 0.2842684 0 0 0 111 97 84 255 
1.129258 1.445269 0.1865962 0 0 0 85 80 77 255 
2.603687 0.3318872 0.5237758 0 0 0 125 122 115 255 
-2.445321 1.443797 0.1912861 0 0 0 120 111 104 255 
2.792246 0.02776815 0.5753093 0 0 0 186 186 178 255 
0.5646311 0.0378684 -0.04697037 0 0 0 184 185 171 255 
0.1070185 1.30319 0.0280869 0 0 0 112 108 105 255 
-2.489636 2.015061 0.2351332 0 0 0 128 116 104 255 
-2.212448 0.6717984 0.1856749 0 0 0 103 98 95 255 
-0.8830199 -0.09077349 -0.09808683 0 0 0 165 158 150 255 
-2.272175 2.406746 0.2756124 0 0 0 158 144 131 255 
-2.532254 1.640373 0.219718 0 0 0 125 112 103 255 
0.5591487 2.647267 0.4104156 0 0 0 145 137 131 255 
-1.559102 -0.2484421 0.2423201 0 0 0 135 131 122 255 
0.2778638 1.214975 0.04764605 0 0 0 145 140 136 255 
-1.863634 -0.8824058 0.2949529 0 0 0 135 130 126 255 
-2.896173 0.8524342 0.3799214 0 0 0 135 128 122 255 
6.101161 0.7416034 0.7556233 0 0 0 182 179 174 255 
-1.931917 -0.4980649 0.1787863 0 0 0 122 115 109 255 
-2.355114 1.446916 0.2017579 0 0 0 112 99 91 255 
1.588794 0.1197907 0.1785803 0 0 0 135 130 126 255 
-2.524607 0.7620751 0.2531695 0 0 0 185 178 170 255 
4.155847 -0.6921749 0.6885405 0 0 0 180 175 169 255 
-1.096642 1.241773 0.1515236 0 0 0 130 121 114 255 
-2.954354 1.198665 0.3946166 0 0 0 160 151 142 255 
-3.000867 1.160436 0.3828049 0 0 0 127 117 108 255 
-2.578451 1.842423 0.2548492 0 0 0 130 116 105 255 
-2.362748 2.228153 0.2507136 0 0 0 150 134 124 255 
-1.803011 0.6463742 0.2777574 0 0 0 155 146 138 255 
-0.2912612 1.598251 0.2989094 0 0 0 159 150 141 255 
3.972124 -0.03452586 0.6496539 0 0 0 155 149 137 255 
0.7116523 -0.02691969 -0.06152916 0 0 0 117 117 105 255 
-1.555498 1.19028 0.3476193 0 0 0 152 147 141 255 
3.816289 -0.51062 0.59269 0 0 0 143 138 134 255 
-1.668635 1.053344 0.3414035 0 0 0 134 123 115 255 
2.724972 -0.5592222 0.4529762 0 0 0 146 141 135 255 
3.601992 0.9134952 0.4300444 0 0 0 125 122 117 255 
-2.293807 0.1168669 0.1753583 0 0 0 124 119 116 255 
-1.556439 -1.445694 0.2412074 0 0 0 154 144 142 255 
2.743783 -0.6266708 0.4944868 0 0 0 129 126 121 255 
1.673266 -3.348846 0.2793982 0 0 0 88 86 89 255 
-1.812438 -0.702854 0.1997213 0 0 0 121 113 111 255 
2.731431 -0.1373181 0.5768383 0 0 0 176 172 163 255 
-1.969641 -0.7058125 0.280385 0 0 0 127 120 115 255 
-2.002552 -0.5433542 0.2306077 0 0 0 132 123 116 255 
1.196724 -1.764256 0.3769853 0 0 0 154 149 145 255 
2.583199 0.3392215 0.5330105 0 0 0 125 122 115 255 
1.378907 -2.152857 0.3918397 0 0 0 103 103 105 255 
-1.123203 0.8268834 0.09914088 0 0 0 185 181 173 255 
1.172637 -2.388643 0.3875892 0 0 0 161 157 156 255 
-2.512707 2.132516 0.200983 0 0 0 168 155 139 255 
0.1424161 -2.47889 0.3997738 0 0 0 123 115 113 255 
0.2067484 -1.791973 0.3435721 0 0 0 115 107 105 255 
1.758118 0.001348317 0.2960558 0 0 0 158 153 147 255 
0.5405422 -1.589174 0.1965885 0 0 0 95 93 96 255 
-0.08690131 1.740839 0.1707296 0 0 0 124 120 117 255 
-1.670624 0.6880196 0.2977793 0 0 0 124 119 115 255 
-0.2485183 -2.702164 0.2956185 0 0 0 147 143 142 255 
-1.408121 -2.155545 0.3441226 0 0 0 158 144 131 255 
1.527988 0.5623304 0.2410908 0 0 0 129 124 118 255 
-0.9293352 -0.1719759 -0.06201077 0 0 0 145 141 131 255 
-0.2401479 -1.998039 0.2616026 0 0 0 151 146 143 255 
-2.381679 1.075888 0.1806006 0 0 0 167 159 148 255 
-1.235305 1.063499 0.126682 0 0 0 109 95 82 255 
0.357578 -1.208281 0.1361523 0 0 0 144 133 130 255 
-0.4007149 -1.763274 0.2375295 0 0 0 98 94 95 255 
1.500324 1.556386 0.1690748 0 0 0 127 123 114 255 
-0.5572278 -1.739092 0.2704191 0 0 0 161 155 152 255 
-0.02794331 -1.52374 0.2879121 0 0 0 113 103 104 255 
-1.271069 -2.213318 0.3106272 0 0 0 108 106 107 255 
-1.600684 0.849304 0.3241217 0 0 0 121 119 120 255 
-0.9086431 -1.772558 0.3772585 0 0 0 126 120 120 255 
-1.045099 -1.565213 0.3423915 0 0 0 130 129 128 255 
0.959195 1.471499 0.2404187 0 0 0 166 162 153 255 
-2.335275 -0.7056484 0.3481653 0 0 0 144 139 133 255 
-1.33965 -2.194251 0.3236544 0 0 0 155 151 150 255 
-1.394274 -2.235853 0.3495159 0 0 0 122 118 117 255 
0.7029331 0.813228 0.06001401 0 0 0 94 93 89 255 
1.279289 -2.270133 0.3871984 0 0 0 107 100 94 255 
-1.259997 -2.007802 0.3130603 0 0 0 101 95 96 255 
-1.558038 0.6923205 0.2952836 0 0 0 117 114 109 255 
-1.425924 -2.168095 0.3216646 0 0 0 161 157 156 255 
0.85853 -1.39613 0.2670023 0 0 0 134 129 123 255 
-2.096938 -0.2128763 0.1563864 0 0 0 140 135 131 255 
-1.376259 -1.70128 0.263803 0 0 0 117 113 110 255 
-1.232207 -1.266447 0.2998276 0 0 0 157 147 145 255 
-0.5015515 -1.627093 0.21667 0 0 0 139 134 131 255 
-2.482569 2.338645 0.2847323 0 0 0 173 157 141 255 
-1.48919 -1.66367 0.2491014 0 0 0 133 132 128 255 
-2.664476 0.09929336 0.3327219 0 0 0 100 96 93 255 
1.040351 2.370855 0.253232 0 0 0 150 142 131 255 
-1.476736 -1.111556 0.2424593 0 0 0 165 156 150 255 
-1.345514 -2.271291 0.3192778 0 0 0 143 139 140 255 
-1.937353 -1.48334 0.4037328 0 0 0 128 122 122 255 
-0.1245997 0.4140116 -0.3390169 0 0 0 99 91 89 255 
0.5267125 -1.321922 0.0435183 0 0 0 89 86 79 255 
-1.64778 -1.710447 0.32938 0 0 0 135 127 124 255 
-1.605838 0.933327 0.322386 0 0 0 98 96 96 255 
-0.4883356 -0.1298109 -0.3571572 0 0 0 103 96 86 255 
0.6872003 2.27039 0.1308 0 0 0 151 139 127 255 
-0.04403871 -2.222691 0.3519735 0 0 0 117 107 108 255 
-2.097296 -1.320475 0.3811252 0 0 0 164 156 153 255 
-1.641534 0.4422404 0.2779078 0 0 0 164 158 152 255 
-1.978573 -1.065729 0.391175 0 0 0 127 118 111 255 
-0.02270395 -1.643013 0.302284 0 0 0 111 103 101 255 
-0.9903338 0.009844357 -0.03858614 0 0 0 147 140 134 255 
-1.753814 -0.8607917 0.2245698 0 0 0 161 156 152 255 
-0.4644889 1.429683 0.2275038 0 0 0 104 95 88 255 
-1.216969 1.482954 0.2203534 0 0 0 94 82 68 255 
-0.592793 -1.45461 0.1746354 0 0 0 100 96 95 255 
-0.9017575 0.4774657 -0.03066111 0 0 0 133 128 122 255 
2.969282 -3.386275 0.6062603 0 0 0 93 86 76 255 
-1.773999 -0.5759836 0.1841552 0 0 0 114 110 107 255 
-2.35806 2.419519 0.2500725 0 0 0 112 98 85 255 
-1.438284 -2.013192 0.3004062 0 0 0 147 142 139 255 
-1.616496 0.1316599 0.2632074 0 0 0 145 138 129 255 
-2.483641 -1.028333 0.3029583 0 0 0 155 146 141 255 
-0.08234084 0.3770511 -0.3446956 0 0 0 69 64 68 255 
-1.748186 0.2079083 0.2438734 0 0 0 169 160 153 255 
-0.1957118 0.3368715 -0.3472075 0 0 0 84 88 98 255 
-1.978385 -0.02662298 0.1765723 0 0 0 128 119 110 255 
0.6648815 0.0710941 -0.0242219 0 0 0 152 145 138 255 
-0.3592717 0.2114273 -0.3549075 0 0 0 94 93 91 255 
-2.396245 -0.4500667 0.328104 0 0 0 120 119 114 255 
-2.071656 -0.07302393 0.1643558 0 0 0 144 138 132 255 
-2.126698 0.752317 0.2024662 0 0 0 112 107 101 255 
-1.024127 1.877998 0.2027869 0 0 0 113 102 96 255 
-2.426479 1.678951 0.1671803 0 0 0 118 105 96 255 
1.366176 0.172154 0.1737893 0 0 0 174 170 158 255 
-1.219162 2.195458 0.2634501 0 0 0 162 156 144 255 
-1.082455 2.444974 0.2558665 0 0 0 96 88 77 255 
-2.237109 0.4909489 0.1660271 0 0 0 122 113 106 255 
-2.663427 -0.02885881 0.3589211 0 0 0 101 100 98 255 
-2.173934 0.683942 0.1942585 0 0 0 90 86 83 255 
-1.61849 1.763288 0.3855078 0 0 0 121 113 110 255 
-2.514878 1.111845 0.19469 0 0 0 121 112 97 255 
-1.64298 1.760934 0.3892751 0 0 0 152 144 138 255 
1.128397 0.00128299 0.06207395 0 0 0 102 101 96 255 
-3.671317 -1.11238 0.3694079 0 0 0 106 101 95 255 
-2.281178 0.7163798 0.1765854 0 0 0 132 127 122 255 
-1.054842 -1.918123 0.4660397 0 0 0 158 154 153 255 
-2.1326 1.087286 0.2262151 0 0 0 157 144 135 255 
-3.587547 1.324383 -0.003492355 0 0 0 189 204 202 255 
-0.9858438 -1.489209 0.3335452 0 0 0 121 116 113 255 
-2.64669 1.00659 0.3122866 0 0 0 184 174 166 255 
-2.465819 1.326705 0.2058151 0 0 0 124 110 101 255 
-2.598851 1.244781 0.2705216 0 0 0 153 143 134 255 
0.7069478 0.8368508 0.0653882 0 0 0 138 137 132 255 
-1.979484 2.357143 0.367897 0 0 0 172 163 148 255 
-2.563614 1.700081 0.2278233 0 0 0 127 115 103 255 
-1.6246 -0.9836594 0.213371 0 0 0 112 104 101 255 
-2.525975 1.79522 0.2222712 0 0 0 110 99 93 255 
-1.59365 0.2628321 0.2707381 0 0 0 112 110 111 255 
-2.592432 1.839733 0.2528939 0 0 0 169 155 142 255 
-1.58418 -0.7799617 0.2029526 0 0 0 164 157 150 255 
-2.488878 2.002991 0.2346454 0 0 0 152 137 126 255 
-0.01569539 2.048564 0.2085528 0 0 0 133 125 114 255 
-2.856719 1.595796 0.3982766 0 0 0 147 130 120 255 
-2.014384 -0.9119941 0.3820791 0 0 0 164 155 150 255 
-2.618661 1.995301 0.2549727 0 0 0 184 172 160 255 
-1.659606 -1.809592 0.3739398 0 0 0 132 124 121 255 
-1.017224 -0.8805988 0.2126758 0 0 0 128 120 117 255 
-1.243528 1.35299 0.1950765 0 0 0 114 97 81 255 
-1.572823 -2.786531 0.5319822 0 0 0 0 0 0 255 
-1.495443 -1.603284 0.2379909 0 0 0 103 103 101 255 
-2.727323 2.017986 0.315413 0 0 0 188 174 161 255 
1.631566 0.6474869 0.2374539 0 0 0 127 119 116 255 
-1.62019 -1.780143 0.3560605 0 0 0 169 162 154 255 
-2.251275 -0.1569077 0.2062681 0 0 0 132 120 114 255 
2.534899 -3.436576 0.4869173 0 0 0 137 133 121 255 
-1.997451 0.1837032 0.1937852 0 0 0 142 129 120 255 
-0.9670663 1.753215 0.1968424 0 0 0 181 172 162 255 
-2.022536 -1.131879 0.3824022 0 0 0 165 157 154 255 
1.787556 -1.592039 0.2860289 0 0 0 156 150 134 255 
-2.134597 0.6735618 0.1989744 0 0 0 161 157 146 255 
1.291044 1.837008 0.1551139 0 0 0 142 138 126 255 
-1.130083 1.391655 0.171941 0 0 0 122 115 107 255 
-1.310594 -2.250587 0.328953 0 0 0 132 128 129 255 
-1.487344 -1.597335 0.2355318 0 0 0 103 103 101 255 
-1.928526 -2.663213 0.435339 0 0 0 0 0 0 255 
-1.520314 -2.055837 0.3673143 0 0 0 121 116 113 255 
-1.068445 -1.114846 0.2772746 0 0 0 95 93 96 255 
-2.411798 1.344653 0.2021856 0 0 0 142 129 121 255 
-1.517079 -1.459928 0.2385731 0 0 0 139 131 129 255 
-1.545163 -1.787439 0.2979786 0 0 0 118 114 111 255 
-1.775086 0.9512905 0.3119843 0 0 0 144 135 126 255 
-2.556924 -0.4144802 0.342181 0 0 0 124 116 113 255 
-0.8232719 -0.9394846 0.08892536 0 0 0 168 165 160 255 
0.4707072 0.1012814 -0.05084133 0 0 0 87 79 68 255 
-1.647145 0.9720241 0.3274431 0 0 0 126 117 112 255 
-0.663969 -0.6694231 -0.07543564 0 0 0 116 111 105 255 
2.074531 -0.8723701 0.3898361 0 0 0 113 109 98 255 
-0.44944 -0.1121484 -0.3806005 0 0 0 68 62 64 255 
-0.007843204 1.511709 0.07926488 0 0 0 120 115 111 255 
-1.554402 -0.8737192 0.2071846 0 0 0 138 130 127 255 
-0.9287701 -0.01302352 -0.0691433 0 0 0 163 156 148 255 
-1.930134 -0.7801551 0.2930961 0 0 0 125 118 112 255 
-0.9530123 0.3927529 0.1566226 0 0 0 146 132 121 255 
-2.232768 0.9176086 0.1826019 0 0 0 110 101 94 255 
1.941724 1.080938 0.3483534 0 0 0 137 130 120 255 
-1.554294 -0.01809992 0.2608314 0 0 0 113 115 112 255 
-1.940643 -0.315709 0.1646292 0 0 0 103 99 96 255 
-2.042187 -0.3328818 0.1579256 0 0 0 99 98 94 255 
-1.023882 1.396286 0.1627724 0 0 0 116 105 99 255 
3.042344 -0.3214177 0.378181 0 0 0 137 130 122 255 
-2.20922 2.739362 0.2565124 0 0 0 165 152 136 255 
1.997261 0.1265357 0.3486414 0 0 0 145 140 136 255 
-2.658682 -0.05628925 0.3570807 0 0 0 133 132 130 255 
-0.7881803 2.246614 0.3003681 0 0 0 130 118 106 255 
-2.188082 -0.01698734 0.1574674 0 0 0 149 146 140 255 
-2.049855 0.3370595 0.1877928 0 0 0 147 137 128 255 
-1.299288 -2.144009 0.2259247 0 0 0 129 120 105 255 
1.395516 0.9188879 0.2309339 0 0 0 126 122 113 255 
-1.248356 1.915046 0.234827 0 0 0 178 171 161 255 
1.467163 0.388736 0.2123771 0 0 0 164 160 157 255 
-2.649525 -0.1964878 0.3480904 0 0 0 98 98 96 255 
0.9844335 0.1221995 0.04486775 0 0 0 145 142 133 255 
2.713091 1.62216 0.3008747 0 0 0 141 138 131 255 
-0.7108076 1.092883 0.1183274 0 0 0 104 97 93 255 
-2.257287 0.496368 0.1627471 0 0 0 141 134 128 255 
0.1297853 -3.248332 0.2255552 0 0 0 171 170 168 255 
-2.388133 0.3548405 0.2216802 0 0 0 174 164 156 255 
-1.436582 -1.791294 0.251564 0 0 0 144 144 144 255 
-2.563547 2.198605 0.292398 0 0 0 195 183 169 255 
-2.181719 0.7781586 0.1931558 0 0 0 97 93 92 255 
-1.093395 0.8476549 0.08394766 0 0 0 149 142 134 255 
-0.9060931 0.434708 -0.05092335 0 0 0 132 123 114 255 
-1.645897 1.846101 0.3898997 0 0 0 159 150 141 255 
-1.575512 0.5629049 0.2850783 0 0 0 124 123 118 255 
-2.779184 0.6747757 0.3548987 0 0 0 149 139 130 255 
5.668582 -1.616784 0.5401533 0 0 0 164 157 149 255 
-1.131222 0.9470711 0.09362841 0 0 0 171 168 159 255 
-1.867033 -0.442493 0.1658947 0 0 0 112 107 104 255 
-2.832654 0.4303686 0.3646197 0 0 0 151 142 135 255 
-1.989124 0.05670241 0.205267 0 0 0 143 130 121 255 
-1.923023 1.435174 0.332695 0 0 0 133 121 109 255 
0.2596923 -2.336681 0.3768845 0 0 0 165 155 154 255 
-2.418702 0.5218192 0.2076619 0 0 0 164 157 149 255 
-2.69237 0.3721997 0.3607247 0 0 0 120 112 109 255 
-2.353136 2.43531 0.2662489 0 0 0 158 143 128 255 
-1.196344 2.137626 0.2448208 0 0 0 159 156 151 255 
-2.388685 0.9026518 0.180656 0 0 0 161 147 138 255 
-2.474223 0.8053443 0.2129474 0 0 0 148 139 132 255 
-2.543123 1.038715 0.2433 0 0 0 183 173 164 255 
-2.567789 0.693732 0.2825325 0 0 0 185 177 166 255 
-2.819287 0.9310085 0.3852568 0 0 0 141 136 130 255 
5.328483 0.3742231 0.5944529 0 0 0 169 164 158 255 
-3.185 0.356339 0.3057826 0 0 0 153 143 134 255 
-2.448835 1.614582 0.1515894 0 0 0 111 98 89 255 
1.589648 0.6770836 0.1662993 0 0 0 147 143 140 255 
-2.489607 0.6188809 0.2366993 0 0 0 146 131 124 255 
0.5980769 -1.486519 0.2374697 0 0 0 110 104 104 255 
-3.016502 0.1053982 0.3277841 0 0 0 159 149 140 255 
-2.273539 2.181582 0.2747748 0 0 0 148 136 124 255 
-0.6998715 2.135187 0.3247035 0 0 0 130 118 106 255 
-3.537458 0.01320327 0.174751 0 0 0 95 91 79 255 
-0.4775065 -0.04242509 -0.3749146 0 0 0 70 64 64 255 
-2.70947 1.696045 0.3227596 0 0 0 184 174 164 255 
-2.306845 2.608274 0.2835567 0 0 0 162 149 133 255 
-2.589396 2.132932 0.2741866 0 0 0 192 178 167 255 
-2.298609 1.860995 0.1863697 0 0 0 110 96 87 255 
-1.735923 1.691617 0.3803203 0 0 0 170 160 151 255 
-2.525914 0.6309568 0.2671573 0 0 0 186 179 171 255 
0.2953909 0.2159992 -0.131813 0 0 0 66 60 48 255 
1.743985 1.43958 0.2685649 0 0 0 118 111 101 255 
-1.135618 2.287674 0.2678733 0 0 0 121 112 105 255 
-2.751538 0.01347 0.3573725 0 0 0 133 125 122 255 
-2.408499 0.1414877 0.254945 0 0 0 147 134 125 255 
-0.7788435 -2.126071 0.4267111 0 0 0 165 156 157 255 
-1.02527 1.777176 0.1920543 0 0 0 105 95 86 255 
1.17093 -2.232157 0.3812778 0 0 0 153 149 140 255 
-1.612307 0.901677 0.3175116 0 0 0 117 112 109 255 
-1.537963 1.685439 0.3673823 0 0 0 180 179 177 255 
-2.042187 -0.3328818 0.1579256 0 0 0 99 98 94 255 
1.117182 -1.338714 0.2906754 0 0 0 121 111 99 255 
0.1734019 0.3018255 -0.1763868 0 0 0 110 119 118 255 
-0.1657533 -1.72244 0.2879226 0 0 0 159 154 151 255 
-2.66846 1.968368 0.306999 0 0 0 190 178 166 255 
-2.896702 0.8352681 0.3791218 0 0 0 105 95 93 255 
3.145772 -0.4244633 0.3413796 0 0 0 111 107 104 255 
-1.638945 0.1376779 0.2611537 0 0 0 125 118 110 255 
-1.000636 0.9558602 0.09050584 0 0 0 132 122 112 255 
0.6473722 -1.382968 0.169369 0 0 0 143 134 127 255 
-2.81361 0.540213 0.3692207 0 0 0 108 99 94 255 
1.612743 -2.821133 0.3003223 0 0 0 119 119 121 255 
2.265323 -0.0985845 0.4151866 0 0 0 175 171 160 255 
-1.504893 1.249668 0.3398194 0 0 0 128 119 114 255 
2.930002 1.320457 0.3486872 0 0 0 119 115 106 255 
-2.488899 0.617817 0.2344706 0 0 0 146 131 124 255 
-2.777453 1.699881 0.3757625 0 0 0 179 170 160 255 
-0.1131259 0.3644024 -0.3006372 0 0 0 199 158 191 255 
-2.527133 1.037024 0.2293496 0 0 0 150 139 130 255 
-1.232138 -1.321851 0.2845774 0 0 0 169 161 150 255 
-3.082314 2.045556 0.410114 0 0 0 147 137 125 255 
-1.924856 -0.6097662 0.2116702 0 0 0 159 152 146 255 
-2.036381 1.20458 0.2800207 0 0 0 161 151 139 255 
-2.624562 -2.585348 0.5211375 0 0 0 165 156 147 255 
-2.466686 1.237364 0.2055323 0 0 0 178 169 160 255 
0.6504922 -1.828711 0.2782273 0 0 0 181 180 178 255 
-2.421759 0.5001171 0.2171049 0 0 0 178 169 164 255 
-3.400662 1.54016 0.3224387 0 0 0 145 136 127 255 
-2.489203 1.563285 0.2089481 0 0 0 163 150 141 255 
-1.920095 -1.072437 0.3726845 0 0 0 140 130 127 255 
-2.008538 0.09679378 0.1792145 0 0 0 159 156 149 255 
-0.1632997 1.511919 0.1770375 0 0 0 151 148 143 255 
0.6414361 -1.705175 0.2403681 0 0 0 115 111 110 255 
-2.586765 -2.687415 0.5389287 0 0 0 154 145 138 255 
-1.491684 0.2565495 0.2598274 0 0 0 156 153 148 255 
0.2529035 -1.864761 0.3653572 0 0 0 115 106 105 255 
-2.480297 0.5650198 0.2433636 0 0 0 154 145 138 255 
-2.950546 1.152186 0.3896852 0 0 0 135 128 121 255 
-1.01743 3.527482 0.3827567 0 0 0 145 140 136 255 
2.098399 1.69177 0.400228 0 0 0 121 117 108 255 
-2.231274 0.8521189 0.1813829 0 0 0 138 131 125 255 
-2.164152 0.06564234 0.1588311 0 0 0 163 160 155 255 
0.5970212 -1.498669 0.2023039 0 0 0 126 117 120 255 
-1.550847 0.7035227 0.2891569 0 0 0 155 154 149 255 
-0.1667011 -2.436039 0.341588 0 0 0 174 170 167 255 
-1.2391 1.5188 0.2312779 0 0 0 177 172 166 255 
1.19962 0.9788941 0.2506125 0 0 0 118 108 103 255 
1.303238 1.066569 0.2280164 0 0 0 168 164 155 255 
-2.239795 -2.942814 0.4391682 0 0 0 168 156 144 255 
-2.295459 0.2775161 0.175437 0 0 0 147 140 132 255 
0.4499485 -1.519313 0.1841593 0 0 0 108 107 105 255 
-2.882668 0.8801842 0.3671112 0 0 0 157 161 164 255 
-1.957922 0.1216102 0.190644 0 0 0 160 150 141 255 
1.750018 1.356022 0.2494366 0 0 0 144 137 127 255 
1.614384 1.338352 0.1901522 0 0 0 117 112 101 255 
-2.399172 0.1313642 0.2555382 0 0 0 175 165 156 255 
-2.44639 -0.04373627 0.3191197 0 0 0 149 140 133 255 
-0.1794217 -2.072985 0.22451 0 0 0 109 104 101 255 
1.965061 -0.07288738 0.3629348 0 0 0 140 133 123 255 
1.865803 1.835647 0.3450038 0 0 0 101 101 92 255 
-2.570704 -2.074276 0.4595559 0 0 0 123 115 112 255 
0.4346528 -1.108122 0.1351457 0 0 0 146 135 131 255 
-0.790615 -3.323171 0.4303744 0 0 0 155 137 125 255 
-1.641506 0.9988378 0.3349211 0 0 0 166 159 153 255 
-0.9810995 1.473469 0.1614485 0 0 0 161 160 158 255 
-0.2718769 -1.804088 0.267216 0 0 0 100 96 97 255 
-0.9293352 -0.1719759 -0.06201077 0 0 0 145 141 131 255 
-1.540145 1.779831 0.3841224 0 0 0 179 170 163 255 
-0.4070123 -1.918325 0.2678351 0 0 0 158 154 155 255 
-2.145016 0.108265 0.1552789 0 0 0 152 146 140 255 
-0.918932 -2.876532 0.4455917 0 0 0 166 156 147 255 
-1.144676 -2.34059 0.3523588 0 0 0 0 0 0 255 
-1.196121 2.144498 0.2475352 0 0 0 141 131 122 255 
-1.038683 -2.621301 0.3989379 0 0 0 162 158 157 255 
-0.3677309 -1.735046 0.2390668 0 0 0 105 100 104 255 
-2.628086 -0.2317116 0.3566666 0 0 0 118 114 111 255 
2.588614 0.7836834 0.5533638 0 0 0 132 125 119 255 
-0.9725301 -2.389783 0.3819101 0 0 0 143 137 137 255 
-1.028444 -1.021654 0.247951 0 0 0 107 106 102 255 
-3.170154 -2.145205 0.3388085 0 0 0 150 143 137 255 
-1.479014 1.19769 0.3430936 0 0 0 139 130 123 255 
-1.570127 0.8571813 0.3237891 0 0 0 117 117 117 255 
-1.419749 -1.886544 0.269465 0 0 0 127 125 126 255 
-2.244603 0.7834344 0.1847174 0 0 0 141 138 133 255 
-1.042705 -2.385483 0.3589354 0 0 0 128 122 122 255 
-1.637226 0.882164 0.3190753 0 0 0 162 155 145 255 
-1.01476 -2.238059 0.3721907 0 0 0 135 130 127 255 
-0.03582995 -2.345245 0.3610015 0 0 0 167 162 159 255 
0.8779905 0.05087306 -0.01072741 0 0 0 94 94 92 255 
1.432407 1.523172 0.1428781 0 0 0 85 84 79 255 
-0.6768526 -1.704506 0.3167832 0 0 0 138 128 127 255 
-0.2995673 -0.2970703 -0.3516612 0 0 0 112 111 109 255 
-1.820388 -0.9287676 0.2930291 0 0 0 177 173 164 255 
-1.586698 -1.852702 0.3604679 0 0 0 178 173 169 255 
-1.073064 -2.165604 0.3710532 0 0 0 158 153 150 255 
-2.26439 0.8799443 0.1805418 0 0 0 149 140 135 255 
-1.567152 1.083804 0.3522332 0 0 0 130 120 116 255 
0.7504803 0.2523189 0.02747083 0 0 0 99 95 84 255 
-2.213552 0.8270195 0.1872458 0 0 0 159 154 150 255 
-3.547199 1.112383 0.2282131 0 0 0 142 133 126 255 
1.829666 0.9326695 0.2396388 0 0 0 104 94 85 255 
-0.5449753 -2.235158 0.4664371 0 0 0 141 135 135 255 
1.317619 -0.04646276 0.1396539 0 0 0 133 130 125 255 
1.396775 1.620287 0.1343019 0 0 0 92 89 84 255 
-1.400992 -2.343542 0.3921719 0 0 0 148 145 138 255 
-1.894957 -1.688503 0.3909354 0 0 0 123 121 122 255 
-1.446902 -0.1548623 0.2466049 0 0 0 119 121 118 255 
-1.691561 1.763362 0.3874652 0 0 0 122 112 103 255 
-2.252804 1.259451 0.2161539 0 0 0 166 153 145 255 
-0.3956865 3.381264 0.4393854 0 0 0 139 136 129 255 
-2.461957 0.6683486 0.2156596 0 0 0 178 170 159 255 
-2.277655 0.9712761 0.1838534 0 0 0 163 152 146 255 
0.3311399 2.479208 0.2597966 0 0 0 148 144 141 255 
-2.219378 0.6750914 0.1863654 0 0 0 105 98 95 255 
0.6522977 0.1686803 -0.01386881 0 0 0 111 108 101 255 
1.332258 -1.063647 0.3026285 0 0 0 159 154 148 255 
-1.960852 -2.647123 0.3832862 0 0 0 111 95 82 255 
0.8358202 1.922169 0.2091463 0 0 0 127 123 114 255 
-1.50296 0.2277944 0.2486224 0 0 0 95 97 97 255 
1.737096 1.114335 0.2511568 0 0 0 131 127 117 255 
-0.6982609 -3.347691 0.4504428 0 0 0 160 146 133 255 
-2.196679 1.299022 0.2440886 0 0 0 154 144 135 255 
-2.61217 -2.870704 0.5485773 0 0 0 121 112 107 255 
-1.960189 -0.7233216 0.2852411 0 0 0 172 165 160 255 
-2.211224 0.8118623 0.1908526 0 0 0 144 140 137 255 
1.564555 0.5870385 0.2516401 0 0 0 143 139 136 255 
-0.3917384 0.1214509 -0.3683019 0 0 0 77 76 74 255 
-2.203751 1.413061 0.2422807 0 0 0 152 142 132 255 
-2.780456 0.5317088 0.3693008 0 0 0 151 146 142 255 
-2.158854 0.8651859 0.2011075 0 0 0 146 141 137 255 
-0.07799105 1.776323 0.1819999 0 0 0 152 151 149 255 
5.441325 -1.54375 0.6169639 0 0 0 162 155 147 255 
-0.9682603 -1.014565 0.2315283 0 0 0 174 171 166 255 
1.012835 2.152649 0.1672359 0 0 0 117 113 109 255 
1.086164 1.771592 0.0992372 0 0 0 110 102 91 255 
-1.176493 1.387455 0.1902051 0 0 0 129 120 113 255 
-2.697274 1.04042 0.3415842 0 0 0 136 119 109 255 
-0.1650864 0.3984865 -0.2908006 0 0 0 58 56 59 255 
-1.186533 1.648493 0.2021415 0 0 0 119 110 103 255 
-1.699571 0.8410378 0.3083982 0 0 0 163 160 159 255 
-2.321602 1.830086 0.2434549 0 0 0 159 147 135 255 
-0.03471583 -1.902415 0.3249488 0 0 0 125 120 117 255 
-2.208915 -0.7993771 0.3562005 0 0 0 149 141 138 255 
-2.025885 2.856776 0.2653947 0 0 0 166 159 143 255 
-2.833167 2.094157 0.4247971 0 0 0 178 169 160 255 
1.832953 0.6590186 0.3463597 0 0 0 145 141 138 255 
1.402883 1.95778 0.1629112 0 0 0 145 142 130 255 
4.635137 -0.5235163 0.5690515 0 0 0 140 133 123 255 
0.9223837 2.726241 0.3298221 0 0 0 164 163 159 255 
-2.465689 0.6579245 0.2153802 0 0 0 151 143 132 255 
-2.52988 2.139827 0.2619641 0 0 0 168 155 139 255 
2.904992 -3.318665 0.5973096 0 0 0 140 140 139 255 
-2.29251 0.8304473 0.1784389 0 0 0 109 100 91 255 
-1.088348 2.926271 0.3207366 0 0 0 141 140 136 255 
-1.005775 0.8097347 0.06076121 0 0 0 154 145 136 255 
-2.998424 1.869726 0.4067922 0 0 0 161 151 139 255 
1.130296 2.1943 0.1507926 0 0 0 148 149 143 255 
-2.976404 -2.07048 0.4006085 0 0 0 159 152 144 255 
-1.963945 -0.4899759 0.1845317 0 0 0 151 144 136 255 
2.651533 -3.164597 0.5925686 0 0 0 127 127 125 255 
-3.191843 1.799849 0.3917689 0 0 0 112 102 90 255 
-1.797217 -3.0454 0.4899201 0 0 0 167 158 147 255 
-2.718724 0.4624992 0.3654597 0 0 0 132 128 125 255 
-2.085005 0.02613665 0.1571627 0 0 0 106 102 101 255 
-2.86685 2.169035 0.4326158 0 0 0 153 142 130 255 
2.661205 -3.024754 0.5324903 0 0 0 164 164 164 255 
-2.30186 0.02962778 0.1993296 0 0 0 164 157 149 255 
0.08474257 2.046721 0.1876867 0 0 0 156 148 135 255 
-2.220081 0.5327125 0.1703377 0 0 0 140 131 126 255 
-2.219851 0.3441909 0.1579461 0 0 0 120 109 104 255 
4.228113 0.2300226 0.5336857 0 0 0 151 147 136 255 
-2.13471 0.6738034 0.1998246 0 0 0 161 157 146 255 
-2.233283 0.1324174 0.17014 0 0 0 154 147 141 255 
0.423341 -1.192864 0.1302466 0 0 0 145 138 130 255 
-0.9923055 -0.8171701 0.1791048 0 0 0 139 132 124 255 
-2.230947 -0.07385351 0.260766 0 0 0 0 0 0 255 
3.639674 -0.4705802 0.5534363 0 0 0 144 137 131 255 
-0.00237675 1.520041 0.06864238 0 0 0 103 98 94 255 
-3.276731 -2.058661 0.3780961 0 0 0 162 153 139 255 
-2.219378 0.6750914 0.1863654 0 0 0 105 98 95 255 
-1.911853 -0.9416224 0.345052 0 0 0 161 152 145 255 
-0.3610661 -2.899145 0.5815969 0 0 0 155 139 125 255 
-2.402304 0.3514248 0.221683 0 0 0 148 139 132 255 
-2.103004 0.7808496 0.2130923 0 0 0 158 150 139 255 
-0.3542324 2.182925 0.3917637 0 0 0 132 131 127 255 
-2.875269 2.174933 0.4340644 0 0 0 120 107 98 255 
-1.612745 0.7680307 0.3032191 0 0 0 112 112 112 255 
-0.960183 0.6649163 0.009915113 0 0 0 186 177 168 255 
1.79611 -3.467189 0.3573289 0 0 0 127 125 126 255 
-2.395892 1.265606 0.2004652 0 0 0 127 119 108 255 
0.9405657 -0.04323744 -0.01250124 0 0 0 140 144 145 255 
3.318464 2.088739 0.5357521 0 0 0 146 145 141 255 
-1.536016 2.756137 0.4874487 0 0 0 169 157 143 255 
-2.166265 0.6830776 0.2084703 0 0 0 99 99 97 255 
-1.060634 1.262623 0.1478899 0 0 0 143 133 124 255 
2.905396 -0.2849364 0.4690666 0 0 0 176 172 163 255 
-3.172333 1.924606 0.403959 0 0 0 151 144 128 255 
-1.666278 0.3700575 0.2163756 0 0 0 114 111 106 255 
2.752522 -0.2596382 0.5347929 0 0 0 185 181 172 255 
1.539365 2.805916 0.3458121 0 0 0 139 138 136 255 
1.520244 -3.253153 0.3149028 0 0 0 161 159 160 255 
-1.907897 -0.154305 0.1899683 0 0 0 165 156 149 255 
-2.267544 1.681939 0.2601686 0 0 0 150 137 128 255 
3.470833 1.070906 0.4498453 0 0 0 119 112 106 255 
1.756973 -2.935427 0.2196071 0 0 0 110 109 114 255 
-2.540721 1.10268 0.2321889 0 0 0 136 121 113 255 
1.747411 -2.748048 0.2578173 0 0 0 116 117 119 255 
-1.498225 -0.08421739 0.255348 0 0 0 141 143 140 255 
3.090913 0.8655432 0.4861095 0 0 0 145 140 134 255 
1.481881 1.745522 0.1656308 0 0 0 116 113 106 255 
0.5021825 -0.1533403 0.063097 0 0 0 110 111 113 255 
-2.15816 -0.1063257 0.1586647 0 0 0 102 94 92 255 
-1.992995 2.848398 0.3813207 0 0 0 164 152 140 255 
1.417293 -2.194524 0.3904736 0 0 0 159 159 161 255 
-1.671043 -0.4676811 0.1967459 0 0 0 169 160 155 255 
-1.550767 -2.690992 0.5157919 0 0 0 126 117 112 255 
0.8611872 -2.661988 0.3400123 0 0 0 115 107 96 255 
2.125897 4.181099 0.296556 0 0 0 157 160 159 255 
-0.3535143 2.201572 0.3868268 0 0 0 131 118 109 255 
-1.159037 -2.216038 0.3436377 0 0 0 126 120 120 255 
1.321288 0.67632 0.2462168 0 0 0 141 131 121 255 
-2.749009 2.029727 0.3528857 0 0 0 163 153 141 255 
-2.257482 2.469548 0.279783 0 0 0 157 143 130 255 
-1.012795 -2.448271 0.3785236 0 0 0 130 120 111 255 
0.9191463 2.065682 0.157177 0 0 0 150 145 139 255 
2.209518 3.961113 0.337785 0 0 0 166 168 167 255 
-1.885847 -0.612725 0.2016969 0 0 0 143 138 135 255 
2.539859 0.8918125 0.5409386 0 0 0 127 123 114 255 
-1.594541 1.191387 0.3456023 0 0 0 131 122 113 255 
2.919221 1.197693 0.3757985 0 0 0 181 177 168 255 
-1.691068 -1.075032 0.2614577 0 0 0 172 164 161 255 
2.347363 -0.9690918 0.3697081 0 0 0 129 122 115 255 
-1.645042 1.070268 0.3429456 0 0 0 129 119 110 255 
-2.444565 -0.03562651 0.3118334 0 0 0 149 140 133 255 
-2.279531 -0.01812376 0.1921318 0 0 0 134 125 116 255 
0.7005997 -2.789323 0.2456999 0 0 0 122 117 115 255 
0.2565269 2.547014 0.3080335 0 0 0 152 148 145 255 
-2.251062 0.8703015 0.1842222 0 0 0 134 127 121 255 
-1.943098 -0.8685106 0.3268621 0 0 0 150 143 138 255 
-2.996582 1.22738 0.2258456 0 0 0 158 155 150 255 
-1.503358 2.758611 0.4315267 0 0 0 169 156 140 255 
2.008527 0.1957985 0.3590124 0 0 0 179 177 165 255 
0.2166764 2.745538 0.3238139 0 0 0 120 116 111 255 
-1.183763 1.784132 0.1987264 0 0 0 162 152 143 255 
0.2190149 -2.502596 0.4202578 0 0 0 157 156 154 255 
-2.665163 -2.800867 0.5355754 0 0 0 218 214 209 255 
0.2777764 1.215081 0.04748535 0 0 0 145 140 136 255 
2.678252 1.642028 0.3096871 0 0 0 178 178 170 255 
0.6627996 0.8069249 0.05728745 0 0 0 145 141 132 255 
-0.7464394 1.393577 0.1987002 0 0 0 158 153 149 255 
-3.186983 1.152227 0.3570166 0 0 0 124 115 106 255 
-2.710773 0.6223924 0.3663149 0 0 0 173 161 149 255 
1.713629 0.9335931 0.3033037 0 0 0 179 172 162 255 
0.727589 -1.884236 0.234822 0 0 0 87 85 86 255 
-1.559568 -0.2477442 0.2431734 0 0 0 135 131 122 255 
-2.706563 0.5062704 0.3654914 0 0 0 165 157 154 255 
-2.061703 -0.4391727 0.2104728 0 0 0 152 143 136 255 
-0.09495962 -2.653859 0.3471973 0 0 0 138 128 127 255 
-3.145533 1.241956 0.3652039 0 0 0 153 143 133 255 
1.755677 1.314849 0.2502933 0 0 0 146 139 129 255 
0.05007267 -2.272389 0.3713973 0 0 0 123 113 112 255 
-1.521531 0.6868433 0.2915726 0 0 0 124 121 114 255 
-2.030673 0.6218334 0.2259114 0 0 0 129 115 106 255 
0.1733683 -1.96874 0.370151 0 0 0 132 124 122 255 
-3.517236 1.244548 0.2451355 0 0 0 160 153 145 255 
-1.932446 -1.07738 0.3835347 0 0 0 121 112 105 255 
0.1923599 1.219452 0.02841973 0 0 0 130 130 132 255 
-2.499086 0.9607211 0.2122858 0 0 0 165 155 146 255 
-0.435013 -1.668025 0.228344 0 0 0 135 126 129 255 
0.6408982 -1.499221 0.2128015 0 0 0 139 133 133 255 
5.20551 -0.1989051 0.6906061 0 0 0 139 130 123 255 
0.1258064 -1.974157 0.359684 0 0 0 125 115 113 255 
-2.091654 -0.4141153 0.2111616 0 0 0 127 116 112 255 
-2.09971 -1.179408 0.3877213 0 0 0 128 117 115 255 
0.6105217 -1.473771 0.2045896 0 0 0 101 93 91 255 
-3.548066 0.5302004 0.2026999 0 0 0 77 74 67 255 
-2.037714 -2.616764 0.292129 0 0 0 135 126 111 255 
-2.554288 2.227595 0.2901521 0 0 0 195 179 163 255 
0.1066461 -1.707012 0.3236847 0 0 0 120 111 112 255 
1.498164 0.8018951 0.2552309 0 0 0 134 125 118 255 
-1.64789 -0.7424924 0.1978495 0 0 0 157 150 144 255 
0.7987858 -2.140055 0.3138156 0 0 0 130 123 113 255 
-0.787051 -2.569644 0.4650135 0 0 0 180 174 176 255 
-1.439763 -1.958937 0.3006408 0 0 0 105 103 104 255 
-2.69068 0.07821842 0.3510635 0 0 0 98 97 95 255 
-2.135948 -1.080527 0.3819737 0 0 0 124 117 111 255 
-0.8109075 -2.516797 0.4810495 0 0 0 133 127 129 255 
1.784184 1.527827 0.2927103 0 0 0 154 145 136 255 
-2.347832 1.871719 0.2396717 0 0 0 115 106 97 255 
1.602861 3.130646 0.3476996 0 0 0 160 162 159 255 
-2.777161 1.789546 0.3612413 0 0 0 185 175 163 255 
-0.2526783 -2.055045 0.2691081 0 0 0 115 107 108 255 
-1.243463 1.94247 0.2338731 0 0 0 169 165 154 255 
0.07475115 0.4600282 -0.3072715 0 0 0 97 92 89 255 
0.08156385 2.93522 0.2884483 0 0 0 108 104 101 255 
1.23954 -1.216488 0.257498 0 0 0 115 104 98 255 
0.3197445 -1.296898 0.1571651 0 0 0 140 130 129 255 
-0.5278769 1.099548 0.1066542 0 0 0 149 140 131 255 
1.086002 1.941928 0.1540663 0 0 0 111 103 90 255 
-3.139097 1.303052 0.3695691 0 0 0 122 113 104 255 
-1.07654 -1.032143 0.2261896 0 0 0 104 103 101 255 
-0.004971221 -1.480018 0.2777448 0 0 0 131 121 120 255 
0.618241 1.535223 0.2437804 0 0 0 100 97 90 255 
1.020052 2.422366 0.1584773 0 0 0 131 121 109 255 
-0.3818341 -2.037338 0.3066535 0 0 0 118 112 112 255 
-0.3148376 -2.007306 0.2704108 0 0 0 106 104 105 255 
0.6191658 0.5739191 -0.005602837 0 0 0 121 113 102 255 
-1.342604 1.805879 0.2679987 0 0 0 163 153 141 255 
-1.966982 0.2234297 0.2055159 0 0 0 143 129 120 255 
-0.3728434 -2.017061 0.2928097 0 0 0 114 110 111 255 
-2.565531 1.185237 0.2529557 0 0 0 134 122 114 255 
-1.593333 0.8089796 0.3138928 0 0 0 154 154 154 255 
0.4646285 1.052851 0.05297899 0 0 0 112 105 97 255 
-1.403205 -2.007454 0.29884 0 0 0 111 109 110 255 
-1.639247 0.9970302 0.3312082 0 0 0 166 159 153 255 
-0.7850258 -2.255738 0.4619801 0 0 0 174 170 169 255 
0.3218238 0.9929375 -0.005379677 0 0 0 163 160 155 255 
-1.449805 0.1993741 0.2491539 0 0 0 125 121 118 255 
-0.2352089 2.005002 0.3336885 0 0 0 134 131 126 255 
2.44729 0.3539297 0.4907954 0 0 0 147 141 129 255 
-0.7940549 -0.9676727 0.08173895 0 0 0 137 132 126 255 
0.6519456 0.7277035 0.04650974 0 0 0 160 154 142 255 
-2.566123 1.187317 0.2579994 0 0 0 134 122 114 255 
1.097098 0.1218378 0.07175708 0 0 0 108 105 98 255 
-1.76408 1.031703 0.3358681 0 0 0 168 167 165 255 
-1.596126 1.059478 0.3440447 0 0 0 120 112 109 255 
-1.87638 -0.2545625 0.1842818 0 0 0 118 111 101 255 
-0.7008209 -2.046865 0.432631 0 0 0 109 103 105 255 
-2.254394 0.770539 0.190912 0 0 0 131 126 120 255 
-1.336602 -2.178967 0.3153486 0 0 0 169 162 156 255 
-2.386231 0.4637366 0.1933992 0 0 0 146 137 132 255 
-1.786042 -0.4378672 0.1883554 0 0 0 153 148 145 255 
-0.04849319 1.840507 0.1830533 0 0 0 157 156 152 255 
1.625545 1.576181 0.2275558 0 0 0 110 103 93 255 
1.515908 1.281625 0.1786528 0 0 0 90 88 83 255 
-2.319684 0.9998733 0.1800354 0 0 0 165 149 141 255 
0.03028452 0.4121022 -0.3393908 0 0 0 77 73 72 255 
2.621407 0.6114138 0.3694668 0 0 0 136 122 111 255 
1.454481 1.295426 0.1772192 0 0 0 101 98 91 255 
-1.186545 2.475677 0.3086579 0 0 0 165 153 139 255 
-1.535005 0.641516 0.263206 0 0 0 120 119 114 255 
-1.122387 -2.655485 0.3688869 0 0 0 161 160 156 255 
-2.453421 0.9117376 0.1972423 0 0 0 138 123 116 255 
-0.1867504 2.549106 0.3525953 0 0 0 86 77 68 255 
1.029665 2.251216 0.2163854 0 0 0 151 148 143 255 
1.172928 1.089125 0.2490976 0 0 0 143 139 130 255 
-0.3635469 0.1395016 -0.3239145 0 0 0 178 203 210 255 
-1.748317 -0.9357123 0.2399843 0 0 0 163 158 154 255 
-1.064445 -2.425064 0.3786979 0 0 0 119 110 111 255 
-1.286164 1.739323 0.268961 0 0 0 189 184 178 255 
-0.2933426 -1.758428 0.246886 0 0 0 137 131 131 255 
-2.492303 0.9517437 0.2101572 0 0 0 145 132 124 255 
-1.169487 1.359868 0.1892908 0 0 0 146 139 129 255 
-2.707705 -3.099856 0.5990503 0 0 0 153 137 122 255 
-1.03751 -2.277497 0.3865476 0 0 0 171 165 165 255 
-1.724472 0.3233487 0.2636704 0 0 0 114 109 103 255 
-1.781379 3.433002 0.4435234 0 0 0 177 176 174 255 
-1.179118 -2.49573 0.3883898 0 0 0 144 139 136 255 
1.44433 1.503059 0.1598847 0 0 0 119 118 113 255 
-0.2455902 3.140717 0.3616037 0 0 0 151 146 142 255 
-1.673227 -0.4642334 0.2013083 0 0 0 169 160 155 255 
-3.447654 -1.564632 0.4211652 0 0 0 179 175 166 255 
1.007991 -2.80773 0.01413035 0 0 0 160 150 140 255 
-1.249766 1.798048 0.2322335 0 0 0 174 167 159 255 
-0.859254 2.586093 0.2926733 0 0 0 133 129 126 255 
-0.2856695 1.573345 0.2002115 0 0 0 104 96 93 255 
1.387849 1.447804 0.1487935 0 0 0 138 135 126 255 
-1.398154 -2.167193 0.2744403 0 0 0 169 165 156 255 
-1.607921 0.3038689 0.2692401 0 0 0 168 163 157 255 
1.699339 0.3959694 0.2231574 0 0 0 170 165 161 255 
-0.5855381 -1.67836 0.2429309 0 0 0 122 116 116 255 
2.323542 0.04003064 0.3730123 0 0 0 144 139 135 255 
-1.804572 -0.4854582 0.1879835 0 0 0 108 103 100 255 
-0.1017752 0.715295 -0.2087517 0 0 0 117 107 97 255 
-1.294213 1.752102 0.2693594 0 0 0 159 152 144 255 
-1.867246 -0.4418812 0.1669979 0 0 0 112 107 104 255 
-2.48359 0.008650355 0.3189006 0 0 0 151 138 130 255 
-0.9032883 0.6407452 -0.003302574 0 0 0 153 149 140 255 
0.7122743 -2.040333 0.2971363 0 0 0 124 120 117 255 
-1.651159 -1.159526 0.2475846 0 0 0 180 172 169 255 
-2.480166 1.925931 0.1447971 0 0 0 132 128 125 255 
-2.225956 -0.2663 0.230129 0 0 0 144 137 131 255 
-1.182359 -2.21557 0.3368223 0 0 0 143 139 140 255 
1.426915 1.949642 0.1629267 0 0 0 104 102 90 255 
-3.33245 -2.061912 0.45665 0 0 0 117 99 87 255 
2.89491 -0.104899 0.5319352 0 0 0 179 174 168 255 
-2.654415 1.152582 0.2810907 0 0 0 189 186 179 255 
-0.5206805 -1.338207 0.1828849 0 0 0 155 145 143 255 
-2.613919 -0.2133915 0.3601863 0 0 0 126 121 117 255 
-1.223218 -2.201848 0.3160324 0 0 0 115 111 112 255 
1.293682 -0.9702967 0.3322554 0 0 0 137 129 118 255 
-1.145109 1.318744 0.1769607 0 0 0 176 169 161 255 
-1.488107 -1.916686 0.3180943 0 0 0 155 150 147 255 
-2.098469 -0.6420062 0.3185759 0 0 0 151 142 137 255 
1.361484 1.902878 0.1359248 0 0 0 156 154 142 255 
-1.462037 -2.239159 0.4045684 0 0 0 134 130 129 255 
0.7105167 0.7581627 0.06188583 0 0 0 147 144 135 255 
-3.110988 -2.177935 0.3487258 0 0 0 117 104 96 255 
-1.555682 0.7079358 0.2987812 0 0 0 155 154 149 255 
1.30828 2.029726 0.1635265 0 0 0 121 118 103 255 
0.9368018 1.519411 0.2327874 0 0 0 160 153 143 255 
-2.080249 -0.06175596 0.1523974 0 0 0 104 96 93 255 
-1.398932 -2.271463 0.3348956 0 0 0 124 120 121 255 
-1.171529 -1.268447 0.2965238 0 0 0 109 104 101 255 
-1.323839 2.318778 0.364327 0 0 0 151 142 127 255 
0.9832381 -1.567194 0.2593763 0 0 0 135 122 113 255 
-2.328197 0.4848211 0.1841364 0 0 0 156 156 158 255 
-0.6633486 -1.2925 0.1506772 0 0 0 91 87 88 255 
-1.186307 2.251822 0.2411702 0 0 0 125 122 115 255 
0.6853228 0.8371676 0.06030846 0 0 0 93 94 90 255 
-2.404239 -0.433448 0.3414209 0 0 0 119 116 111 255 
-2.774137 0.1026787 0.3425748 0 0 0 167 158 151 255 
-2.237174 0.6764398 0.1873255 0 0 0 111 104 98 255 
-3.050652 -0.04243975 0.3074634 0 0 0 170 159 153 255 
-1.477001 -2.078117 0.3514247 0 0 0 137 132 131 255 
-0.7747384 -1.297938 0.1386538 0 0 0 127 120 114 255 
2.817335 1.552013 0.293375 0 0 0 169 166 157 255 
-1.403887 -2.005987 0.2998614 0 0 0 111 109 110 255 
-1.428029 -1.872908 0.2817845 0 0 0 127 125 126 255 
-0.3977321 0.1773615 -0.4193535 0 0 0 87 89 84 255 
-0.284917 1.443482 0.1966515 0 0 0 103 95 92 255 
-2.314902 0.8977844 0.1727867 0 0 0 146 141 137 255 
-1.569598 -2.047101 0.3919513 0 0 0 144 140 139 255 
2.858464 -3.319632 0.6047168 0 0 0 145 144 142 255 
-1.083248 -1.355666 0.3163011 0 0 0 137 135 136 255 
0.637743 1.423658 0.2364051 0 0 0 118 111 105 255 
-2.384987 0.5148817 0.1921115 0 0 0 170 165 161 255 
-1.650941 0.5866758 0.3333898 0 0 0 127 124 119 255 
-1.342377 -1.819522 0.2806988 0 0 0 119 115 114 255 
-2.391969 0.4741231 0.1976941 0 0 0 180 173 167 255 
0.5141895 0.8533781 0.02127075 0 0 0 112 105 97 255 
-2.375193 0.3291882 0.2037613 0 0 0 134 124 115 255 
-1.47536 -1.818642 0.3671875 0 0 0 145 145 147 255 
0.501611 0.9159604 0.01963091 0 0 0 99 94 90 255 
-2.691804 0.0693226 0.358294 0 0 0 166 162 159 255 
0.9306375 2.503494 0.3238547 0 0 0 78 67 64 255 
-1.323724 -1.766586 0.2683463 0 0 0 134 129 126 255 
0.4854209 2.462292 0.3578198 0 0 0 140 133 127 255 
0.5778679 1.450029 0.231859 0 0 0 119 112 103 255 
-2.428818 0.6341687 0.1966696 0 0 0 150 140 130 255 
-2.951983 1.78279 0.4050226 0 0 0 114 107 101 255 
2.360164 0.04262132 0.444602 0 0 0 136 131 125 255 
-2.033746 0.3894452 0.197922 0 0 0 162 148 137 255 
-1.465503 -1.84565 0.286489 0 0 0 90 90 90 255 
1.308065 1.586371 0.07916594 0 0 0 117 113 106 255 
1.109742 -1.300163 0.2928073 0 0 0 183 175 166 255 
-1.654708 -1.913017 0.4157727 0 0 0 163 158 155 255 
-2.161633 0.9525648 0.2050915 0 0 0 151 142 137 255 
-1.412954 -2.290621 0.3661127 0 0 0 151 147 148 255 
1.320892 -0.4257672 0.1417313 0 0 0 113 103 91 255 
-1.218573 -2.353782 0.3441355 0 0 0 105 101 102 255 
-2.104525 0.3861068 0.2119853 0 0 0 175 168 162 255 
-1.701973 -1.91427 0.4107246 0 0 0 151 143 144 255 
1.275496 0.218356 0.1399081 0 0 0 125 112 103 255 
-1.06261 1.729434 0.183557 0 0 0 159 150 139 255 
-0.7004814 1.088286 0.06199622 0 0 0 144 141 136 255 
-1.3457 -1.543659 0.2772222 0 0 0 153 144 139 255 
-3.127384 1.723741 0.4118199 0 0 0 116 102 93 255 
-1.3257 2.405048 0.3888741 0 0 0 178 170 157 255 
-2.431156 -2.354271 0.4187655 0 0 0 150 143 137 255 
-1.398182 -1.611119 0.2580874 0 0 0 106 100 100 255 
-2.237878 0.1270106 0.1573424 0 0 0 140 135 132 255 
-1.583393 -1.785043 0.3365841 0 0 0 170 166 162 255 
-1.428426 -0.6151109 0.2165284 0 0 0 166 159 149 255 
-1.11437 -1.10574 0.2695057 0 0 0 90 90 90 255 
-1.621229 -1.7786 0.3572648 0 0 0 171 166 163 255 
-2.914599 -1.847116 0.4302211 0 0 0 176 168 157 255 
-1.235638 -2.223394 0.3287556 0 0 0 119 115 116 255 
-1.082502 1.222491 0.1466806 0 0 0 130 121 112 255 
-0.02744668 -1.542019 0.2912474 0 0 0 144 135 136 255 
0.4445982 1.583064 0.2150171 0 0 0 138 128 119 255 
1.369333 0.01668829 0.1548145 0 0 0 151 146 140 255 
-3.281895 -2.026106 0.3801262 0 0 0 129 116 106 255 
-1.518332 -1.648138 0.2607386 0 0 0 117 113 110 255 
-0.6614749 -2.320652 0.4818587 0 0 0 132 126 126 255 
0.703927 0.8373793 0.06769872 0 0 0 138 137 132 255 
-1.56119 -1.670614 0.27069 0 0 0 153 148 145 255 
-1.073505 2.836348 0.259165 0 0 0 170 171 165 255 
-2.410358 1.508078 0.2023959 0 0 0 113 100 91 255 
-1.421942 -1.427941 0.2549489 0 0 0 136 128 125 255 
1.731967 1.096848 0.2553241 0 0 0 150 148 136 255 
-1.586475 -1.641295 0.2830861 0 0 0 128 120 117 255 
-2.856272 -2.727807 0.5060925 0 0 0 160 148 136 255 
1.551239 0.1925803 0.2269318 0 0 0 138 131 121 255 
1.155237 -0.1562053 0.1022532 0 0 0 116 115 113 255 
-1.602176 -1.624573 0.2859061 0 0 0 166 158 155 255 
-2.275591 0.4333116 0.1538463 0 0 0 139 128 122 255 
-2.443434 1.431957 0.2028196 0 0 0 146 135 129 255 
-1.651356 -1.625374 0.3207815 0 0 0 175 167 164 255 
1.221179 -0.1225011 0.07283735 0 0 0 74 75 77 255 
3.597826 -0.4893388 0.5380003 0 0 0 0 0 0 255 
-2.624295 1.154667 0.2974122 0 0 0 192 185 177 255 
0.7031603 0.8378556 0.0679872 0 0 0 138 137 132 255 
-2.161505 0.7045937 0.1842034 0 0 0 117 115 116 255 
-0.5241635 -1.334839 0.186866 0 0 0 155 145 143 255 
-2.182807 0.819873 0.1928706 0 0 0 104 100 97 255 
1.855393 -3.528366 0.4583101 0 0 0 103 97 97 255 
-1.715808 -1.491757 0.3263884 0 0 0 146 138 135 255 
-0.4390842 -2.699106 0.3957934 0 0 0 178 169 164 255 
-3.150595 -2.072234 0.3519816 0 0 0 157 146 139 255 
-2.290955 0.3830094 0.1653495 0 0 0 151 142 135 255 
1.147629 1.187599 0.244736 0 0 0 176 172 163 255 
-1.344468 -1.931816 0.2942357 0 0 0 110 108 109 255 
-1.689057 -1.11009 0.2591853 0 0 0 187 182 178 255 
-0.7804014 -0.4672505 -0.08536959 0 0 0 160 155 149 255 
-1.067222 -1.492001 0.3366356 0 0 0 125 121 122 255 
-1.227505 -2.136138 0.4351971 0 0 0 144 140 137 255 
-1.768242 -1.381621 0.3399229 0 0 0 150 142 139 255 
-0.02272505 0.4244829 -0.3413482 0 0 0 100 92 90 255 
-2.008253 -0.08630617 0.1333516 0 0 0 145 139 139 255 
-2.311045 1.624028 0.2314162 0 0 0 154 144 132 255 
-0.9642569 1.76058 0.1949244 0 0 0 168 166 167 255 
-2.098117 0.8041605 0.2131033 0 0 0 150 140 130 255 
-2.38861 2.839788 0.3434732 0 0 0 103 98 95 255 
-1.662012 -0.505374 0.205869 0 0 0 169 162 154 255 
-1.826869 -1.33487 0.3730767 0 0 0 180 172 169 255 
-2.620186 0.841921 0.3067884 0 0 0 150 136 129 255 
-1.521654 -0.8014001 0.2066867 0 0 0 176 169 163 255 
-0.4033714 -0.1547119 -0.3655486 0 0 0 78 75 70 255 
1.086897 1.94143 0.155108 0 0 0 111 103 90 255 
-2.975051 0.1583062 0.3395357 0 0 0 164 155 150 255 
-1.770345 -1.265702 0.3295519 0 0 0 151 143 140 255 
-0.4154606 -0.0007538348 -0.3114548 0 0 0 163 97 125 255 
-1.627585 -1.763968 0.3695669 0 0 0 171 166 163 255 
-1.529794 -1.001195 0.2210789 0 0 0 153 144 139 255 
1.989696 -0.1775885 0.1895492 0 0 0 180 180 178 255 
2.29961 4.23783 0.2685287 0 0 0 159 157 158 255 
1.479989 1.315431 0.1049442 0 0 0 136 129 119 255 
-2.433488 -2.257697 0.4055631 0 0 0 140 131 121 255 
-0.457729 -0.008466789 -0.3003259 0 0 0 150 93 111 255 
-0.0284912 1.446862 0.07785583 0 0 0 103 98 92 255 
-1.519619 -0.9831941 0.2151568 0 0 0 126 117 110 255 
0.9795257 -0.08305266 0.002899408 0 0 0 150 154 155 255 
-0.5959189 -2.212517 0.4615853 0 0 0 126 120 120 255 
1.34777 1.574853 0.1017783 0 0 0 137 136 134 255 
-0.8369591 -0.2937419 -0.09272671 0 0 0 131 127 118 255 
-1.960561 -1.381725 0.4043736 0 0 0 126 118 115 255 
-0.4210946 0.003614247 -0.3488216 0 0 0 166 102 128 255 
2.365352 -3.097591 0.539598 0 0 0 118 117 115 255 
-1.92618 -1.314253 0.4032936 0 0 0 173 168 165 255 
1.66927 0.9956423 0.2577715 0 0 0 148 140 129 255 
-1.853236 -1.210538 0.3661637 0 0 0 152 144 142 255 
1.28098 2.138574 0.1592216 0 0 0 117 109 98 255 
-1.564265 -0.9018726 0.1992011 0 0 0 125 118 112 255 
-1.609118 -0.9604392 0.2119498 0 0 0 110 103 97 255 
-1.946471 -1.011792 0.381566 0 0 0 177 168 161 255 
-2.025208 -1.314312 0.3936217 0 0 0 144 134 132 255 
-1.783131 -0.6664869 0.1900589 0 0 0 126 118 115 255 
-1.696323 -1.010371 0.2257605 0 0 0 157 150 144 255 
-1.7191 -1.036798 0.2468953 0 0 0 124 117 111 255 
-1.528555 -0.8346498 0.2063644 0 0 0 85 80 76 255 
-0.974148 -0.192927 -0.0278163 0 0 0 150 145 139 255 
-1.980083 -1.139685 0.3968196 0 0 0 158 153 149 255 
-1.070667 2.313249 0.238755 0 0 0 141 133 120 255 
-1.997545 -1.151934 0.398679 0 0 0 151 143 140 255 
-0.03820198 1.223019 0.05608416 0 0 0 163 156 146 255 
-3.559348 0.5256925 0.1911566 0 0 0 123 119 108 255 
-0.08220244 1.717629 0.1794388 0 0 0 175 166 157 255 
-2.304983 0.766241 0.1791589 0 0 0 91 87 84 255 
2.473326 -0.9437009 0.3525748 0 0 0 164 157 149 255 
-1.779756 -0.9489074 0.2611167 0 0 0 169 164 160 255 
-2.684219 1.849484 0.3247075 0 0 0 184 171 157 255 
-1.549293 -1.829973 0.3242178 0 0 0 167 162 158 255 
-2.070519 -1.228984 0.3945603 0 0 0 168 160 158 255 
-2.3123 -0.05234241 0.2255938 0 0 0 176 167 158 255 
1.842133 0.8724325 0.3253751 0 0 0 181 180 178 255 
-2.080785 -1.200394 0.4043148 0 0 0 137 127 125 255 
-1.674466 -1.93522 0.4171965 0 0 0 169 164 162 255 
1.909504 -0.505991 0.4279065 0 0 0 165 157 146 255 
-0.5156953 -1.460136 0.2036476 0 0 0 149 136 120 255 
-2.332843 0.3448022 0.1828735 0 0 0 131 122 115 255 
-0.2989942 1.724233 0.2974014 0 0 0 135 125 113 255 
-2.106162 0.05387793 0.1591604 0 0 0 134 131 126 255 
-2.134254 -1.202502 0.3788781 0 0 0 170 163 157 255 
4.813792 -1.625458 0.4574654 0 0 0 162 159 152 255 
-2.118691 1.222353 0.2527525 0 0 0 172 162 152 255 
-1.989929 0.260283 0.2074049 0 0 0 171 166 162 255 
-2.120738 -1.148204 0.3832572 0 0 0 162 157 153 255 
-0.8033804 -0.8636712 0.06401205 0 0 0 170 165 161 255 
-0.5595593 1.471783 0.2148514 0 0 0 110 106 103 255 
1.424937 -2.318009 0.2997239 0 0 0 140 136 127 255 
-2.13506 -1.147633 0.388427 0 0 0 166 161 157 255 
2.617129 0.07955842 0.4217651 0 0 0 99 99 91 255 
-2.123696 -0.07976247 0.1555243 0 0 0 102 97 94 255 
2.396283 0.9116929 0.4969523 0 0 0 135 134 132 255 
-2.178995 -1.032734 0.3758357 0 0 0 160 151 144 255 
-2.202342 -1.014901 0.3683293 0 0 0 176 167 162 255 
-2.415731 2.439888 0.2411418 0 0 0 166 153 136 255 
-2.129277 -0.8718902 0.3722038 0 0 0 112 104 101 255 
