ply
format ascii 1.0
comment VCGLIB generated
element vertex 936
property float x
property float y
property float z
property float nx
property float ny
property float nz
property uchar red
property uchar green
property uchar blue
property uchar alpha
element face 0
property list uchar int vertex_indices
end_header
-0.7067357 2.450929 3.102638 0 0 0 174 166 155 255 
1.524978 2.925537 2.490443 0 0 0 92 87 84 255 
-0.3150654 2.52689 2.718282 0 0 0 123 118 112 255 
-0.9472067 2.539199 2.889279 0 0 0 131 122 113 255 
0.401184 2.697665 2.745206 0 0 0 125 112 103 255 
1.007167 2.325946 3.013995 0 0 0 127 117 108 255 
0.7969319 2.744836 2.708299 0 0 0 141 128 120 255 
0.6234574 2.66547 2.839213 0 0 0 133 129 126 255 
0.5123712 2.749813 2.749289 0 0 0 97 89 83 255 
-0.421726 2.024993 4.064273 0 0 0 104 57 77 255 
-0.4696099 2.671483 2.488667 0 0 0 116 112 103 255 
0.6606007 2.776288 2.70692 0 0 0 148 143 137 255 
0.06053859 3.136289 2.309291 0 0 0 119 111 108 255 
-1.679128 -0.123165 4.94856 0 0 0 142 132 122 255 
0.42963 2.785749 2.690987 0 0 0 98 93 89 255 
0.9974707 3.13641 2.176706 0 0 0 117 108 103 255 
1.181685 2.787899 2.568196 0 0 0 162 153 148 255 
1.009243 -0.03714563 4.924393 0 0 0 124 108 92 255 
-0.571255 2.714281 2.453361 0 0 0 95 92 87 255 
-2.455653 -0.05437941 4.871193 0 0 0 146 133 124 255 
0.7563326 2.812451 2.514624 0 0 0 128 118 108 255 
-1.844754 -0.07428312 4.887199 0 0 0 108 99 82 255 
-0.8007257 2.732774 2.369967 0 0 0 127 120 112 255 
-4.761881 -2.039867 6.370978 0 0 0 0 0 0 255 
-0.06513983 2.820879 2.462829 0 0 0 122 108 97 255 
-0.9111025 0.00544752 1.903379 0 0 0 123 61 100 255 
-0.5179041 2.789848 2.386206 0 0 0 173 163 154 255 
-2.413921 -0.3255341 4.884942 0 0 0 137 133 130 255 
0.2590971 2.87145 2.581161 0 0 0 112 103 96 255 
-1.138112 1.586611 4.166253 0 0 0 87 87 84 255 
0.4357325 2.905687 2.584727 0 0 0 106 98 95 255 
-0.9722728 1.115747 3.089213 0 0 0 222 149 190 255 
-1.426138 2.859296 2.353139 0 0 0 151 142 133 255 
-0.571686 2.079836 3.976238 0 0 0 164 182 186 255 
-0.03134863 2.967316 2.419735 0 0 0 151 139 123 255 
-2.846792 1.277464 3.925338 0 0 0 113 103 93 255 
-0.9371277 0.4123308 2.333475 0 0 0 108 57 90 255 
-0.7416613 2.907787 2.234284 0 0 0 174 162 150 255 
-0.69021 3.084527 2.105735 0 0 0 156 146 136 255 
0.7721022 2.802983 2.474418 0 0 0 101 92 85 255 
-1.514918 3.41031 1.640923 0 0 0 134 124 114 255 
-0.8029072 3.083417 2.07293 0 0 0 120 108 96 255 
-0.02178888 3.191818 2.24511 0 0 0 151 146 142 255 
-1.358155 3.083813 1.939123 0 0 0 141 124 114 255 
-1.530205 -1.216661 5.963766 0 0 0 127 123 114 255 
-1.520528 2.754629 2.526943 0 0 0 112 99 89 255 
-0.07683853 3.344524 2.028142 0 0 0 140 127 118 255 
-2.576372 2.061655 2.978339 0 0 0 135 123 111 255 
-0.8422934 -0.2047059 2.349855 0 0 0 69 52 41 255 
-0.8947787 3.274565 1.900421 0 0 0 170 164 150 255 
0.7407556 3.001511 2.24702 0 0 0 156 145 141 255 
-0.8933991 3.27051 1.892773 0 0 0 170 164 150 255 
-1.113585 -0.2995496 5.220726 0 0 0 58 48 42 255 
-1.266456 3.365913 1.739793 0 0 0 172 162 147 255 
0.9550664 3.792772 1.725361 0 0 0 140 135 129 255 
-2.041326 2.897775 2.26851 0 0 0 112 102 93 255 
-0.990856 3.401595 1.791747 0 0 0 155 139 129 255 
-0.8263255 -0.2478653 2.358297 0 0 0 87 70 51 255 
-0.6134391 3.56987 1.869234 0 0 0 110 97 88 255 
-0.5203281 3.468328 1.937225 0 0 0 120 109 103 255 
-1.355737 3.566718 1.756739 0 0 0 114 98 83 255 
-3.048532 1.442326 3.672327 0 0 0 153 144 135 255 
0.5773658 2.95016 2.373313 0 0 0 136 122 113 255 
1.227147 1.893908 3.512545 0 0 0 143 132 128 255 
0.3814273 3.208878 2.010425 0 0 0 117 104 97 255 
2.135705 0.1894575 5.002739 0 0 0 117 107 106 255 
-0.7494859 3.653322 1.6904 0 0 0 107 95 79 255 
-1.139955 -0.2484311 5.027757 0 0 0 136 124 112 255 
0.5249982 3.38147 1.870298 0 0 0 158 147 141 255 
-0.5364779 3.648244 1.780964 0 0 0 128 118 106 255 
-0.9469883 3.702421 1.772284 0 0 0 147 131 118 255 
-0.7297345 3.60954 1.724672 0 0 0 158 150 139 255 
0.7386963 3.058793 2.162753 0 0 0 142 137 133 255 
-0.4495127 0.6413637 2.363073 0 0 0 123 83 91 255 
-0.3323809 0.7954283 2.700882 0 0 0 118 97 80 255 
-0.6420235 3.588704 1.727659 0 0 0 117 108 101 255 
0.6371118 3.998092 1.502002 0 0 0 83 76 70 255 
-2.715861 0.7540292 4.229528 0 0 0 154 146 135 255 
-0.9618541 0.8384064 2.803548 0 0 0 101 25 56 255 
-0.970756 1.99182 3.998917 0 0 0 199 158 191 255 
-1.715382 -0.6876827 5.361214 0 0 0 107 97 87 255 
1.377752 2.308513 2.941598 0 0 0 127 118 111 255 
-0.5060344 2.730485 2.455498 0 0 0 122 111 105 255 
1.193367 2.055074 3.315241 0 0 0 129 122 116 255 
0.5553088 2.790593 2.711192 0 0 0 142 134 132 255 
0.4558659 2.871415 2.628635 0 0 0 83 77 77 255 
0.971296 3.007377 2.260535 0 0 0 149 139 137 255 
-1.276785 -0.5162234 5.287125 0 0 0 164 154 144 255 
0.792276 0.2778218 4.829987 0 0 0 136 128 125 255 
0.8072274 2.478194 2.998669 0 0 0 178 169 164 255 
-0.5796319 0.3757327 2.052282 0 0 0 134 120 107 255 
3.512058 2.126501 2.982965 0 0 0 163 162 160 255 
-2.812013 -3.979673 8.097873 0 0 0 159 156 151 255 
0.2392461 3.798056 1.477903 0 0 0 143 133 124 255 
1.506313 2.961697 2.450412 0 0 0 177 176 172 255 
-0.9541941 0.7042522 2.683388 0 0 0 211 118 159 255 
-3.883178 -1.499241 6.038823 0 0 0 181 177 166 255 
-2.843222 -3.05754 7.526472 0 0 0 157 154 145 255 
-0.5572544 -0.1998154 2.603318 0 0 0 127 127 120 255 
0.800299 3.494717 1.850121 0 0 0 150 142 135 255 
2.989103 1.373476 3.897485 0 0 0 140 130 121 255 
-2.568322 0.7858654 4.208592 0 0 0 122 115 107 255 
-0.3413327 0.009760436 1.764466 0 0 0 151 81 120 255 
-1.281762 0.6349209 4.614037 0 0 0 161 170 169 255 
1.954376 1.255828 4.040968 0 0 0 94 89 93 255 
1.461865 3.682546 2.020745 0 0 0 150 143 135 255 
-4.252136 -2.664541 6.944529 0 0 0 145 135 123 255 
-0.3354634 0.02638948 1.828171 0 0 0 162 122 140 255 
-1.560924 1.187743 4.171793 0 0 0 148 140 129 255 
-3.800956 -2.461468 6.769791 0 0 0 136 132 120 255 
2.082956 1.216183 4.061327 0 0 0 135 127 125 255 
-0.8301982 0.5573383 3.251909 0 0 0 214 119 159 255 
-1.887733 0.4461081 4.547876 0 0 0 141 134 124 255 
-0.30493 0.09113076 1.911479 0 0 0 147 142 144 255 
0.4425635 -1.792764 6.329678 0 0 0 105 103 104 255 
-1.038543 2.700539 2.512951 0 0 0 178 171 161 255 
0.7143548 2.83941 2.732776 0 0 0 111 107 104 255 
-0.3708405 0.1554459 1.886029 0 0 0 148 83 110 255 
0.1360845 -0.4151107 5.462892 0 0 0 168 164 161 255 
-2.304035 -0.5451227 5.25142 0 0 0 132 119 105 255 
-2.798927 -1.763292 6.218723 0 0 0 140 136 127 255 
-3.07572 -1.333556 5.703796 0 0 0 172 168 159 255 
-2.291977 -0.5361955 5.232462 0 0 0 167 158 143 255 
-0.4338286 0.2470884 1.877737 0 0 0 124 123 119 255 
-0.4635123 0.2570186 1.888034 0 0 0 146 147 139 255 
-0.4510912 0.2862095 1.841663 0 0 0 128 123 117 255 
-1.251452 0.9353217 4.488554 0 0 0 127 127 127 255 
-0.3051584 0.0667785 1.891428 0 0 0 70 38 43 255 
-0.4327707 0.2798119 1.899389 0 0 0 152 148 147 255 
-0.9375272 0.270889 2.151328 0 0 0 224 150 195 255 
0.9905861 3.731839 1.780434 0 0 0 110 103 97 255 
-3.919206 -0.7064436 4.963926 0 0 0 183 183 181 255 
-2.914082 -0.9190342 5.358478 0 0 0 192 185 175 255 
-0.1297359 3.140968 2.258777 0 0 0 94 89 86 255 
-0.4061323 0.3611685 2.096083 0 0 0 180 110 146 255 
-0.05003911 3.254749 2.169905 0 0 0 152 139 130 255 
-0.5086858 0.3871728 2.070215 0 0 0 150 152 141 255 
-1.724417 0.3772724 4.649768 0 0 0 167 160 152 255 
0.8490179 1.472796 3.916312 0 0 0 149 138 134 255 
-1.697334 -0.8485774 5.60286 0 0 0 173 172 167 255 
-0.1586589 3.288171 2.138522 0 0 0 152 144 133 255 
-0.008198557 4.062496 1.243125 0 0 0 110 100 90 255 
1.211825 -0.8239598 5.949149 0 0 0 165 160 157 255 
-0.6266943 1.162225 2.888531 0 0 0 117 114 107 255 
0.4475721 3.274727 1.947897 0 0 0 141 132 127 255 
-3.543694 0.981271 3.97361 0 0 0 90 84 78 255 
-3.450121 -0.7285525 5.19306 0 0 0 126 119 111 255 
0.3667035 0.4383574 4.817679 0 0 0 137 129 127 255 
-2.604856 -0.6930197 5.257777 0 0 0 160 155 149 255 
-2.9338 -0.6059687 5.143483 0 0 0 185 178 168 255 
0.7146434 2.944322 2.276189 0 0 0 139 138 136 255 
1.016518 2.202878 3.200632 0 0 0 168 163 160 255 
-0.7731791 2.897959 2.226189 0 0 0 159 151 140 255 
0.7542335 1.732246 3.59666 0 0 0 130 129 125 255 
-0.9364724 0.2029558 2.136595 0 0 0 194 121 156 255 
-3.445747 -0.6318448 5.191509 0 0 0 145 138 132 255 
0.1363245 3.484858 1.684856 0 0 0 108 101 95 255 
-0.7534141 1.289146 4.260781 0 0 0 126 128 125 255 
-0.2949346 0.4856369 2.399283 0 0 0 189 200 196 255 
0.5285637 2.929582 2.520235 0 0 0 176 169 161 255 
-0.01589085 2.38693 2.887081 0 0 0 114 106 102 255 
0.5764236 -0.3530896 5.382005 0 0 0 156 152 149 255 
-0.3318308 0.03030567 1.709789 0 0 0 184 119 159 255 
-0.9254122 0.5589624 2.475526 0 0 0 111 72 101 255 
0.2038492 3.422741 1.764211 0 0 0 87 83 80 255 
-1.017419 2.869404 2.563537 0 0 0 168 154 145 255 
-1.804388 1.850505 3.588824 0 0 0 136 131 127 255 
-0.1447395 3.021828 2.347442 0 0 0 130 116 107 255 
-2.367199 -0.2643734 4.848471 0 0 0 163 156 146 255 
-0.3059813 0.587424 2.490517 0 0 0 192 193 187 255 
-0.3851015 0.6118349 2.397629 0 0 0 163 128 124 255 
-1.013887 1.361621 3.997483 0 0 0 132 140 127 255 
-0.1909666 0.1361587 2.142388 0 0 0 203 226 220 255 
0.1797441 3.662724 1.548756 0 0 0 100 93 85 255 
-0.9607333 0.7463934 2.728883 0 0 0 178 119 155 255 
1.196633 -0.06104945 5.384692 0 0 0 115 110 106 255 
-1.206057 0.06596886 4.811037 0 0 0 139 134 128 255 
-1.000049 1.297852 3.351298 0 0 0 131 80 88 255 
-0.5379319 2.979508 2.235257 0 0 0 133 124 115 255 
-1.275675 2.380942 2.933406 0 0 0 127 118 109 255 
-1.377011 -0.1289607 4.933658 0 0 0 163 150 141 255 
-0.3805469 0.69818 2.509536 0 0 0 109 61 73 255 
-2.322083 1.018782 4.099984 0 0 0 99 90 83 255 
-0.9133839 0.5229102 2.419784 0 0 0 181 97 149 255 
-1.385992 0.7254335 4.581706 0 0 0 105 98 91 255 
-1.938109 2.149875 2.956108 0 0 0 121 113 110 255 
0.6838026 0.1817513 4.935237 0 0 0 132 127 124 255 
0.8601807 -0.1148706 5.303293 0 0 0 138 134 133 255 
2.162339 0.2238138 5.099956 0 0 0 112 104 102 255 
0.5081595 2.858895 2.639735 0 0 0 103 99 98 255 
0.7549747 4.045744 1.492036 0 0 0 89 84 78 255 
2.142646 0.269093 4.950698 0 0 0 133 128 125 255 
-2.997913 2.747726 2.031077 0 0 0 79 69 67 255 
-1.56104 0.2538077 4.74282 0 0 0 123 116 106 255 
-0.04806887 3.646659 1.522979 0 0 0 125 116 108 255 
-0.3545848 0.7984121 2.67376 0 0 0 152 128 109 255 
-0.5306331 3.142086 2.114586 0 0 0 154 140 129 255 
1.530679 1.859492 3.466036 0 0 0 104 95 86 255 
1.915796 0.437696 4.939672 0 0 0 161 155 155 255 
-0.4279834 0.155421 2.024649 0 0 0 146 147 139 255 
-2.897257 1.59877 3.581264 0 0 0 88 77 71 255 
-0.3311538 0.8149619 2.72744 0 0 0 122 108 95 255 
0.8163252 0.4904531 4.670722 0 0 0 123 112 110 255 
-2.412712 0.4382162 4.285075 0 0 0 173 166 156 255 
0.35872 2.400842 2.962959 0 0 0 167 157 147 255 
-1.330675 0.9582573 4.117377 0 0 0 120 110 101 255 
-0.9432885 3.642751 1.781523 0 0 0 153 139 126 255 
0.8541821 0.6377885 4.53641 0 0 0 155 145 146 255 
-0.3911118 0.9162564 2.754018 0 0 0 189 130 148 255 
0.02268628 -0.1412325 5.142321 0 0 0 123 118 114 255 
-2.61955 0.6717001 4.306593 0 0 0 135 126 117 255 
-0.9888376 -0.6022325 5.535394 0 0 0 146 137 130 255 
0.6157734 2.837778 2.612858 0 0 0 150 141 132 255 
1.465572 0.8595017 4.226614 0 0 0 158 153 149 255 
-1.58808 -0.6739679 5.343305 0 0 0 153 146 138 255 
-0.4153404 1.678914 3.60512 0 0 0 159 92 125 255 
1.503448 0.9289369 4.157112 0 0 0 121 111 109 255 
-1.16394 2.704092 2.399018 0 0 0 97 88 85 255 
1.199435 0.8966806 4.351793 0 0 0 123 118 113 255 
-0.454309 3.323945 2.042667 0 0 0 149 139 127 255 
0.6565738 0.8755348 4.367854 0 0 0 106 96 94 255 
0.2395877 2.920923 2.552534 0 0 0 128 120 113 255 
-1.900264 0.8020246 4.2587 0 0 0 177 171 159 255 
-1.762694 1.055487 4.168301 0 0 0 131 121 110 255 
-1.959588 0.02209138 4.822626 0 0 0 166 152 139 255 
2.120478 1.025481 4.204168 0 0 0 163 158 155 255 
-2.243633 2.802968 2.257363 0 0 0 149 136 120 255 
1.52816 1.025016 4.095853 0 0 0 158 150 148 255 
0.2967097 3.362501 1.836368 0 0 0 119 109 99 255 
-2.016556 0.6689827 4.386057 0 0 0 134 127 121 255 
-1.407092 0.8586993 4.511011 0 0 0 110 103 95 255 
-1.054727 -0.5216252 5.463605 0 0 0 148 141 135 255 
-0.3159366 1.084233 3.086195 0 0 0 147 148 142 255 
0.4942099 2.19684 3.155653 0 0 0 162 156 144 255 
0.1665677 3.396705 1.789158 0 0 0 114 114 112 255 
1.911456 1.071676 4.137538 0 0 0 150 139 137 255 
1.518234 2.142693 3.088936 0 0 0 171 163 152 255 
-1.300147 0.8967987 4.508998 0 0 0 76 75 70 255 
-0.2718821 1.18961 3.342047 0 0 0 194 214 223 255 
2.135383 1.095269 4.149688 0 0 0 118 110 108 255 
1.358773 1.080557 4.06036 0 0 0 119 113 113 255 
0.2397799 3.361041 2.052963 0 0 0 147 137 128 255 
-1.424173 3.206741 1.817434 0 0 0 132 118 105 255 
-0.7185116 3.715701 1.694346 0 0 0 134 121 108 255 
-0.4912163 1.174887 2.978323 0 0 0 160 153 152 255 
1.067651 1.12013 4.17042 0 0 0 124 114 112 255 
0.486025 3.361556 1.873256 0 0 0 104 95 88 255 
0.6238157 1.100624 4.227891 0 0 0 142 132 130 255 
1.013002 1.112535 4.237436 0 0 0 102 94 91 255 
0.9994647 2.096334 3.324798 0 0 0 149 141 138 255 
0.9413514 1.121943 4.255684 0 0 0 99 89 88 255 
-0.3609174 3.682694 1.643932 0 0 0 143 130 113 255 
-0.9273328 1.235029 3.151615 0 0 0 183 138 174 255 
1.539193 2.16933 3.072971 0 0 0 137 129 126 255 
-0.3463714 0.1045789 1.9892 0 0 0 141 140 137 255 
-2.466654 1.119454 3.989567 0 0 0 121 114 108 255 
0.03782764 2.693967 2.62294 0 0 0 159 145 136 255 
-2.920507 -1.061488 5.412312 0 0 0 166 159 153 255 
-0.5071303 1.286742 3.080265 0 0 0 186 186 186 255 
-1.778934 1.821459 3.631883 0 0 0 111 108 103 255 
-0.496271 1.609913 3.456691 0 0 0 146 106 132 255 
1.825301 1.356953 3.954916 0 0 0 138 134 133 255 
-0.4696099 2.671483 2.488667 0 0 0 116 112 103 255 
-2.873165 1.195167 3.949181 0 0 0 97 93 84 255 
0.2934462 3.106068 2.286272 0 0 0 137 127 117 255 
2.120796 1.281355 3.866406 0 0 0 107 98 93 255 
-1.258226 1.244259 4.261171 0 0 0 111 101 92 255 
0.6692239 2.783026 2.70001 0 0 0 123 114 107 255 
-3.188749 1.680632 3.256532 0 0 0 99 86 70 255 
1.580853 1.430632 3.880263 0 0 0 107 98 93 255 
1.422807 1.443237 3.83866 0 0 0 158 148 146 255 
0.9827276 3.909376 1.591625 0 0 0 172 163 154 255 
1.181685 2.787899 2.568196 0 0 0 162 153 148 255 
1.561466 1.452782 3.862489 0 0 0 104 93 89 255 
-0.3351488 0.06886949 1.803769 0 0 0 77 34 52 255 
-1.384348 1.337535 4.155208 0 0 0 141 129 115 255 
0.7186226 3.799353 1.651751 0 0 0 137 128 119 255 
-2.120368 1.333032 3.776791 0 0 0 114 107 96 255 
0.6799642 3.033358 2.226947 0 0 0 109 99 97 255 
1.908677 1.505235 3.708989 0 0 0 127 119 117 255 
-3.116931 1.332366 3.785372 0 0 0 160 154 138 255 
-3.042399 1.341551 3.817775 0 0 0 156 147 134 255 
-1.017236 1.263819 3.38306 0 0 0 103 96 84 255 
1.763175 1.538379 3.816261 0 0 0 110 104 104 255 
-2.098247 1.045502 4.099965 0 0 0 159 146 137 255 
1.195554 2.117553 3.174224 0 0 0 164 155 150 255 
-1.801246 1.427726 3.93271 0 0 0 126 123 116 255 
1.390403 1.043354 4.107273 0 0 0 161 158 153 255 
0.01105093 3.097034 2.325496 0 0 0 137 129 126 255 
0.760532 1.551086 3.861874 0 0 0 168 159 154 255 
-0.7239624 -0.3594398 2.372023 0 0 0 143 144 146 255 
-1.417667 1.501908 4.083825 0 0 0 94 85 78 255 
-1.339421 2.99161 2.039448 0 0 0 118 109 102 255 
1.507541 1.635306 3.752401 0 0 0 104 96 94 255 
3.738531 2.434395 2.801441 0 0 0 118 114 102 255 
1.724511 1.661 3.605197 0 0 0 128 118 116 255 
-1.188621 -0.3491542 5.340777 0 0 0 91 84 76 255 
1.68237 1.659192 3.65951 0 0 0 141 131 130 255 
-1.3783 2.760891 2.507818 0 0 0 157 148 139 255 
1.622087 1.751329 3.554827 0 0 0 161 151 149 255 
-1.476519 2.818964 2.454213 0 0 0 156 146 137 255 
-2.071979 0.05809757 4.817329 0 0 0 175 162 153 255 
-0.6517784 3.629402 1.821726 0 0 0 119 106 97 255 
-2.777668 1.604045 3.603482 0 0 0 101 94 78 255 
0.8331683 0.9160195 4.370273 0 0 0 153 147 144 255 
-1.089348 1.779896 4.096266 0 0 0 51 47 38 255 
-1.371622 3.017449 2.004173 0 0 0 154 140 131 255 
-1.949316 1.677777 3.752644 0 0 0 117 107 98 255 
0.6653045 1.81512 3.537499 0 0 0 153 143 141 255 
-2.606247 0.7083909 4.304173 0 0 0 124 111 102 255 
-0.9680445 2.599936 2.761712 0 0 0 179 172 166 255 
-1.038795 1.862316 4.022883 0 0 0 154 110 146 255 
-0.2173081 -0.167386 2.102639 0 0 0 0 0 0 255 
0.5791628 2.578874 2.886119 0 0 0 97 92 89 255 
-0.9801776 1.867231 3.872145 0 0 0 216 139 186 255 
0.3126954 3.250339 1.966399 0 0 0 170 156 145 255 
-2.412059 1.788462 3.297396 0 0 0 119 111 98 255 
-1.553616 2.59717 2.645898 0 0 0 151 141 131 255 
-2.641508 2.285863 2.7589 0 0 0 108 103 99 255 
0.6694393 1.932533 3.441441 0 0 0 169 162 156 255 
-0.9270201 1.577642 3.457065 0 0 0 191 191 190 255 
0.402647 2.69903 2.749714 0 0 0 125 112 103 255 
0.8654453 4.066236 1.353524 0 0 0 174 165 160 255 
-0.3640553 2.006085 4.111706 0 0 0 85 75 73 255 
-2.195207 -0.6564458 5.416285 0 0 0 166 154 138 255 
-1.581488 2.804769 2.467387 0 0 0 119 107 93 255 
-0.9084866 1.980958 3.897063 0 0 0 181 195 197 255 
-0.6676505 3.57682 1.779612 0 0 0 117 104 95 255 
1.193999 2.069439 3.301332 0 0 0 169 164 158 255 
0.2486742 3.034319 2.435142 0 0 0 108 97 91 255 
-0.7601048 2.117573 3.992905 0 0 0 90 92 91 255 
-0.9727657 1.646356 3.634997 0 0 0 206 169 200 255 
-1.044603 1.161371 3.346489 0 0 0 82 82 82 255 
-0.06557519 2.139359 3.587569 0 0 0 161 152 145 255 
-1.753369 0.2830233 4.689468 0 0 0 163 155 144 255 
-0.6988729 0.3763735 2.060434 0 0 0 165 184 190 255 
-0.18979 3.292568 2.121628 0 0 0 123 113 104 255 
-0.06001829 2.14979 3.584471 0 0 0 172 165 157 255 
-0.9534791 0.2755187 2.22119 0 0 0 176 105 137 255 
-0.9469883 3.702421 1.772284 0 0 0 146 130 116 255 
0.2861669 3.065134 2.392828 0 0 0 110 101 96 255 
1.406587 2.162093 3.06317 0 0 0 127 117 115 255 
1.662666 1.654283 3.620755 0 0 0 116 107 100 255 
-0.6480172 1.667502 3.445696 0 0 0 186 201 204 255 
0.3204747 3.127035 2.182172 0 0 0 170 160 151 255 
-1.974694 2.073713 3.330668 0 0 0 119 114 108 255 
-0.9708794 2.642263 2.620984 0 0 0 196 195 191 255 
-2.294575 3.058389 1.971525 0 0 0 187 183 172 255 
-2.127114 2.076101 3.211949 0 0 0 103 93 83 255 
-2.125186 2.150459 3.053432 0 0 0 163 156 146 255 
-0.04156464 2.185907 3.466885 0 0 0 170 161 152 255 
-2.338933 -0.5122493 5.055579 0 0 0 114 105 96 255 
1.21704 2.194785 3.040322 0 0 0 131 120 114 255 
-0.3905242 0.7323689 2.529916 0 0 0 163 107 132 255 
1.516066 2.210809 3.031437 0 0 0 160 153 145 255 
-2.895546 0.7257963 4.154624 0 0 0 110 100 90 255 
-0.138232 2.24438 3.416924 0 0 0 145 136 129 255 
0.7806864 2.662924 2.771533 0 0 0 150 140 131 255 
-0.9926125 0.3870026 2.441956 0 0 0 148 157 148 255 
-0.076008 2.481033 2.797417 0 0 0 161 156 150 255 
-0.3325552 0.4578945 2.341213 0 0 0 125 134 133 255 
1.195412 2.24947 2.993706 0 0 0 128 118 109 255 
1.358916 2.257303 2.977688 0 0 0 119 110 105 255 
0.3442114 1.972384 3.317017 0 0 0 158 168 160 255 
-1.179847 1.550946 4.155573 0 0 0 86 92 92 255 
-2.250243 3.005054 2.154135 0 0 0 150 138 126 255 
-0.6711229 -0.1377495 5.138561 0 0 0 130 125 121 255 
0.6414297 2.295502 3.137258 0 0 0 140 130 121 255 
1.056041 2.34973 2.937708 0 0 0 114 105 98 255 
-0.2175651 3.136986 2.248995 0 0 0 110 100 92 255 
-1.052463 2.333418 3.168208 0 0 0 99 95 86 255 
2.641116 2.305012 2.954824 0 0 0 176 169 161 255 
-0.6933026 2.362256 3.243401 0 0 0 104 99 95 255 
1.771918 1.771677 3.475318 0 0 0 108 106 107 255 
-0.9497819 1.067532 3.04799 0 0 0 195 105 140 255 
-4.39029 -0.6598458 4.960428 0 0 0 193 192 190 255 
0.7043732 2.424918 3.035367 0 0 0 117 109 107 255 
-0.8023269 3.081452 2.067224 0 0 0 120 108 96 255 
-0.3754615 -0.7655235 5.707173 0 0 0 136 128 117 255 
-0.3423485 0.6556211 3.323922 0 0 0 255 187 227 255 
-1.286041 2.349445 2.98467 0 0 0 98 91 83 255 
1.424989 3.68421 1.637634 0 0 0 162 152 143 255 
-0.977828 0.1408466 2.128012 0 0 0 136 133 128 255 
0.8149586 2.476651 2.98631 0 0 0 116 109 103 255 
-0.03848035 3.20173 2.244478 0 0 0 105 99 96 255 
-0.7067845 2.449044 3.093002 0 0 0 174 166 155 255 
0.2007514 0.2345513 4.974188 0 0 0 108 104 101 255 
-0.7972685 2.448079 3.095877 0 0 0 148 140 129 255 
1.193921 3.601578 1.91386 0 0 0 116 112 109 255 
1.343844 2.480193 2.827013 0 0 0 123 113 111 255 
2.867049 1.903605 3.243988 0 0 0 168 157 151 255 
-1.137606 1.316512 4.237963 0 0 0 98 89 74 255 
-0.7449127 2.829417 2.303362 0 0 0 165 155 145 255 
-0.008713245 2.464357 2.818706 0 0 0 107 108 110 255 
3.772681 2.384757 2.906475 0 0 0 148 143 137 255 
0.6949583 2.918474 2.351053 0 0 0 186 176 167 255 
0.7487457 2.558417 2.917251 0 0 0 141 132 125 255 
-0.2477003 2.536207 2.719637 0 0 0 109 105 104 255 
0.6228457 2.559139 2.911565 0 0 0 100 91 92 255 
0.07921764 2.951444 2.47997 0 0 0 128 114 103 255 
0.08438876 2.541489 2.764806 0 0 0 168 158 149 255 
-1.027047 2.654072 2.565297 0 0 0 183 180 173 255 
-1.669318 2.48549 2.689044 0 0 0 154 142 130 255 
0.6800313 2.952415 2.306902 0 0 0 164 153 144 255 
2.764288 1.784974 3.34765 0 0 0 116 109 102 255 
-1.778938 2.470234 2.634319 0 0 0 144 132 120 255 
0.3282943 2.584878 2.792732 0 0 0 134 121 112 255 
-0.7972906 0.2503401 1.981891 0 0 0 117 103 103 255 
-0.1933706 2.577353 2.693344 0 0 0 136 131 128 255 
-0.9401882 1.247706 3.180363 0 0 0 222 163 201 255 
-0.9936828 2.612724 2.735014 0 0 0 180 173 165 255 
-0.4258445 1.234171 3.100508 0 0 0 201 132 161 255 
0.981041 3.843465 1.694968 0 0 0 139 136 127 255 
-1.388294 2.631728 2.666599 0 0 0 114 104 94 255 
-0.2240382 0.6744583 3.240001 0 0 0 213 132 173 255 
1.378044 2.171448 3.057304 0 0 0 140 132 129 255 
-1.087442 2.657726 2.629161 0 0 0 155 150 140 255 
-0.3007667 3.11264 2.237221 0 0 0 153 139 128 255 
-1.211863 2.691114 2.66189 0 0 0 150 143 133 255 
-1.98412 3.844951 1.311303 0 0 0 132 120 104 255 
-1.236999 2.694774 2.614806 0 0 0 160 151 142 255 
0.7384125 3.601429 1.762215 0 0 0 111 102 95 255 
0.2927787 2.788711 2.643555 0 0 0 116 103 95 255 
-1.049168 2.69433 2.457302 0 0 0 188 181 173 255 
-0.9805615 1.253954 3.263561 0 0 0 127 61 83 255 
-1.676975 1.420369 3.950482 0 0 0 158 152 140 255 
-0.8476055 2.702177 2.415082 0 0 0 168 157 152 255 
-2.119129 -0.7939762 5.391152 0 0 0 166 154 140 255 
0.7845787 2.805201 2.5064 0 0 0 140 126 117 255 
-0.2341396 0.2331636 2.242791 0 0 0 184 188 189 255 
0.7961634 2.701056 2.700541 0 0 0 134 122 114 255 
0.2188558 2.822766 2.608679 0 0 0 125 112 104 255 
-0.9004947 0.4473251 2.353567 0 0 0 179 98 130 255 
1.208139 0.2187164 4.853743 0 0 0 114 113 111 255 
-2.917481 -0.168585 4.681227 0 0 0 183 183 175 255 
0.5828405 2.839671 2.617162 0 0 0 143 136 128 255 
0.6103478 2.846956 2.598482 0 0 0 132 123 114 255 
-1.664462 2.743938 2.489575 0 0 0 143 130 121 255 
0.7719463 0.2004787 4.838216 0 0 0 136 133 128 255 
-1.842104 0.1073751 4.773684 0 0 0 136 132 123 255 
-0.4469798 3.606293 1.778596 0 0 0 144 132 119 255 
0.9351152 2.869285 2.380662 0 0 0 118 108 105 255 
1.529403 2.200618 3.042372 0 0 0 138 131 123 255 
0.2347505 -0.2496077 5.256858 0 0 0 131 120 114 255 
0.5193161 2.911944 2.53362 0 0 0 126 119 109 255 
-0.9312485 3.796967 1.399828 0 0 0 194 187 175 255 
-0.3333974 2.617301 2.604847 0 0 0 117 116 114 255 
1.318815 2.028731 3.242174 0 0 0 178 172 171 255 
0.5530398 2.724821 2.795481 0 0 0 132 130 131 255 
-1.096483 2.783751 2.2823 0 0 0 179 167 155 255 
0.9821754 2.896541 2.361994 0 0 0 109 101 98 255 
-0.7294641 3.60965 1.726568 0 0 0 165 155 146 255 
-1.158155 3.973614 1.023742 0 0 0 126 112 103 255 
0.914911 3.846434 1.692714 0 0 0 89 84 80 255 
-0.8634711 -0.3234723 2.356604 0 0 0 129 126 111 255 
-0.3678829 2.878978 2.361397 0 0 0 162 152 140 255 
0.1395454 3.419887 1.771985 0 0 0 106 105 104 255 
0.9265029 2.930781 2.327614 0 0 0 93 87 87 255 
-2.707675 -0.241606 4.73409 0 0 0 149 142 135 255 
0.8911883 3.869079 1.652752 0 0 0 127 120 114 255 
0.5900875 -0.5827217 5.733192 0 0 0 107 103 95 255 
0.8102947 3.044848 2.217475 0 0 0 106 97 90 255 
0.7003713 2.806046 2.598518 0 0 0 166 157 152 255 
0.06311736 -0.3277932 5.282089 0 0 0 162 152 142 255 
0.7764615 3.074217 2.200037 0 0 0 141 132 125 255 
1.171227 0.918551 4.405439 0 0 0 151 148 148 255 
-1.203456 0.6661022 4.593544 0 0 0 152 151 146 255 
-0.1421338 3.104438 2.29901 0 0 0 87 86 82 255 
-1.848998 2.998459 2.102871 0 0 0 136 126 114 255 
1.045216 0.7942556 4.476357 0 0 0 149 145 144 255 
-2.123036 3.0005 2.135866 0 0 0 127 117 108 255 
-1.288494 0.07134882 4.779799 0 0 0 126 113 104 255 
0.1006189 2.312782 2.993975 0 0 0 130 131 126 255 
0.0505464 3.146653 2.299737 0 0 0 146 138 135 255 
-0.0604609 3.161703 2.250371 0 0 0 97 93 90 255 
-0.9487115 2.043704 3.91926 0 0 0 93 95 96 255 
-0.507542 1.810212 3.682691 0 0 0 150 92 133 255 
0.8673113 4.102975 1.357552 0 0 0 102 101 99 255 
-0.69021 3.084527 2.105735 0 0 0 156 146 136 255 
1.011815 1.999808 3.405913 0 0 0 166 157 152 255 
-0.2019918 3.180275 2.231157 0 0 0 134 125 116 255 
-0.9565547 0.2294848 2.199569 0 0 0 116 76 100 255 
0.1337315 3.209417 2.174143 0 0 0 132 122 112 255 
-0.6501877 1.408276 3.185745 0 0 0 191 202 208 255 
0.7496287 0.1634441 4.971244 0 0 0 167 151 135 255 
0.403623 3.215293 2.023407 0 0 0 126 118 115 255 
-0.00743756 3.608752 1.566457 0 0 0 167 158 149 255 
-0.0386838 3.302388 2.088267 0 0 0 161 151 141 255 
-0.9872602 1.157504 3.185162 0 0 0 187 128 139 255 
-1.660245 3.145288 1.81904 0 0 0 167 153 140 255 
1.456158 3.214248 2.408209 0 0 0 118 110 107 255 
-0.07282685 3.322792 2.079174 0 0 0 167 158 149 255 
0.3418222 3.321468 1.883247 0 0 0 116 109 101 255 
1.118661 3.06203 2.265596 0 0 0 132 123 116 255 
0.3846274 3.352699 1.85223 0 0 0 105 98 92 255 
-3.153629 0.159289 4.658405 0 0 0 120 107 90 255 
-0.319447 -0.02095465 1.819812 0 0 0 164 89 132 255 
-0.2449754 3.402762 1.994412 0 0 0 172 164 153 255 
-1.041593 1.509555 4.11511 0 0 0 129 134 130 255 
-0.5224749 3.43715 1.93283 0 0 0 156 141 134 255 
0.4412666 3.790923 1.549009 0 0 0 107 100 94 255 
-0.3517059 3.448862 1.931792 0 0 0 134 121 115 255 
-1.705529 0.4754635 4.595329 0 0 0 165 166 160 255 
-1.007815 1.777164 3.842685 0 0 0 216 152 197 255 
-0.4461773 1.318923 4.088077 0 0 0 176 108 129 255 
0.4317873 2.89241 2.605718 0 0 0 104 99 96 255 
-0.1916697 3.367766 2.014916 0 0 0 149 140 135 255 
0.6729872 2.858352 2.506508 0 0 0 144 131 122 255 
-0.4722937 1.927336 3.897676 0 0 0 111 38 68 255 
-0.8352581 0.0604564 1.86748 0 0 0 180 201 199 255 
-1.14423 -0.398856 5.363828 0 0 0 85 78 72 255 
-0.294219 1.015725 3.063328 0 0 0 174 193 200 255 
-1.919673 2.040594 3.376308 0 0 0 77 74 69 255 
-1.609103 0.6717294 4.525265 0 0 0 171 162 155 255 
-0.7005054 3.670638 1.646558 0 0 0 133 127 114 255 
-0.4809866 1.892395 3.788129 0 0 0 174 90 124 255 
-1.260886 -0.3606745 5.258715 0 0 0 169 163 151 255 
-3.476036 -0.483867 5.124538 0 0 0 149 145 134 255 
-0.3948194 1.676544 3.64924 0 0 0 161 106 138 255 
-0.169443 -0.5465428 5.687234 0 0 0 95 86 79 255 
1.410417 0.6107281 4.589721 0 0 0 151 147 146 255 
0.4781559 0.1468824 4.97656 0 0 0 108 106 109 255 
-1.892566 1.857488 3.532146 0 0 0 104 97 89 255 
-2.745055 0.9792407 4.106213 0 0 0 120 116 105 255 
0.7287493 3.362176 1.930951 0 0 0 153 144 139 255 
-0.4336388 1.466953 3.362032 0 0 0 217 145 189 255 
-2.01049 2.00672 3.335166 0 0 0 126 118 107 255 
0.3558528 3.005151 2.466795 0 0 0 124 115 106 255 
-0.9682727 -0.2330593 2.173956 0 0 0 125 130 122 255 
0.6330562 3.958336 1.523995 0 0 0 82 78 69 255 
-1.401942 3.873886 1.340474 0 0 0 178 166 150 255 
0.7440097 2.972996 2.275139 0 0 0 173 160 152 255 
-0.4290334 3.52257 1.827017 0 0 0 167 158 149 255 
-1.052372 0.6620876 3.219769 0 0 0 124 121 114 255 
1.373667 0.7366875 4.463861 0 0 0 134 129 126 255 
-0.7184408 3.743406 1.737575 0 0 0 134 121 108 255 
-0.9252319 0.72127 2.700679 0 0 0 232 149 201 255 
1.136331 1.078826 4.180218 0 0 0 98 89 82 255 
-0.7817342 3.687565 1.639345 0 0 0 133 125 114 255 
-2.086247 1.958699 3.312505 0 0 0 147 144 139 255 
0.4640658 3.708296 1.604778 0 0 0 110 101 94 255 
-1.695458 -0.857339 5.618484 0 0 0 173 172 167 255 
1.003532 3.432572 1.968638 0 0 0 160 150 141 255 
-0.3933195 0.4004372 2.073048 0 0 0 167 96 127 255 
-4.293672 -2.713264 7.034256 0 0 0 145 135 123 255 
-0.659746 3.671787 1.791022 0 0 0 163 153 141 255 
-0.926953 0.8064069 2.714495 0 0 0 225 153 198 255 
-0.9666061 3.65671 1.773655 0 0 0 160 146 133 255 
-0.4765014 1.363573 3.169305 0 0 0 153 122 120 255 
0.9699437 1.641804 3.639717 0 0 0 141 137 136 255 
-0.03579583 3.284787 2.12888 0 0 0 122 112 100 255 
-2.494651 1.649506 3.433556 0 0 0 156 150 138 255 
-2.669072 1.2795 3.931569 0 0 0 76 75 70 255 
-0.3146876 0.8785738 3.411886 0 0 0 100 91 88 255 
-0.3354992 3.508664 1.866118 0 0 0 135 128 112 255 
-2.020201 -2.287259 6.883082 0 0 0 159 156 149 255 
0.9667786 3.858349 1.680238 0 0 0 118 110 103 255 
0.2421587 -1.098403 5.764345 0 0 0 123 123 125 255 
1.016266 2.300603 3.04604 0 0 0 144 133 129 255 
-0.9510177 0.45284 2.385 0 0 0 225 148 192 255 
-1.871248 0.7272436 4.369993 0 0 0 171 162 153 255 
0.5525809 3.759204 1.661811 0 0 0 148 140 137 255 
-1.461904 0.01131089 4.723719 0 0 0 173 165 154 255 
-0.7720233 1.210148 2.991018 0 0 0 186 211 216 255 
-0.1044562 3.262963 2.16297 0 0 0 120 114 105 255 
0.8029635 2.383231 3.065915 0 0 0 109 99 97 255 
-0.4322137 1.325801 3.198597 0 0 0 219 152 188 255 
-0.9266927 0.3814893 2.319867 0 0 0 188 111 147 255 
0.817669 2.393661 3.069841 0 0 0 98 88 86 255 
0.6121613 -0.3232563 5.384429 0 0 0 140 136 135 255 
1.239006 0.3202475 4.722853 0 0 0 131 122 119 255 
-0.6253076 0.3295467 1.92205 0 0 0 185 207 205 255 
0.5238099 2.760255 2.735142 0 0 0 132 131 126 255 
-0.8851016 0.2894812 2.056508 0 0 0 150 99 132 255 
-0.4029617 1.273298 4.009381 0 0 0 166 99 117 255 
1.074002 0.7794625 4.515579 0 0 0 132 127 124 255 
-3.337739 -0.7804937 5.261027 0 0 0 177 174 167 255 
-0.9489333 0.6069067 2.586683 0 0 0 160 74 113 255 
-0.7855199 3.664418 1.680915 0 0 0 67 63 62 255 
-0.8028933 1.204146 4.291012 0 0 0 65 74 83 255 
-0.4134168 1.377396 3.271404 0 0 0 210 143 178 255 
0.9534391 2.66245 2.617668 0 0 0 150 137 129 255 
0.7266452 2.584666 2.903915 0 0 0 119 110 105 255 
-2.145775 1.448208 3.659507 0 0 0 167 160 150 255 
-0.4872934 0.9949474 2.762464 0 0 0 139 137 133 255 
-0.3538355 0.7974841 2.673554 0 0 0 149 132 122 255 
-0.4042629 1.719707 3.700141 0 0 0 167 100 141 255 
0.5044225 0.3993546 4.681232 0 0 0 112 103 98 255 
-0.571686 2.079836 3.976238 0 0 0 164 182 186 255 
-0.5039745 0.8554285 2.60935 0 0 0 189 199 196 255 
-0.7983761 1.206019 3.008385 0 0 0 188 216 220 255 
-2.719525 2.405165 2.527818 0 0 0 161 156 137 255 
-0.7133622 0.05716413 1.731389 0 0 0 106 122 125 255 
-0.0321073 3.278865 2.137603 0 0 0 140 130 118 255 
0.5179192 -1.95103 6.560402 0 0 0 106 106 106 255 
2.082956 1.216183 4.061327 0 0 0 135 127 125 255 
-2.65509 2.307422 2.712634 0 0 0 87 82 79 255 
-0.421726 2.024993 4.064273 0 0 0 104 57 77 255 
-0.9233101 2.319359 3.257569 0 0 0 141 131 119 255 
0.5083458 3.029548 2.259701 0 0 0 173 163 153 255 
-1.922186 0.06093493 4.788966 0 0 0 169 157 145 255 
-1.94881 -1.013978 5.695519 0 0 0 126 117 110 255 
0.03809319 2.482785 2.895813 0 0 0 84 84 84 255 
1.11032 1.06667 4.196462 0 0 0 119 111 108 255 
-0.8522428 0.2224927 2.955646 0 0 0 75 13 42 255 
0.6511889 -2.063278 6.527757 0 0 0 149 149 149 255 
-0.8741208 0.3058907 2.13446 0 0 0 122 99 117 255 
0.3615174 1.812814 3.757499 0 0 0 171 166 162 255 
-3.371003 -0.8733153 5.266896 0 0 0 143 134 125 255 
-0.2912637 -0.1138469 1.683503 0 0 0 145 159 160 255 
-0.3823486 0.4221478 2.188404 0 0 0 98 50 69 255 
-1.844657 0.6330646 4.398276 0 0 0 123 113 103 255 
-0.6322307 3.470953 1.898168 0 0 0 123 108 101 255 
-0.9093966 1.238497 3.130158 0 0 0 133 85 105 255 
-1.071622 3.574277 1.67063 0 0 0 117 107 98 255 
1.581218 2.303763 2.983099 0 0 0 130 120 118 255 
-1.051628 1.710986 3.932282 0 0 0 209 158 189 255 
-0.5717913 0.5162333 2.26092 0 0 0 192 206 209 255 
-0.2113829 0.0612264 1.89553 0 0 0 133 133 129 255 
-0.8521552 0.0640915 2.759562 0 0 0 124 36 74 255 
0.950935 0.7352645 4.523427 0 0 0 131 127 126 255 
-0.4126244 3.056405 2.239753 0 0 0 123 110 102 255 
-1.485639 2.85516 2.381906 0 0 0 137 127 117 255 
-0.926253 1.99235 4.197563 0 0 0 120 72 84 255 
0.06858612 3.152042 2.292458 0 0 0 143 134 127 255 
0.05170291 2.557917 2.735983 0 0 0 131 123 115 255 
-0.9146995 1.020425 2.91596 0 0 0 171 118 162 255 
3.629795 1.219994 3.72427 0 0 0 182 176 168 255 
1.604945 1.912594 3.277687 0 0 0 111 111 113 255 
-1.263459 1.173528 4.302215 0 0 0 110 100 91 255 
1.398595 3.749231 2.004532 0 0 0 149 138 132 255 
-0.02523828 2.488264 2.800606 0 0 0 96 96 96 255 
-2.274283 -0.5788732 5.294938 0 0 0 159 145 132 255 
-0.9093235 -0.07648367 1.804976 0 0 0 146 69 115 255 
1.229653 2.075905 3.239428 0 0 0 134 125 118 255 
-1.4564 0.9431303 4.387083 0 0 0 167 163 156 255 
-0.6537198 3.542068 1.867364 0 0 0 148 136 124 255 
-2.703413 1.086315 4.060905 0 0 0 114 110 99 255 
-0.1013776 3.342365 2.050792 0 0 0 138 128 119 255 
-0.9463999 0.7894361 2.737246 0 0 0 120 57 86 255 
-0.6537688 3.54279 1.86867 0 0 0 148 136 124 255 
0.7790182 1.34187 4.116306 0 0 0 146 141 137 255 
0.8297133 2.04416 3.361938 0 0 0 127 119 116 255 
0.9650778 1.998501 3.405117 0 0 0 142 133 128 255 
-3.240691 2.638048 2.254779 0 0 0 109 105 104 255 
1.859896 0.8116402 4.289222 0 0 0 137 129 127 255 
-0.4799594 0.9142587 2.679739 0 0 0 188 192 195 255 
-1.30073 3.147266 1.877155 0 0 0 165 153 139 255 
-2.109501 -0.79574 5.631375 0 0 0 155 147 134 255 
0.51779 3.33326 1.903118 0 0 0 107 98 91 255 
2.116597 0.3314927 4.919117 0 0 0 139 135 132 255 
1.407996 -0.3825061 5.386155 0 0 0 150 150 148 255 
-0.8987105 1.592264 3.483998 0 0 0 134 139 135 255 
-2.42725 -0.6948973 5.357818 0 0 0 107 100 90 255 
-2.251412 -0.530731 5.114856 0 0 0 147 144 139 255 
0.1324479 -0.8543591 5.595879 0 0 0 130 128 129 255 
-0.4693108 2.668435 2.527551 0 0 0 112 111 107 255 
0.1971257 2.854139 2.579398 0 0 0 113 104 97 255 
-0.1865391 0.06028142 2.31959 0 0 0 134 133 131 255 
0.8009236 2.413349 3.057056 0 0 0 132 123 118 255 
-1.887308 -0.6852196 5.412433 0 0 0 125 118 108 255 
0.7535229 2.624 2.865222 0 0 0 110 102 99 255 
-0.5515473 2.433194 3.118334 0 0 0 142 133 126 255 
-0.7034065 0.1225644 1.712583 0 0 0 0 0 0 255 
-0.4311943 0.250913 1.862157 0 0 0 186 187 183 255 
1.17625 -0.2101484 5.450445 0 0 0 101 97 98 255 
-0.4245428 0.9958584 2.818083 0 0 0 181 118 132 255 
0.7640939 2.464651 3.022812 0 0 0 117 112 107 255 
1.640958 1.108888 4.075677 0 0 0 164 156 154 255 
-0.9599782 1.359941 3.319408 0 0 0 116 54 67 255 
-0.5060378 3.5796 1.757074 0 0 0 195 187 176 255 
-0.8848694 -0.2146209 1.624104 0 0 0 77 54 80 255 
0.632701 2.676335 2.825278 0 0 0 95 90 87 255 
-2.570717 0.7125415 4.276993 0 0 0 129 119 110 255 
-0.9892423 0.9958974 3.009577 0 0 0 169 109 143 255 
-0.7654384 2.531273 2.837302 0 0 0 110 96 83 255 
-0.4109697 3.498051 1.857417 0 0 0 151 139 125 255 
0.8297634 0.9556134 4.343298 0 0 0 123 114 109 255 
1.543833 3.137703 2.39838 0 0 0 165 158 152 255 
-0.4623254 3.312632 2.052913 0 0 0 114 101 92 255 
-0.9606599 1.286666 3.247108 0 0 0 152 104 123 255 
-2.263875 -1.470198 5.922561 0 0 0 128 121 113 255 
1.20996 0.9003022 4.351665 0 0 0 144 130 117 255 
-0.4162616 1.659212 3.598533 0 0 0 211 160 177 255 
1.345027 2.403835 2.862726 0 0 0 128 119 114 255 
1.557373 1.817901 3.50138 0 0 0 138 130 127 255 
-0.4295576 1.078509 2.916263 0 0 0 102 46 62 255 
-1.172842 3.880753 1.138391 0 0 0 180 170 161 255 
-0.4503244 1.416782 3.304723 0 0 0 208 138 172 255 
-1.815035 -0.3850457 5.013604 0 0 0 142 133 128 255 
0.8369941 3.494387 1.986624 0 0 0 143 134 127 255 
-0.126258 3.425903 1.926835 0 0 0 145 138 127 255 
-1.085874 2.643248 2.659824 0 0 0 145 135 126 255 
-0.1674202 3.408304 1.934524 0 0 0 147 137 125 255 
0.4795874 2.578933 2.862276 0 0 0 158 150 140 255 
-0.3000676 3.299922 2.116349 0 0 0 150 138 126 255 
-0.7498092 0.3944587 3.082397 0 0 0 216 126 169 255 
-1.354042 2.661235 2.641062 0 0 0 105 95 85 255 
-0.18979 3.292568 2.121628 0 0 0 123 113 104 255 
-2.196222 -0.6108198 5.211799 0 0 0 98 89 79 255 
-0.6822841 2.825743 2.318171 0 0 0 120 106 97 255 
-0.8509234 0.06570115 2.760212 0 0 0 124 36 74 255 
-0.09295743 2.596288 2.681326 0 0 0 120 117 110 255 
-1.026438 2.653896 2.564344 0 0 0 183 180 173 255 
-1.027164 1.211002 3.355154 0 0 0 127 123 111 255 
1.592566 0.9984645 4.118923 0 0 0 171 167 168 255 
-1.346626 2.635166 2.674186 0 0 0 115 105 96 255 
-0.333032 2.616674 2.611556 0 0 0 117 116 114 255 
-0.8352659 0.8404101 2.64301 0 0 0 97 99 96 255 
-0.9284361 1.989544 3.920419 0 0 0 123 120 133 255 
0.1897132 3.413253 1.785822 0 0 0 84 84 84 255 
-0.4265138 1.429684 3.316961 0 0 0 134 68 104 255 
0.3286794 -0.584071 5.736348 0 0 0 147 141 140 255 
-1.427224 3.876948 1.34044 0 0 0 148 135 116 255 
1.13278 0.9684288 4.339551 0 0 0 156 152 149 255 
2.64909 1.574079 3.700965 0 0 0 108 98 88 255 
1.184027 1.072781 4.120871 0 0 0 163 155 152 255 
-0.3537062 0.1096923 1.847341 0 0 0 77 45 63 255 
0.7137133 3.914962 1.574834 0 0 0 86 81 75 255 
-0.3836463 0.08651806 1.816646 0 0 0 133 79 104 255 
-0.4100741 3.526618 1.810492 0 0 0 189 189 187 255 
-1.694165 -0.8292871 5.644601 0 0 0 161 154 146 255 
-0.3814757 0.9810843 2.803983 0 0 0 189 132 143 255 
0.6368873 2.370232 3.065837 0 0 0 156 149 141 255 
1.115354 3.785366 1.716077 0 0 0 152 151 147 255 
-2.598217 2.139146 2.980841 0 0 0 118 106 92 255 
1.874513 1.38428 4.0084 0 0 0 134 130 129 255 
-0.5309942 2.638835 2.541357 0 0 0 146 139 133 255 
-2.02789 1.787494 3.471506 0 0 0 118 110 99 255 
1.807481 1.092124 4.125476 0 0 0 133 124 115 255 
-2.730908 0.9946972 4.104208 0 0 0 163 159 148 255 
-0.5285467 -0.0730497 1.711927 0 0 0 151 169 173 255 
-0.9795207 0.7031625 2.700986 0 0 0 134 70 97 255 
-3.114207 1.882613 2.976235 0 0 0 77 69 66 255 
-0.3350713 0.06783425 1.808078 0 0 0 77 34 52 255 
0.9305679 2.503071 2.844263 0 0 0 156 148 141 255 
1.104535 0.1177028 5.025815 0 0 0 138 125 109 255 
-0.3812413 0.07849937 1.834751 0 0 0 133 79 104 255 
0.8059804 3.867773 1.637487 0 0 0 102 97 93 255 
0.1453379 -0.9332594 5.675663 0 0 0 124 125 127 255 
-0.1745843 -0.003580458 2.263244 0 0 0 134 132 133 255 
-0.9572475 0.3586734 2.312268 0 0 0 173 122 155 255 
-0.1121298 2.703166 2.575314 0 0 0 161 153 146 255 
-2.425512 -0.585606 5.164041 0 0 0 158 155 150 255 
-1.024797 1.767759 3.853203 0 0 0 100 50 61 255 
0.3079987 2.719435 2.70303 0 0 0 121 112 105 255 
-0.9057313 -0.1370778 1.74013 0 0 0 65 30 54 255 
1.375754 -0.2406173 5.389287 0 0 0 149 141 139 255 
1.384595 0.3158034 4.783976 0 0 0 163 158 154 255 
-0.9757838 0.6902793 2.68697 0 0 0 167 111 146 255 
-1.518311 3.74428 1.455891 0 0 0 123 110 102 255 
-1.620977 1.238979 4.123121 0 0 0 157 150 142 255 
-0.7921463 -0.07915798 2.567533 0 0 0 200 117 145 255 
0.4712441 2.750554 2.736856 0 0 0 149 144 138 255 
-2.99017 1.408129 3.632208 0 0 0 147 143 131 255 
-0.2444738 0.8348219 3.208412 0 0 0 179 193 201 255 
-2.41044 -0.5437544 5.217502 0 0 0 149 136 120 255 
0.4837965 2.719593 2.774787 0 0 0 139 132 128 255 
0.5024253 0.3563983 4.692826 0 0 0 138 132 128 255 
-0.1075694 0.6055994 4.697933 0 0 0 115 109 109 255 
-1.273311 0.08050331 4.791119 0 0 0 176 169 163 255 
-2.1671 1.001783 4.044296 0 0 0 150 141 132 255 
0.4717058 2.684229 2.782815 0 0 0 169 162 156 255 
-0.8907437 0.4541261 2.380734 0 0 0 167 94 147 255 
-0.4367751 1.234186 3.082085 0 0 0 201 133 158 255 
-0.4211537 1.477172 3.380063 0 0 0 102 35 78 255 
1.116539 2.236457 3.043982 0 0 0 124 116 113 255 
0.7495484 1.382859 4.043022 0 0 0 88 83 80 255 
1.479102 1.814844 3.576181 0 0 0 165 160 155 255 
-1.148352 1.423351 4.276251 0 0 0 115 111 108 255 
-1.761032 1.918859 3.539269 0 0 0 147 143 140 255 
1.625749 1.547391 3.810206 0 0 0 87 81 83 255 
1.742413 1.700001 3.521005 0 0 0 157 146 144 255 
0.4908676 1.735236 3.753468 0 0 0 160 153 147 255 
0.2919237 0.2890266 4.98023 0 0 0 76 71 65 255 
-0.2884664 2.533553 2.70928 0 0 0 162 158 157 255 
0.6128762 2.737431 2.754496 0 0 0 136 131 128 255 
0.4801002 2.68166 2.788265 0 0 0 81 76 72 255 
-0.9425775 0.7418198 3.474277 0 0 0 133 124 107 255 
-1.923281 1.784613 3.597437 0 0 0 139 129 120 255 
0.07214422 3.06776 2.37695 0 0 0 113 109 108 255 
-2.160943 -0.6348189 5.331665 0 0 0 82 72 63 255 
1.228359 2.004209 3.391389 0 0 0 127 119 116 255 
-2.119308 2.99575 2.138007 0 0 0 106 96 87 255 
1.301171 2.053616 3.21966 0 0 0 168 163 159 255 
0.2429837 2.263166 3.057944 0 0 0 118 117 115 255 
-0.8888203 -0.01673865 1.81754 0 0 0 179 114 159 255 
-0.425637 1.031055 2.861822 0 0 0 111 46 68 255 
1.078796 2.500001 2.76897 0 0 0 99 91 88 255 
0.6354681 3.497063 1.799036 0 0 0 154 145 138 255 
-0.1504277 0.1772445 4.920158 0 0 0 162 148 135 255 
-2.708305 2.404806 2.533799 0 0 0 160 154 138 255 
-0.4356696 1.662545 3.572824 0 0 0 185 130 161 255 
-0.2698568 -0.1460927 2.403231 0 0 0 206 129 169 255 
0.6631038 2.713973 2.823951 0 0 0 144 136 133 255 
-0.587179 3.638151 1.659797 0 0 0 153 140 131 255 
1.106912 2.728991 2.562955 0 0 0 122 114 111 255 
-2.562582 0.6544883 4.303016 0 0 0 161 154 144 255 
-0.6580714 2.748251 2.385137 0 0 0 117 106 100 255 
-0.4187234 0.5430841 2.293452 0 0 0 145 68 100 255 
-0.675867 2.77945 2.355073 0 0 0 126 116 107 255 
-3.427655 0.4409919 4.399119 0 0 0 168 156 141 255 
-0.692213 3.718632 1.499847 0 0 0 159 145 134 255 
-1.582736 2.805034 2.472691 0 0 0 119 107 93 255 
-0.3718288 0.3676872 2.130125 0 0 0 118 87 109 255 
-0.6821423 2.825773 2.317861 0 0 0 120 106 97 255 
-0.8969948 -0.1943623 1.704637 0 0 0 191 122 167 255 
1.161316 2.099775 3.254134 0 0 0 174 169 165 255 
0.774196 3.047329 2.223377 0 0 0 106 98 95 255 
0.6096789 2.761346 2.711262 0 0 0 112 104 102 255 
-1.033996 1.214851 3.367358 0 0 0 157 161 142 255 
-1.055106 3.732213 1.557139 0 0 0 118 105 96 255 
-1.176231 2.984596 2.065986 0 0 0 123 114 105 255 
0.7452282 2.918402 2.335037 0 0 0 144 137 131 255 
-1.37317 3.088805 1.939806 0 0 0 161 149 137 255 
-0.7577037 3.709426 1.779161 0 0 0 155 146 131 255 
-0.9543247 1.17357 3.128069 0 0 0 155 82 128 255 
-0.1013117 3.242292 2.188658 0 0 0 110 101 96 255 
0.8788427 3.243809 2.058557 0 0 0 129 116 108 255 
-0.8929456 3.271583 1.896719 0 0 0 166 162 151 255 
-0.4768496 3.282179 2.072064 0 0 0 117 107 97 255 
-0.4573686 1.619001 3.495998 0 0 0 193 134 162 255 
-1.877114 -0.3093571 5.041997 0 0 0 156 149 143 255 
1.546501 1.061754 4.091712 0 0 0 136 128 129 255 
-0.2405867 3.347501 2.065102 0 0 0 160 148 134 255 
-0.7546491 3.663892 1.676954 0 0 0 155 146 131 255 
-1.196984 2.484447 2.877292 0 0 0 162 154 143 255 
0.5884585 1.299685 4.113955 0 0 0 102 92 90 255 
-0.3867328 3.484609 1.893976 0 0 0 139 125 116 255 
-1.712463 -0.9285596 5.753771 0 0 0 132 128 125 255 
-0.2075863 3.108695 2.278542 0 0 0 153 150 145 255 
1.93598 1.496543 3.685001 0 0 0 178 171 165 255 
-0.8597195 0.443291 2.183434 0 0 0 162 105 150 255 
-1.136974 3.546002 1.758738 0 0 0 113 97 84 255 
-0.9441404 1.311027 4.10031 0 0 0 167 86 118 255 
0.2120509 3.655022 1.566596 0 0 0 108 101 96 255 
-0.8045933 -0.1944795 2.448358 0 0 0 130 86 103 255 
-0.4218699 1.35558 3.239009 0 0 0 130 65 101 255 
0.1968813 2.855285 2.584198 0 0 0 113 104 97 255 
-2.275235 0.1604005 4.670996 0 0 0 143 138 132 255 
-0.373989 0.09842493 1.836153 0 0 0 186 115 155 255 
-1.709287 -3.147389 7.596444 0 0 0 166 163 156 255 
-1.980293 0.8179675 4.251685 0 0 0 144 136 125 255 
-0.8946009 -0.04782349 1.805238 0 0 0 127 65 112 255 
-2.527817 -0.2347736 4.790468 0 0 0 160 153 145 255 
0.06575616 3.028201 2.413228 0 0 0 115 110 107 255 
-1.96485 2.178497 2.828548 0 0 0 127 120 114 255 
-0.9153103 0.3166056 2.194352 0 0 0 78 41 61 255 
1.012169 0.9802258 4.316866 0 0 0 164 162 163 255 
1.130099 2.852474 2.456759 0 0 0 146 139 133 255 
-0.2140076 -0.01696994 1.918967 0 0 0 188 189 184 255 
-1.339551 -1.150102 5.827636 0 0 0 131 123 110 255 
-1.055972 3.73225 1.559713 0 0 0 118 105 96 255 
-1.372909 2.729693 2.548673 0 0 0 130 131 133 255 
-0.4067509 0.7479665 2.504616 0 0 0 173 136 130 255 
0.8817424 2.410099 3.025182 0 0 0 157 152 148 255 
-0.3620993 0.1459223 1.891802 0 0 0 175 111 135 255 
0.8290509 1.511592 3.870888 0 0 0 175 167 164 255 
-1.945663 2.064067 3.327245 0 0 0 110 110 110 255 
-0.4237486 0.2174202 1.843404 0 0 0 99 80 85 255 
1.547764 1.039542 4.135075 0 0 0 140 131 132 255 
-0.947395 0.170593 2.105695 0 0 0 169 123 152 255 
-0.9546256 1.405727 3.368194 0 0 0 127 71 103 255 
-0.948761 0.2363119 2.137037 0 0 0 183 121 160 255 
-0.4218507 0.8739618 2.671097 0 0 0 188 118 144 255 
-0.4856876 1.558622 3.403057 0 0 0 153 124 142 255 
1.320951 3.112631 2.321022 0 0 0 140 130 121 255 
0.4230268 3.022863 2.441371 0 0 0 172 163 156 255 
-0.9750726 1.33326 3.326203 0 0 0 121 60 78 255 
-0.9464446 0.3264136 2.128445 0 0 0 163 118 149 255 
-0.4606369 1.866908 3.775399 0 0 0 98 37 71 255 
-1.543772 -0.8722527 5.583796 0 0 0 138 128 119 255 
-0.3822272 0.4265337 2.125266 0 0 0 100 52 76 255 
0.7365283 2.631808 2.850496 0 0 0 155 145 143 255 
0.4125346 -0.7334017 5.823273 0 0 0 120 116 115 255 
0.04447338 3.541952 1.622998 0 0 0 107 98 91 255 
-0.09563029 3.33963 2.071225 0 0 0 153 144 135 255 
-1.49645 0.006049071 4.955513 0 0 0 122 108 97 255 
-1.936532 2.057927 3.396747 0 0 0 93 89 88 255 
-0.769035 3.124671 2.053437 0 0 0 159 149 139 255 
2.200784 0.2076348 5.072766 0 0 0 118 110 108 255 
-1.084718 1.612624 3.874051 0 0 0 98 100 99 255 
-0.5647143 3.098929 2.145868 0 0 0 132 118 109 255 
0.7276192 3.975322 1.540636 0 0 0 103 94 85 255 
-0.1978898 3.131367 2.269116 0 0 0 111 102 95 255 
-0.3202989 3.101629 2.218345 0 0 0 126 112 100 255 
1.315688 0.7094696 4.531807 0 0 0 99 91 89 255 
0.7515646 3.069751 2.189164 0 0 0 112 103 98 255 
-0.89257 1.272966 3.148473 0 0 0 163 166 167 255 
-0.1721903 3.084073 2.303084 0 0 0 118 113 109 255 
1.215004 2.02153 3.371499 0 0 0 167 159 156 255 
-0.2337859 2.096725 4.060795 0 0 0 219 155 192 255 
-2.063462 2.954247 2.202555 0 0 0 101 91 82 255 
0.8778761 1.672533 3.639314 0 0 0 128 124 124 255 
-0.9560636 0.5474929 2.509617 0 0 0 151 66 107 255 
0.8909817 3.049851 2.217603 0 0 0 142 133 128 255 
0.3802282 3.014206 2.422655 0 0 0 132 121 115 255 
-0.7631438 0.3072184 2.039469 0 0 0 193 221 225 255 
1.050178 2.969831 2.332735 0 0 0 139 136 131 255 
-0.9405901 1.113062 3.032166 0 0 0 233 151 199 255 
0.6401275 2.953285 2.327128 0 0 0 137 124 115 255 
-0.9889997 1.22286 3.241395 0 0 0 222 162 200 255 
0.3326323 2.972728 2.498957 0 0 0 146 135 129 255 
1.325238 2.413591 2.855981 0 0 0 140 130 128 255 
-0.9256395 0.499127 2.401963 0 0 0 134 78 110 255 
-1.761953 2.835861 2.393054 0 0 0 138 125 116 255 
-0.2744054 0.2273331 4.876476 0 0 0 63 53 43 255 
-1.384495 2.811755 2.423468 0 0 0 137 128 119 255 
-2.272861 0.8965256 4.1679 0 0 0 154 147 141 255 
-0.9566461 1.233317 4.327213 0 0 0 129 129 129 255 
0.6730615 2.858281 2.506729 0 0 0 144 131 122 255 
0.5860591 2.857068 2.605097 0 0 0 145 138 132 255 
-0.9103883 0.9934978 2.880828 0 0 0 167 113 162 255 
-1.522829 2.754841 2.534799 0 0 0 112 99 89 255 
-0.3906284 -0.9673262 1.716276 0 0 0 187 186 181 255 
-0.3913858 0.6466835 2.413412 0 0 0 192 151 150 255 
0.6023882 2.813059 2.675701 0 0 0 105 102 95 255 
-0.4679981 2.701302 2.493485 0 0 0 123 113 104 255 
-0.8863031 -0.3242545 5.229199 0 0 0 125 115 106 255 
0.7539124 2.624703 2.868011 0 0 0 102 91 87 255 
-1.053041 1.45798 3.520445 0 0 0 91 89 91 255 
-0.8809611 -0.05458058 1.78852 0 0 0 225 143 192 255 
-1.491847 2.616154 2.648749 0 0 0 141 133 122 255 
-1.565482 -0.2677805 5.042094 0 0 0 169 164 155 255 
-0.9532759 0.589717 2.562788 0 0 0 198 111 146 255 
-0.407121 1.503375 3.430309 0 0 0 212 144 191 255 
1.319657 2.613889 2.705241 0 0 0 117 108 103 255 
0.8378522 2.474833 2.966726 0 0 0 117 106 104 255 
-0.6675007 1.472376 3.252249 0 0 0 185 196 200 255 
-1.828955 3.959742 1.0408 0 0 0 108 101 96 255 
-0.3999151 0.3127068 4.538805 0 0 0 177 173 172 255 
0.6062572 -0.1736006 5.26533 0 0 0 128 127 123 255 
-1.481505 3.872407 1.342824 0 0 0 183 172 154 255 
-3.51277 -0.2606847 4.935414 0 0 0 156 149 139 255 
-1.031498 1.472944 4.144578 0 0 0 102 102 100 255 
0.09546699 3.579379 1.599767 0 0 0 103 93 87 255 
