ply
format ascii 1.0
comment Created by CloudCompare v2.11 alpha (Anoia)
comment Created 2025/12/9 20:40
obj_info Generated by CloudCompare!
element vertex 1463
property float x
property float y
property float z
property float scalar_Scalar_field
end_header
0.459812 0.0221802 0.00435949 21 
0.458596 0.0222767 0.00578448 16 
0.45711 0.022395 0.00731349 18 
0.457015 0.0224006 0.00827049 15 
0.457586 0.0223523 0.00895648 22 
0.459496 0.0221954 0.00910348 19 
0.459625 0.0221829 0.00997248 19 
0.461044 0.0220658 0.0103265 20 
0.457266 0.0223699 0.0127465 19 
0.457672 0.0223349 0.0134995 20 
0.461941 0.0219868 0.0127375 21 
0.458041 0.0223008 0.0151815 18 
0.461244 0.0220391 0.0148495 25 
0.457305 0.0223564 0.0172895 22 
0.457767 0.0223169 0.0180215 20 
0.459565 0.0221691 0.0182435 21 
0.458861 0.022224 0.0194235 29 
0.460164 0.0221164 0.0198405 22 
0.460408 0.0220945 0.0206605 23 
0.45948 0.0221677 0.0219185 26 
0.459558 0.0221593 0.0227995 22 
0.459914 0.0221284 0.0235755 27 
0.463081 0.0218694 0.0233175 22 
0.460797 0.0220526 0.0250675 24 
0.462223 0.0219349 0.0254565 22 
0.462077 0.0219447 0.0264205 23 
0.460811 0.0220453 0.0277855 26 
0.461339 0.0220005 0.0285025 25 
0.463276 0.0218412 0.0287195 32 
0.46268 0.0218875 0.0298395 26 
0.460074 0.022097 0.0316655 25 
0.461048 0.0220159 0.0322255 27 
0.461297 0.0219936 0.0330415 26 
0.458987 0.022179 0.0347435 27 
0.459568 0.0221298 0.0354405 28 
0.463965 0.021771 0.0348345 27 
0.465752 0.0216238 0.0351325 31 
0.465722 0.0216242 0.0360505 28 
0.462751 0.0218633 0.0379575 30 
0.462555 0.0218772 0.0389235 29 
0.463428 0.0218043 0.0395335 29 
0.46077 0.0220181 0.0413115 24 
0.461302 0.0219729 0.0420325 30 
0.461723 0.0219366 0.0427905 31 
0.465415 0.0216348 0.0424885 30 
0.463636 0.0217772 0.0439635 31 
0.466559 0.0215378 0.0439255 32 
0.460903 0.0219952 0.0466285 34 
0.461939 0.021909 0.0471915 32 
0.461804 0.0219179 0.0481255 30 
0.462061 0.021895 0.0489365 36 
0.462767 0.0218357 0.0496095 31 
0.464318 0.0217076 0.0500225 35 
0.461774 0.0219123 0.0516955 30 
0.462536 0.0218484 0.0523525 33 
0.46179 0.021907 0.0534675 39 
0.46127 0.0219472 0.0545105 36 
0.46103 0.0219648 0.0554675 39 
0.460845 0.0219777 0.0564065 37 
0.461883 0.0218914 0.0569845 37 
0.459981 0.022044 0.0584255 40 
0.460517 0.0219984 0.0591495 38 
0.460225 0.0220202 0.0601145 38 
0.460928 0.021961 0.0607925 37 
0.458655 0.0221438 0.0623195 34 
0.460843 0.0219639 0.0625755 41 
0.459835 0.0220439 0.0637375 49 
0.458013 0.0221901 0.0651215 43 
0.457782 0.0222069 0.0660575 41 
0.458535 0.0221437 0.0667205 46 
0.456943 0.0222712 0.0680265 48 
0.457639 0.0222126 0.0687065 44 
0.456489 0.0223042 0.0698845 46 
0.45713 0.0222501 0.0705785 53 
0.456038 0.022337 0.0717345 53 
0.455759 0.0223576 0.0726715 42 
0.45489 0.0224264 0.0737615 46 
0.453438 0.0225426 0.0749975 44 
0.452315 0.022632 0.0761435 50 
0.452628 0.0226046 0.0769175 47 
0.452092 0.0226463 0.0779075 48 
0.451453 0.0226964 0.0789205 56 
0.450869 0.022742 0.0799165 57 
0.45034 0.0227831 0.0808965 56 
0.450547 0.0227643 0.0816935 55 
0.45002 0.0228053 0.0826685 53 
0.450701 0.0227479 0.0833495 52 
0.448607 0.0229164 0.0846985 56 
0.448555 0.0229188 0.0855525 60 
0.44731 0.0230182 0.0866875 57 
0.446795 0.0230583 0.0876455 66 
0.446281 0.0230982 0.0886015 62 
0.445923 0.0231255 0.0895195 59 
0.446131 0.0231066 0.0903057 60 
0.444956 0.0232005 0.0914055 69 
0.445317 0.0231691 0.0921554 74 
0.444504 0.0232335 0.0931674 65 
0.444153 0.0232602 0.0940741 67 
0.443853 0.0232827 0.0949675 70 
0.442845 0.0233629 0.0960127 69 
0.442549 0.0233852 0.0969008 70 
0.441951 0.023432 0.0978513 71 
0.440955 0.0235113 0.0988832 80 
0.441314 0.0234802 0.0996275 75 
0.441323 0.0234777 0.100445 74 
0.441031 0.0234996 0.101324 79 
0.440791 0.0235173 0.102191 76 
0.440152 0.0235675 0.103137 76 
0.440462 0.0235404 0.10389 75 
0.440773 0.0235132 0.104645 79 
0.440335 0.023547 0.105546 82 
0.440797 0.0235076 0.106271 82 
0.44046 0.0235332 0.10715 85 
0.439975 0.0235709 0.108056 86 
0.440138 0.0235558 0.108838 84 
0.439953 0.023569 0.109685 92 
0.440366 0.0235335 0.11042 97 
0.440481 0.0235223 0.111211 90 
0.43975 0.02358 0.112155 95 
0.440263 0.0235363 0.112873 96 
0.439981 0.0235575 0.113733 93 
0.440098 0.0235462 0.114522 96 
0.440066 0.0235469 0.115337 95 
0.439687 0.023576 0.116211 99 
0.439408 0.0235969 0.117065 101 
0.439427 0.0235935 0.117869 99 
0.439794 0.0235618 0.118615 99 
0.439516 0.0235826 0.119467 102 
0.440033 0.0235387 0.120189 104 
0.43936 0.0235917 0.121103 109 
0.43953 0.023576 0.121881 104 
0.43975 0.0235562 0.122651 108 
0.439377 0.0235849 0.123514 110 
0.439697 0.023557 0.124269 106 
0.439176 0.0235976 0.125151 103 
0.438855 0.023622 0.126001 111 
0.439028 0.0236061 0.126777 105 
0.439497 0.023566 0.127511 110 
0.439671 0.0235499 0.128289 105 
0.439648 0.02355 0.129094 103 
0.439181 0.0235864 0.129961 103 
0.439751 0.023538 0.130683 114 
0.439829 0.0235299 0.131474 113 
0.439906 0.0235217 0.132265 108 
0.440083 0.0235054 0.133043 113 
0.440361 0.023481 0.133808 120 
0.440291 0.0234848 0.134618 118 
0.440024 0.0235048 0.135452 120 
0.440154 0.0234924 0.136236 117 
0.439987 0.0235042 0.137056 118 
0.441111 0.0234107 0.137721 128 
0.440051 0.0234954 0.138647 117 
0.440828 0.0234301 0.139356 125 
0.440167 0.0234823 0.140231 123 
0.440052 0.0234898 0.141043 118 
0.440483 0.0234529 0.141793 119 
0.440468 0.0234522 0.142594 122 
0.440058 0.0234839 0.143436 120 
0.440045 0.0234832 0.144235 121 
0.439982 0.0234865 0.145038 120 
0.440564 0.0234372 0.145776 119 
0.440404 0.0234485 0.146589 122 
0.440739 0.0234193 0.147353 121 
0.440927 0.0234021 0.148133 125 
0.440718 0.0234174 0.14895 125 
0.440658 0.0234205 0.149752 122 
0.439858 0.0234841 0.150621 120 
0.440145 0.0234588 0.151391 122 
0.440484 0.0234293 0.152157 122 
0.440427 0.0234322 0.152957 121 
0.440568 0.0234188 0.153741 125 
0.441803 0.0233161 0.154436 124 
0.440853 0.023392 0.155309 130 
0.440946 0.0233825 0.156097 128 
0.440991 0.023377 0.156889 127 
0.440689 0.0233999 0.157707 127 
0.441828 0.023305 0.15842 131 
0.441775 0.0233076 0.15922 133 
0.440927 0.0233751 0.160074 130 
0.441272 0.023345 0.160846 132 
0.44137 0.0233353 0.161635 134 
0.442265 0.0232603 0.162374 135 
0.441915 0.023287 0.163192 133 
0.442514 0.0232363 0.163953 137 
0.442764 0.023214 0.164735 137 
0.442815 0.023208 0.16553 138 
0.442616 0.0232225 0.166337 139 
0.443019 0.0231878 0.167113 133 
0.443222 0.0231693 0.167901 136 
0.443576 0.0231386 0.168681 139 
0.44363 0.0231323 0.169477 141 
0.443333 0.0231548 0.170288 141 
0.442887 0.0231895 0.171104 140 
0.443143 0.0231668 0.17189 144 
0.442799 0.0231931 0.1727 139 
0.443206 0.023158 0.173482 137 
0.443113 0.0231638 0.174282 141 
0.443772 0.023108 0.175057 142 
0.443931 0.0230932 0.17585 139 
0.444392 0.0230536 0.176634 140 
0.44405 0.0230799 0.177442 137 
0.445219 0.0229823 0.178211 143 
0.444271 0.0230581 0.179033 135 
0.445443 0.0229604 0.179806 133 
0.445404 0.0229617 0.180608 134 
0.446177 0.0228967 0.181394 141 
0.445126 0.0229809 0.182213 137 
0.445899 0.0229158 0.183002 139 
0.446014 0.0229045 0.183801 145 
0.446283 0.0228807 0.1846 146 
0.446247 0.0228818 0.185402 144 
0.445857 0.022912 0.186206 146 
0.446076 0.0228922 0.187006 146 
0.447008 0.022814 0.187805 144 
0.446263 0.0228733 0.188609 144 
0.446281 0.02287 0.189411 141 
0.446808 0.0228249 0.190214 142 
0.44872 0.0226664 0.191025 147 
0.448432 0.0226882 0.19183 144 
0.447736 0.0227435 0.19263 137 
0.44694 0.0228069 0.193426 135 
0.448393 0.0226859 0.194247 134 
0.448211 0.0226991 0.19505 134 
0.45019 0.022535 0.195887 137 
0.449182 0.0226158 0.196678 134 
0.448795 0.0226457 0.197478 135 
0.449334 0.0225996 0.198297 139 
0.449102 0.0226168 0.199099 138 
0.449386 0.0225918 0.199914 136 
0.450653 0.022486 0.200756 141 
0.451044 0.0224521 0.201578 143 
0.45102 0.0224522 0.202388 140 
0.451049 0.022448 0.2032 141 
0.451442 0.0224139 0.204025 138 
0.451889 0.0223754 0.204854 138 
0.451607 0.0223967 0.205656 138 
0.451951 0.0223667 0.206483 139 
0.452088 0.0223536 0.207302 139 
0.454377 0.022164 0.208216 139 
0.452415 0.0223231 0.208945 142 
0.453602 0.0222238 0.209816 146 
0.454533 0.0221456 0.210679 141 
0.453883 0.0221971 0.211465 139 
0.455028 0.0221013 0.212343 141 
0.455117 0.0220921 0.213168 141 
0.454943 0.0221045 0.213979 141 
0.455458 0.0220604 0.214829 139 
0.456241 0.0219943 0.215698 138 
0.456441 0.0219761 0.216533 140 
0.456641 0.0219578 0.21737 140 
0.457752 0.0218647 0.218267 140 
0.45833 0.0218153 0.219133 141 
0.457836 0.021854 0.219926 143 
0.458309 0.0218133 0.220786 140 
0.45803 0.0218343 0.221594 138 
0.458613 0.0217847 0.222465 141 
0.458066 0.0218276 0.223252 139 
0.458865 0.0217601 0.224143 141 
0.458212 0.0218119 0.22492 135 
0.45977 0.0216821 0.225878 137 
0.459927 0.0216673 0.226723 134 
0.460953 0.0215811 0.227644 136 
0.460188 0.0216421 0.228411 136 
0.460564 0.0216094 0.229279 135 
0.460397 0.0216211 0.230098 138 
0.461102 0.0215614 0.230998 137 
0.461427 0.0215328 0.231865 140 
0.461699 0.0215085 0.232728 140 
0.461971 0.0214842 0.233593 139 
0.461479 0.0215228 0.234381 138 
0.462081 0.0214714 0.235281 135 
0.462521 0.0214334 0.236166 141 
0.461865 0.0214854 0.236936 139 
0.463185 0.021375 0.237919 143 
0.461597 0.0215036 0.238584 142 
0.462258 0.0214474 0.239498 141 
0.463031 0.0213819 0.240427 139 
0.4609 0.0215552 0.241022 150 
0.462053 0.0214585 0.241997 145 
0.461457 0.0215056 0.242766 146 
0.461573 0.0214942 0.243621 151 
0.461581 0.0214917 0.244463 149 
0.460933 0.021543 0.245223 149 
0.460233 0.0215986 0.245974 150 
0.459699 0.0216407 0.246744 154 
0.459491 0.0216559 0.247555 157 
0.459122 0.0216843 0.248345 154 
0.459838 0.0216236 0.24928 155 
0.458765 0.0217099 0.249973 149 
0.458993 0.0216892 0.250843 153 
0.458843 0.0216996 0.251661 155 
0.458532 0.0217234 0.252456 150 
0.458113 0.0217559 0.253234 148 
0.45732 0.0218193 0.253957 142 
0.457119 0.0218339 0.254764 141 
0.457672 0.0217865 0.255685 141 
0.457634 0.0217877 0.256518 143 
0.45765 0.0217845 0.25736 142 
0.4567 0.0218608 0.258051 142 
0.456556 0.0218707 0.258866 144 
0.458351 0.0217211 0.259992 141 
0.458208 0.021731 0.260811 148 
0.458011 0.0217453 0.261621 141 
0.457384 0.021795 0.262359 141 
0.457943 0.021747 0.263294 138 
0.457749 0.0217612 0.264105 142 
0.457878 0.0217486 0.26497 139 
0.457739 0.0217582 0.26579 139 
0.457546 0.0217722 0.2666 138 
0.456171 0.0218835 0.2672 135 
0.456248 0.0218752 0.268056 134 
0.457725 0.0217516 0.269165 140 
0.456834 0.0218231 0.269848 134 
0.456161 0.0218766 0.270569 135 
0.456241 0.0218682 0.271427 135 
0.455784 0.0219038 0.272186 136 
0.455918 0.0218909 0.273055 133 
0.457291 0.0217759 0.274163 133 
0.456995 0.0217983 0.274954 129 
0.45611 0.0218694 0.275628 135 
0.455817 0.0218916 0.276416 131 
0.4573 0.0217675 0.277559 131 
0.45518 0.0219402 0.277981 135 
0.455425 0.0219181 0.278877 131 
0.455349 0.0219224 0.279709 141 
0.454899 0.0219576 0.280463 132 
0.454557 0.0219839 0.281238 136 
0.454643 0.0219749 0.282103 138 
0.455051 0.0219394 0.283038 130 
0.45391 0.0220315 0.283641 134 
0.454851 0.021952 0.284693 132 
0.454619 0.0219692 0.285492 134 
0.453587 0.0220523 0.286114 134 
0.452932 0.0221044 0.286816 133 
0.452755 0.0221171 0.287624 129 
0.452685 0.0221209 0.288456 128 
0.452563 0.0221291 0.289276 132 
0.452335 0.022146 0.290071 132 
0.451843 0.0221846 0.290807 135 
0.451512 0.02221 0.291577 128 
0.451391 0.022218 0.292397 128 
0.450692 0.0222737 0.293079 128 
0.451258 0.0222251 0.294062 128 
0.450403 0.0222938 0.294704 128 
0.450495 0.0222842 0.295575 129 
0.449853 0.0223353 0.296266 124 
0.449369 0.0223733 0.296995 127 
0.44983 0.0223334 0.297958 119 
0.449609 0.0223497 0.298752 119 
0.449127 0.0223875 0.299479 118 
0.449326 0.0223691 0.300379 118 
0.448898 0.0224025 0.30112 120 
0.448784 0.02241 0.301939 117 
0.448671 0.0224174 0.302761 112 
0.448089 0.0224636 0.303458 116 
0.448446 0.0224321 0.304404 113 
0.449172 0.0223703 0.305449 119 
0.448903 0.0223906 0.306231 120 
0.447747 0.0224841 0.306771 115 
0.447325 0.022517 0.307507 114 
0.448833 0.0223906 0.308775 123 
0.448357 0.0224279 0.309498 122 
0.447361 0.0225082 0.310075 126 
0.447774 0.0224722 0.311045 120 
0.448974 0.0223712 0.312241 117 
0.44897 0.0223695 0.313098 119 
0.448339 0.0224197 0.313776 119 
0.447866 0.0224569 0.314498 120 
0.447394 0.0224939 0.315218 120 
0.447444 0.0224878 0.316092 119 
0.447182 0.0225075 0.316874 118 
0.447965 0.0224409 0.317964 115 
0.44786 0.0224476 0.318795 116 
0.44786 0.0224456 0.319656 116 
0.44828 0.022409 0.320645 115 
0.448806 0.0223635 0.321669 119 
0.447601 0.0224611 0.322166 115 
0.44776 0.0224461 0.323078 110 
0.44771 0.0224482 0.323927 111 
0.447294 0.0224807 0.324663 108 
0.44735 0.0224741 0.325546 108 
0.447877 0.0224286 0.326579 112 
0.447409 0.0224653 0.327298 111 
0.447676 0.0224413 0.328252 112 
0.447209 0.0224779 0.32897 112 
0.447266 0.0224712 0.329856 108 
0.447639 0.0224384 0.330848 106 
0.44817 0.0223925 0.331894 109 
0.447651 0.0224334 0.332595 110 
0.447868 0.0224135 0.33354 108 
0.447928 0.0224066 0.334433 104 
0.447778 0.022417 0.335258 107 
0.448313 0.0223708 0.336314 108 
0.448005 0.0223943 0.337086 104 
0.448278 0.0223697 0.338057 103 
0.448499 0.0223495 0.339011 106 
0.449197 0.0222898 0.340133 104 
0.449101 0.0222957 0.34098 102 
0.450388 0.0221872 0.342315 103 
0.448541 0.022338 0.342549 99 
0.448605 0.0223307 0.343453 89 
0.448829 0.0223102 0.344417 88 
0.449426 0.0222588 0.345516 89 
0.449705 0.0222337 0.346503 85 
0.448497 0.0223317 0.346953 87 
0.450266 0.0221832 0.348484 88 
0.4498 0.0222198 0.349205 90 
0.45067 0.0221458 0.350417 83 
0.449616 0.0222309 0.35092 78 
0.450059 0.0221923 0.351976 78 
0.450075 0.0221889 0.352876 72 
0.450734 0.0221323 0.354018 76 
0.451935 0.0220309 0.35537 81 
0.450179 0.0221743 0.355602 76 
0.450089 0.0221796 0.356463 77 
0.450375 0.0221539 0.357471 76 
0.450823 0.0221148 0.358544 84 
0.451273 0.0220755 0.35962 85 
0.451454 0.0220585 0.360594 87 
0.45029 0.0221528 0.361041 83 
0.45074 0.0221135 0.36212 82 
0.451569 0.0220428 0.363355 81 
0.452023 0.0220031 0.364442 76 
0.452696 0.0219453 0.36562 72 
0.452501 0.0219594 0.366452 73 
0.452469 0.02196 0.367352 71 
0.451949 0.022001 0.368051 77 
0.452298 0.02197 0.369107 68 
0.452703 0.0219344 0.370185 70 
0.45289 0.0219168 0.371178 71 
0.452534 0.0219443 0.371946 71 
0.454034 0.0218179 0.37349 73 
0.45417 0.0218045 0.374469 74 
0.454031 0.0218139 0.375331 68 
0.454938 0.0217366 0.376639 69 
0.45596 0.0216498 0.378 60 
0.455601 0.0216775 0.378773 65 
0.455519 0.0216822 0.379666 60 
0.455881 0.0216501 0.380753 64 
0.455578 0.0216731 0.381552 69 
0.456551 0.0215903 0.382907 66 
0.455416 0.0216823 0.383343 65 
0.456057 0.021627 0.384558 65 
0.457874 0.0214742 0.386299 63 
0.45612 0.0216176 0.386458 61 
0.456207 0.0216082 0.387433 130 
0.45624 0.0216034 0.388386 55 
0.458062 0.0214501 0.390148 60 
0.457087 0.0215288 0.390649 63 
0.452361 0.0263343 -0.0212785 10 
0.448881 0.0265861 -0.0186865 12 
0.397996 0.030297 0.00628348 9 
0.450467 0.0264661 -0.0175745 13 
0.449498 0.0265348 -0.0161895 11 
0.452557 0.0263094 -0.0166895 13 
0.447575 0.0266709 -0.0134405 12 
0.449902 0.026499 -0.0135945 17 
0.447326 0.0266849 -0.0114825 10 
0.449001 0.0265605 -0.0113305 12 
0.45342 0.0262358 -0.0124235 12 
0.456139 0.0260352 -0.0127285 16 
0.45136 0.0263821 -0.00963151 11 
0.450881 0.026415 -0.00849152 11 
0.450783 0.02642 -0.00752552 12 
0.45281 0.0262699 -0.00750752 14 
0.449185 0.0265326 -0.00497351 15 
0.454204 0.0261639 -0.00627352 14 
0.452789 0.0262652 -0.00472551 14 
0.457217 0.0259396 -0.00574052 17 
0.458963 0.02581 -0.00557052 17 
0.457406 0.0259216 -0.00396252 17 
0.453713 0.0261893 -0.00144051 15 
0.453836 0.0261783 -0.000572517 14 
0.455059 0.0260868 -0.000174521 20 
0.459919 0.0257295 -0.00131951 15 
0.457802 0.0258822 0.00050749 14 
0.45422 0.0261419 0.00294048 21 
0.459901 0.0257246 0.00147848 20 
0.454523 0.0261155 0.00464748 20 
0.455584 0.0260359 0.00512448 16 
0.455599 0.0260328 0.00603548 21 
0.454734 0.0260939 0.00730749 26 
0.456625 0.0259536 0.00744948 13 
0.457917 0.0258571 0.00784148 19 
0.458993 0.0257763 0.00832549 17 
0.459513 0.0257362 0.00903648 17 
0.462121 0.0255434 0.00891249 24 
0.458484 0.0258073 0.0112865 18 
0.45789 0.0258487 0.0124385 21 
0.456799 0.0259264 0.0137835 25 
0.459374 0.0257359 0.0136855 19 
0.460794 0.02563 0.0140475 18 
0.4607 0.0256348 0.0150025 25 
0.45765 0.0258559 0.0170975 24 
0.460121 0.025673 0.0170585 18 
0.460533 0.0256408 0.0178155 25 
0.458209 0.0258088 0.0196135 21 
0.460237 0.0256583 0.0197555 26 
0.459866 0.0256834 0.0208075 24 
0.461007 0.0255978 0.0212915 25 
0.459797 0.0256843 0.0226535 23 
0.462345 0.0254958 0.0226205 19 
0.461072 0.0255869 0.0240015 25 
0.46132 0.0255667 0.0248215 26 
0.465365 0.0252685 0.0242585 24 
0.46204 0.0255098 0.0263795 25 
0.464498 0.0253278 0.0264045 31 
0.46333 0.0254113 0.0277365 29 
0.463977 0.0253618 0.0284165 29 
0.463718 0.0253787 0.0294195 26 
0.461095 0.0255688 0.0312525 25 
0.462525 0.025462 0.0316565 29 
0.462269 0.0254787 0.0326515 25 
0.463876 0.0253589 0.0330005 26 
0.464583 0.0253051 0.0336645 29 
0.465977 0.0252009 0.0340955 28 
0.462321 0.0254667 0.0362485 29 
0.461004 0.0255611 0.0375955 31 
0.461816 0.0254996 0.0382215 30 
0.464949 0.025268 0.0380745 30 
0.46407 0.0253304 0.0392715 25 
0.4641 0.0253262 0.0401635 31 
0.465548 0.025218 0.0405905 30 
0.461462 0.0255155 0.0428265 24 
0.463231 0.0253837 0.0431485 31 
0.464958 0.0252551 0.0434905 34 
0.463971 0.0253254 0.0447065 33 
0.462316 0.0254447 0.0461315 32 
0.462293 0.0254444 0.0470325 24 
0.463055 0.0253865 0.0476865 30 
0.461856 0.0254724 0.0489545 32 
0.466291 0.0251452 0.0484705 31 
0.463045 0.0253812 0.0503695 32 
0.466416 0.0251319 0.0502295 34 
0.463227 0.0253637 0.0520965 35 
0.464897 0.0252392 0.0524835 36 
0.464312 0.0252801 0.0535525 38 
0.463112 0.0253662 0.0548025 39 
0.462198 0.0254312 0.0559615 36 
0.463243 0.0253525 0.0565405 38 
0.462609 0.025397 0.0576125 43 
0.461811 0.0254536 0.0587305 43 
0.46224 0.0254201 0.0594905 36 
0.461222 0.0254928 0.0606655 39 
0.46355 0.0253199 0.0608835 40 
0.460859 0.0255155 0.0625285 38 
0.460624 0.0255308 0.0634745 43 
0.458902 0.0256552 0.0648315 43 
0.461483 0.0254637 0.0649915 45 
0.460418 0.0255399 0.0661625 40 
0.459524 0.0256035 0.0672815 45 
0.457215 0.0257711 0.0687795 45 
0.457423 0.0257539 0.0695925 46 
0.458122 0.0257006 0.0702735 49 
0.456372 0.0258271 0.0716055 46 
0.456147 0.0258417 0.0725295 46 
0.455653 0.0258761 0.0735225 52 
0.455591 0.0258786 0.0743995 45 
0.455315 0.025897 0.0753325 42 
0.452899 0.0260725 0.0768095 50 
0.453801 0.0260043 0.0774355 54 
0.452889 0.0260694 0.0785205 57 
0.453257 0.0260404 0.0792825 58 
0.452296 0.0261091 0.0803745 60 
0.451499 0.0261657 0.0814215 54 
0.45192 0.0261329 0.0821685 58 
0.450703 0.0262204 0.0833115 54 
0.450597 0.0262263 0.0841835 58 
0.45165 0.0261469 0.0847795 57 
0.449756 0.0262842 0.0860735 57 
0.448087 0.026405 0.0873065 61 
0.448244 0.0263916 0.0881095 58 
0.447467 0.0264468 0.0891275 65 
0.447677 0.0264295 0.0899171 73 
0.447472 0.0264426 0.0908004 69 
0.447165 0.0264633 0.0917054 66 
0.445675 0.026571 0.0928717 65 
0.445834 0.0265574 0.0936684 70 
0.44461 0.0266455 0.0947672 74 
0.44431 0.0266657 0.0956608 79 
0.444469 0.0266522 0.0964542 77 
0.443967 0.0266873 0.0973885 72 
0.444636 0.0266361 0.0980732 65 
0.443322 0.026731 0.0991745 75 
0.444245 0.0266612 0.0998072 75 
0.442681 0.0267744 0.100953 76 
0.441582 0.0268534 0.101997 74 
0.441693 0.0268434 0.102794 78 
0.442156 0.0268074 0.103521 79 
0.440962 0.0268935 0.104575 79 
0.441525 0.0268502 0.105282 80 
0.441788 0.026829 0.106048 83 
0.441249 0.0268668 0.106968 83 
0.441262 0.026864 0.107781 91 
0.440725 0.0269017 0.108697 94 
0.440939 0.0268841 0.109471 97 
0.440653 0.0269033 0.110338 87 
0.440668 0.0269003 0.111148 94 
0.440484 0.026912 0.111993 104 
0.44075 0.0268906 0.112757 101 
0.440318 0.0269206 0.113645 100 
0.440634 0.0268955 0.1144 101 
0.440651 0.0268924 0.115208 101 
0.440819 0.0268782 0.115989 105 
0.440439 0.0269044 0.116864 104 
0.440507 0.0268975 0.117661 102 
0.440079 0.0269272 0.118541 105 
0.44 0.0269312 0.119361 108 
0.44012 0.0269206 0.120149 105 
0.44024 0.0269099 0.120937 115 
0.440361 0.0268991 0.121724 111 
0.440284 0.026903 0.122543 107 
0.440008 0.0269215 0.123392 108 
0.439932 0.0269253 0.124208 107 
0.439807 0.0269327 0.125032 104 
0.440178 0.0269035 0.125781 103 
0.439855 0.0269255 0.126633 102 
0.439534 0.0269474 0.127483 104 
0.440254 0.0268925 0.128182 107 
0.441326 0.0268116 0.128835 111 
0.440754 0.0268519 0.12972 114 
0.440085 0.0268994 0.130615 113 
0.44056 0.0268626 0.131353 112 
0.440539 0.0268624 0.132159 113 
0.440418 0.0268694 0.132977 114 
0.440249 0.0268801 0.133801 120 
0.440627 0.0268504 0.134554 119 
0.440359 0.0268684 0.13539 122 
0.439993 0.0268936 0.136236 119 
0.439826 0.0269041 0.137056 123 
0.440006 0.026889 0.137834 122 
0.43994 0.0268921 0.138641 122 
0.440121 0.0268769 0.139419 127 
0.440055 0.0268799 0.140226 122 
0.440238 0.0268646 0.141004 123 
0.440173 0.0268676 0.14181 122 
0.440904 0.0268119 0.142529 116 
0.441238 0.0267854 0.143292 126 
0.440727 0.0268213 0.144146 121 
0.440664 0.0268242 0.144951 123 
0.441099 0.0267903 0.145705 125 
0.441236 0.0267783 0.14649 123 
0.440876 0.0268031 0.147324 122 
0.441512 0.0267543 0.148061 122 
0.440855 0.026801 0.148922 123 
0.441542 0.0267485 0.149656 124 
0.441134 0.0267768 0.150492 125 
0.441623 0.0267389 0.151246 124 
0.441615 0.0267377 0.152045 129 
0.441259 0.0267622 0.152873 123 
0.441102 0.0267719 0.153683 123 
0.441195 0.0267633 0.154472 128 
0.440891 0.026784 0.155293 126 
0.441482 0.0267385 0.156043 129 
0.441378 0.0267444 0.156848 128 
0.442121 0.0266877 0.15759 132 
0.441071 0.0267635 0.158463 131 
0.441067 0.0267619 0.159258 134 
0.441313 0.0267419 0.160037 129 
0.44146 0.0267293 0.160823 130 
0.441857 0.0266982 0.161593 127 
0.443006 0.0266115 0.162318 130 
0.442905 0.0266171 0.163123 132 
0.442754 0.0266264 0.163929 137 
0.442755 0.0266246 0.164727 133 
0.443006 0.0266042 0.165511 136 
0.442807 0.0266171 0.166319 135 
0.443411 0.0265707 0.167085 135 
0.443013 0.0265983 0.167903 133 
0.443568 0.0265555 0.168674 134 
0.44317 0.0265831 0.169491 134 
0.443526 0.026555 0.170273 134 
0.44338 0.026564 0.171077 137 
0.445099 0.026435 0.171806 136 
0.443793 0.0265298 0.172656 137 
0.4439 0.02652 0.173451 137 
0.444361 0.0264842 0.174233 135 
0.44543 0.0264033 0.174998 136 
0.443572 0.0265389 0.175856 143 
0.444891 0.0264396 0.176615 136 
0.444951 0.0264333 0.177414 137 
0.444859 0.0264383 0.178216 140 
0.444769 0.0264431 0.179018 134 
0.444831 0.0264368 0.179816 136 
0.445449 0.0263892 0.180604 131 
0.445817 0.0263602 0.181398 134 
0.445931 0.0263499 0.182197 135 
0.445792 0.0263583 0.183001 136 
0.446773 0.026284 0.18379 138 
0.446228 0.0263225 0.184599 141 
0.447416 0.0262328 0.185391 139 
0.447841 0.0261995 0.186192 145 
0.447601 0.0262154 0.186998 140 
0.447977 0.0261857 0.187802 141 
0.448149 0.0261712 0.188607 139 
0.448218 0.0261642 0.189412 143 
0.448083 0.0261724 0.190218 136 
0.448103 0.0261691 0.191023 134 
0.44838 0.0261468 0.191831 131 
0.448298 0.0261511 0.192636 133 
0.448782 0.0261134 0.193447 135 
0.449267 0.0260756 0.194259 136 
0.44929 0.0260721 0.195067 133 
0.449313 0.0260686 0.195876 133 
0.449285 0.0260688 0.196683 133 
0.449723 0.0260346 0.197499 133 
0.449851 0.0260232 0.198311 137 
0.451122 0.0259272 0.199149 139 
0.451461 0.0259003 0.199969 140 
0.450915 0.0259389 0.200767 138 
0.451151 0.0259196 0.201585 136 
0.452432 0.0258228 0.202436 135 
0.451833 0.0258653 0.203231 132 
0.451654 0.0258767 0.204038 134 
0.451998 0.0258495 0.204863 135 
0.451976 0.0258492 0.205676 135 
0.45395 0.0257011 0.206569 136 
0.454035 0.0256929 0.20739 136 
0.452229 0.0258249 0.208129 138 
0.453364 0.0257389 0.208995 136 
0.453767 0.0257072 0.209831 137 
0.454488 0.0256519 0.210684 141 
0.454682 0.0256357 0.211513 143 
0.454771 0.0256272 0.212337 138 
0.455338 0.0255833 0.213188 136 
0.455376 0.0255787 0.214012 137 
0.456692 0.0254792 0.21491 136 
0.457481 0.0254188 0.215782 138 
0.45736 0.0254259 0.2166 138 
0.457669 0.0254011 0.217445 142 
0.458032 0.0253723 0.218295 140 
0.457484 0.0254111 0.219085 138 
0.458494 0.0253343 0.219982 135 
0.458591 0.0253252 0.220817 139 
0.458797 0.025308 0.221661 139 
0.45922 0.0252748 0.222522 137 
0.460567 0.0251729 0.223456 136 
0.460723 0.0251595 0.224302 138 
0.46028 0.0251904 0.225099 135 
0.460927 0.0251406 0.225986 136 
0.461193 0.0251189 0.226843 134 
0.461899 0.0250646 0.227739 137 
0.461839 0.0250671 0.22857 138 
0.462274 0.025033 0.229446 134 
0.463205 0.024962 0.230369 136 
0.461884 0.0250581 0.231085 138 
0.462156 0.025036 0.231949 138 
0.462704 0.0249935 0.232841 143 
0.462428 0.025012 0.233653 150 
0.462209 0.0250264 0.23447 151 
0.462209 0.0250245 0.235309 146 
0.461772 0.0250551 0.236102 143 
0.462048 0.0250327 0.236971 138 
0.462764 0.0249776 0.237889 141 
0.462438 0.025 0.238694 139 
0.464041 0.0248789 0.239715 139 
0.463548 0.0249137 0.240503 143 
0.461518 0.0250626 0.241111 143 
0.462072 0.0250195 0.242016 143 
0.46362 0.0249025 0.243044 145 
0.462855 0.0249575 0.243795 149 
0.461928 0.0250245 0.244524 154 
0.461552 0.0250505 0.245319 153 
0.461232 0.0250724 0.24612 153 
0.461844 0.025025 0.247041 158 
0.461415 0.025055 0.247828 152 
0.46159 0.0250401 0.248693 151 
0.46018 0.025143 0.249346 147 
0.458888 0.0252372 0.25001 148 
0.458467 0.0252666 0.25079 143 
0.458317 0.0252758 0.251608 143 
0.4586 0.0252528 0.252487 142 
0.458289 0.0252741 0.253281 138 
0.458087 0.0252872 0.254091 137 
0.458264 0.0252721 0.254956 141 
0.458117 0.0252812 0.255774 140 
0.45862 0.0252418 0.256691 141 
0.458312 0.0252629 0.257484 141 
0.458329 0.0252597 0.258328 140 
0.458185 0.0252685 0.259147 145 
0.458149 0.0252693 0.259983 140 
0.457897 0.0252861 0.260784 142 
0.457809 0.0252908 0.261612 142 
0.458207 0.0252592 0.26252 142 
0.458066 0.0252679 0.26334 140 
0.458033 0.0252684 0.264178 139 
0.45773 0.025289 0.26497 138 
0.457915 0.0252734 0.265846 141 
0.460112 0.0251079 0.267074 142 
0.459482 0.0251529 0.267812 142 
0.458256 0.0252422 0.268442 139 
0.458444 0.0252263 0.269322 139 
0.458144 0.0252468 0.270115 138 
0.458007 0.025255 0.270937 138 
0.457925 0.0252592 0.271769 136 
0.458277 0.025231 0.272683 137 
0.458034 0.0252472 0.273486 137 
0.458116 0.0252392 0.27435 137 
0.457657 0.0252714 0.275111 132 
0.457524 0.0252794 0.275934 133 
0.458042 0.025239 0.276886 135 
0.457909 0.0252469 0.27771 133 
0.457724 0.0252588 0.278524 132 
0.457972 0.0252384 0.279426 135 
0.456166 0.025371 0.279907 131 
0.4569 0.0253144 0.280908 128 
0.455962 0.0253824 0.281563 127 
0.456642 0.0253298 0.282557 127 
0.456298 0.0253535 0.283335 131 
0.456009 0.0253731 0.284125 130 
0.455291 0.0254247 0.284821 130 
0.455649 0.0253961 0.28575 132 
0.45504 0.0254395 0.286467 131 
0.454862 0.0254509 0.287279 130 
0.455274 0.0254183 0.288223 127 
0.454935 0.0254416 0.288999 132 
0.454223 0.0254928 0.28969 129 
0.454047 0.0255039 0.2905 132 
0.454889 0.0254392 0.291548 130 
0.454606 0.0254584 0.292336 131 
0.45395 0.0255054 0.293036 130 
0.454686 0.0254486 0.294064 127 
0.453602 0.0255274 0.294661 131 
0.453163 0.0255583 0.295408 127 
0.452034 0.0256406 0.295988 125 
0.452394 0.0256118 0.296927 129 
0.452382 0.0256107 0.297778 123 
0.452371 0.0256096 0.298631 123 
0.452149 0.0256243 0.299428 121 
0.451767 0.0256508 0.300186 120 
0.451069 0.025701 0.300864 117 
0.451484 0.0256681 0.301824 120 
0.45121 0.0256866 0.302608 120 
0.450093 0.025768 0.303172 119 
0.451247 0.0256799 0.304329 115 
0.450078 0.0257653 0.304877 118 
0.450334 0.0257442 0.3058 119 
0.449538 0.0258017 0.306442 120 
0.449795 0.0257806 0.307368 120 
0.449421 0.0258066 0.308122 120 
0.449415 0.025805 0.308977 124 
0.449674 0.0257838 0.309905 121 
0.450145 0.0257467 0.310894 120 
0.449719 0.0257766 0.311635 120 
0.449768 0.0257709 0.312508 122 
0.449502 0.0257889 0.313293 119 
0.449763 0.0257674 0.314229 121 
0.449234 0.025805 0.314938 119 
0.449865 0.0257559 0.315981 117 
0.4496 0.0257737 0.316767 119 
0.449547 0.0257758 0.317614 116 
0.449494 0.0257778 0.318464 117 
0.449758 0.0257561 0.319406 117 
0.449073 0.0258053 0.320066 114 
0.449021 0.0258072 0.320915 115 
0.449392 0.0257775 0.321894 116 
0.449711 0.0257517 0.322858 114 
0.449238 0.0257851 0.323581 110 
0.449663 0.0257514 0.324582 116 
0.449138 0.0257887 0.325287 114 
0.448772 0.025814 0.326041 117 
0.44941 0.0257644 0.327112 110 
0.448939 0.0257976 0.327834 115 
0.449314 0.0257676 0.328824 114 
0.449055 0.025785 0.329614 116 
0.450121 0.0257034 0.330833 112 
0.449543 0.0257446 0.33152 121 
0.449444 0.02575 0.332363 105 
0.44908 0.0257752 0.333118 114 
0.450096 0.0256973 0.33433 108 
0.448672 0.0258018 0.334734 116 
0.450006 0.0257 0.336058 108 
0.450068 0.0256934 0.33696 107 
0.449333 0.0257464 0.33759 104 
0.449608 0.0257238 0.338564 107 
0.450044 0.0256892 0.339595 104 
0.449948 0.0256944 0.340445 104 
0.450332 0.0256636 0.341462 102 
0.450718 0.0256328 0.342482 107 
0.45073 0.0256299 0.343374 95 
0.449941 0.0256869 0.343982 96 
0.450488 0.025644 0.345062 93 
0.450073 0.025673 0.345803 91 
0.44998 0.025678 0.346657 86 
0.450796 0.0256149 0.347842 86 
0.449527 0.0257078 0.348271 89 
0.450879 0.0256046 0.349656 94 
0.450894 0.0256015 0.350554 83 
0.451987 0.0255176 0.351854 82 
0.451625 0.0255427 0.352617 77 
0.451858 0.0255232 0.353601 70 
0.451336 0.0255603 0.354302 69 
0.451353 0.0255569 0.355207 75 
0.452127 0.025497 0.356401 76 
0.451066 0.0255744 0.356895 80 
0.451948 0.0255063 0.358135 78 
0.452021 0.0254988 0.359067 76 
0.45204 0.0254953 0.359978 72 
0.452169 0.0254836 0.360932 76 
0.452786 0.0254353 0.36208 75 
0.454226 0.0253254 0.363557 75 
0.452666 0.0254402 0.363849 76 
0.45285 0.0254243 0.364832 75 
0.454293 0.0253141 0.366322 67 
0.453659 0.0253596 0.36698 73 
0.453956 0.0253352 0.368014 68 
0.45387 0.0253396 0.368896 72 
0.455324 0.0252286 0.370406 66 
0.453864 0.0253359 0.370725 67 
0.454713 0.0252702 0.371994 72 
0.454959 0.0252497 0.373018 76 
0.456035 0.0251669 0.374388 72 
0.457229 0.0250753 0.375815 67 
0.456034 0.0251628 0.37624 65 
0.456896 0.0250961 0.377531 64 
0.456035 0.0251585 0.378094 60 
0.456119 0.0251501 0.379059 58 
0.457821 0.0250204 0.38072 59 
0.457907 0.0250118 0.381692 63 
0.456485 0.0251163 0.382009 60 
0.456349 0.0251245 0.382884 67 
0.457328 0.0250489 0.384246 66 
0.457136 0.0250612 0.3851 65 
0.458908 0.0249261 0.386821 60 
0.458885 0.0249257 0.387754 59 
0.457962 0.0249928 0.388283 131 
0.459687 0.0248612 0.39 60 
0.459043 0.0249074 0.390657 64 
0.459248 0.0248899 0.391695 68 
0.455333 0.0296259 -0.0227835 10 
0.181892 0.047421 0.106163 10 
0.451969 0.0298405 -0.0193045 12 
0.456184 0.0295641 -0.0203535 16 
0.457816 0.0294558 -0.0201745 13 
0.456978 0.0295082 -0.0188375 12 
0.453868 0.0297085 -0.0164495 14 
0.397604 0.0333692 0.0104645 11 
0.45627 0.0295479 -0.0156845 14 
0.449951 0.0299572 -0.0118505 14 
0.448233 0.0300669 -0.0101425 11 
0.448351 0.0300572 -0.00927551 16 
0.443734 0.0303558 -0.00627051 11 
0.449613 0.0299709 -0.00800452 9 
0.454985 0.0296189 -0.00948852 12 
0.448557 0.0300355 -0.00569452 16 
0.455337 0.0295918 -0.00778352 16 
0.451829 0.0298182 -0.00530551 10 
0.45792 0.0294192 -0.00706051 10 
0.458604 0.0293726 -0.00642651 12 
0.45538 0.0295805 -0.00408952 14 
0.455558 0.0295669 -0.00324051 19 
0.45618 0.0295242 -0.00258252 19 
0.457026 0.029467 -0.00201951 19 
0.453009 0.0297267 0.000622482 15 
0.454504 0.0296272 0.000905485 20 
0.453201 0.02971 0.00237548 22 
0.460329 0.0292433 0.000293479 20 
0.458878 0.0293357 0.00183149 16 
0.460129 0.0292521 0.00223649 15 
0.456508 0.0294861 0.00466548 20 
0.459313 0.0293011 0.00442848 18 
0.454388 0.0296202 0.00737548 15 
0.459174 0.029306 0.00633449 12 
0.458965 0.0293175 0.00734149 17 
0.460498 0.0292155 0.00764348 17 
0.462552 0.0290794 0.00774148 19 
0.468501 0.0286892 0.00628749 19 
0.46111 0.0291693 0.0101695 22 
0.458936 0.029309 0.0119535 17 
0.46273 0.0290594 0.0113755 20 
0.460092 0.0292295 0.0133335 21 
0.461574 0.0291306 0.0136735 21 
0.457561 0.0293905 0.0161505 22 
0.462516 0.029065 0.0151495 21 
0.460897 0.0291686 0.0166915 27 
0.459962 0.0292276 0.0179655 28 
0.464967 0.0288988 0.0169775 27 
0.46299 0.0290257 0.0186475 27 
0.460583 0.0291808 0.0204705 25 
0.462521 0.0290522 0.0206585 23 
0.462033 0.029082 0.0217555 27 
0.46245 0.0290527 0.0225155 25 
0.462642 0.0290381 0.0233595 22 
0.46289 0.0290198 0.0241815 24 
0.460603 0.0291672 0.0259275 27 
0.464869 0.0288864 0.0252925 23 
0.462224 0.0290571 0.0271585 25 
0.464402 0.0289128 0.0272895 31 
0.465167 0.0288607 0.0279305 29 
0.468239 0.0286579 0.0277585 28 
0.464589 0.0288944 0.0299615 28 
0.463648 0.0289538 0.0312015 30 
0.463051 0.0289908 0.0323175 27 
0.465007 0.0288609 0.0325485 25 
0.462596 0.0290165 0.0342875 25 
0.464207 0.0289091 0.0346405 30 
0.464291 0.0289015 0.0355195 29 
0.464887 0.0288605 0.0362245 31 
0.46344 0.0289531 0.0376165 29 
0.463978 0.0289158 0.0383395 25 
0.465713 0.0288004 0.0386675 28 
0.465628 0.0288039 0.0396015 29 
0.463614 0.0289335 0.0411675 30 
0.467405 0.0286836 0.0408325 34 
0.464071 0.0288996 0.0428195 29 
0.462917 0.028973 0.0440905 35 
0.465382 0.0288097 0.0441995 33 
0.466955 0.0287048 0.0446005 32 
0.465049 0.0288275 0.0461065 33 
0.464684 0.0288493 0.0471195 34 
0.465115 0.0288191 0.0478825 27 
0.465603 0.0287851 0.0486295 34 
0.465353 0.0287994 0.0496045 37 
0.464368 0.0288619 0.0508025 33 
0.465593 0.0287796 0.0513245 34 
0.464835 0.0288273 0.0524495 37 
0.466006 0.0287486 0.0529915 41 
0.464342 0.0288555 0.0543825 44 
0.465171 0.0287992 0.0550285 41 
0.464191 0.0288613 0.0562095 40 
0.465247 0.0287902 0.0567905 38 
0.465342 0.0287819 0.0576545 36 
0.464138 0.0288588 0.0588915 37 
0.463671 0.0288874 0.0599135 35 
0.464274 0.0288459 0.0606275 37 
0.462854 0.0289369 0.0619155 41 
0.461834 0.0290017 0.0630845 39 
0.461598 0.0290152 0.0640315 39 
0.461306 0.0290323 0.0649915 38 
0.461238 0.0290348 0.0658885 45 
0.461892 0.0289899 0.0665875 42 
0.46227 0.0289632 0.0673635 42 
0.459379 0.0291507 0.0690185 40 
0.459423 0.0291458 0.0698785 42 
0.458974 0.0291733 0.0708695 45 
0.458855 0.0291791 0.0717705 46 
0.457916 0.0292387 0.0728845 46 
0.456547 0.0293265 0.0741055 48 
0.457246 0.0292787 0.0747895 50 
0.456046 0.0293554 0.0759595 48 
0.457179 0.0292792 0.0765345 49 
0.454902 0.0294266 0.0779695 51 
0.454789 0.029432 0.0788555 54 
0.454356 0.0294585 0.0798195 54 
0.453282 0.029527 0.0809395 51 
0.452959 0.0295462 0.0818705 53 
0.452797 0.0295549 0.0827615 53 
0.451734 0.0296228 0.0838675 59 
0.451839 0.029614 0.0846915 63 
0.451944 0.0296051 0.0855145 63 
0.45015 0.0297209 0.0867815 62 
0.450046 0.0297259 0.0876495 61 
0.449052 0.0297892 0.0887205 63 
0.449734 0.0297425 0.0894065 69 
0.450577 0.0296853 0.090057 62 
0.449007 0.0297864 0.0912512 70 
0.448073 0.0298458 0.0922977 71 
0.447506 0.0298811 0.0932592 74 
0.448394 0.029821 0.0939004 72 
0.446947 0.0299141 0.0950498 77 
0.446386 0.0299491 0.0960032 75 
0.44665 0.0299299 0.0967785 72 
0.445422 0.0300086 0.0978684 80 
0.445789 0.0299826 0.0986204 81 
0.444824 0.0300441 0.0996489 79 
0.444475 0.0300652 0.100547 78 
0.444025 0.0300928 0.101463 72 
0.443222 0.0301437 0.102449 75 
0.443385 0.0301312 0.103238 80 
0.44299 0.0301553 0.104138 76 
0.44184 0.030229 0.105183 77 
0.443115 0.0301434 0.105755 80 
0.442773 0.030164 0.10664 85 
0.441827 0.0302243 0.107638 85 
0.442143 0.0302017 0.108396 83 
0.441152 0.030265 0.109397 94 
0.440966 0.0302754 0.110245 99 
0.441482 0.0302396 0.110965 96 
0.4419 0.0302103 0.111704 94 
0.441413 0.0302404 0.112605 103 
0.44153 0.0302309 0.113398 108 
0.441196 0.030251 0.114269 110 
0.441013 0.0302612 0.115113 111 
0.440981 0.0302615 0.11593 107 
0.441701 0.0302123 0.116619 111 
0.44152 0.0302224 0.117461 104 
0.440688 0.0302752 0.118409 105 
0.440808 0.0302655 0.119199 104 
0.440979 0.0302525 0.11998 110 
0.440451 0.0302854 0.120873 109 
0.440422 0.0302854 0.121685 103 
0.440494 0.0302789 0.122481 109 
0.440717 0.0302624 0.123254 110 
0.44069 0.0302624 0.124065 109 
0.440564 0.0302688 0.12489 108 
0.44009 0.0302982 0.125766 110 
0.440513 0.0302685 0.126509 113 
0.440289 0.0302815 0.127346 113 
0.440464 0.0302681 0.128126 112 
0.440839 0.0302416 0.128877 110 
0.441666 0.0301854 0.129567 114 
0.440694 0.0302475 0.130506 117 
0.440671 0.0302472 0.131313 114 
0.44065 0.0302468 0.132119 116 
0.44038 0.0302627 0.132958 111 
0.44031 0.0302656 0.133769 115 
0.441237 0.0302027 0.134453 123 
0.441667 0.0301725 0.135202 123 
0.441098 0.0302082 0.136076 121 
0.441379 0.0301879 0.136844 122 
0.441261 0.0301938 0.137661 124 
0.440845 0.0302194 0.138512 122 
0.441077 0.0302023 0.139286 122 
0.44151 0.030172 0.140038 123 
0.441344 0.0301811 0.140858 120 
0.44088 0.0302099 0.141711 124 
0.441165 0.0301893 0.14248 124 
0.4416 0.0301588 0.143234 127 
0.441336 0.0301744 0.144062 122 
0.441173 0.0301833 0.144879 122 
0.440961 0.0301955 0.1457 123 
0.441698 0.0301451 0.146426 126 
0.441387 0.0301638 0.147256 125 
0.441076 0.0301825 0.148085 123 
0.441465 0.030155 0.148847 123 
0.442656 0.0300747 0.149537 126 
0.441995 0.0301165 0.150397 124 
0.442086 0.0301087 0.151189 127 
0.442428 0.0300843 0.151959 126 
0.44202 0.0301094 0.152793 130 
0.441563 0.0301377 0.15363 127 
0.442356 0.0300836 0.154363 130 
0.44225 0.0300888 0.155171 125 
0.442444 0.0300742 0.155955 127 
0.441939 0.0301057 0.156792 122 
0.441885 0.0301075 0.157593 123 
0.442581 0.0300597 0.158341 129 
0.442828 0.0300416 0.159123 131 
0.443428 0.0300002 0.159881 128 
0.442673 0.0300483 0.160731 131 
0.443424 0.0299969 0.161481 131 
0.44292 0.0300283 0.162312 127 
0.442819 0.0300332 0.163116 133 
0.443372 0.0299949 0.163882 137 
0.443322 0.0299964 0.164684 138 
0.443574 0.0299779 0.165469 141 
0.443827 0.0299594 0.166255 135 
0.444536 0.0299108 0.167018 130 
0.443731 0.0299621 0.167859 133 
0.444491 0.0299101 0.168622 134 
0.445204 0.0298613 0.16939 135 
0.444095 0.0299327 0.17024 138 
0.443798 0.0299505 0.171052 138 
0.443854 0.029945 0.171848 138 
0.443709 0.0299528 0.172653 134 
0.443967 0.0299339 0.173442 138 
0.444075 0.029925 0.174237 141 
0.445347 0.0298391 0.174995 141 
0.445356 0.0298367 0.175796 135 
0.445415 0.029831 0.176595 139 
0.445323 0.0298353 0.177399 133 
0.445536 0.0298194 0.178194 132 
0.445801 0.0298001 0.17899 139 
0.445406 0.0298244 0.1798 137 
0.445773 0.0297983 0.180594 133 
0.445734 0.029799 0.181396 135 
0.446052 0.0297762 0.182193 136 
0.446984 0.0297128 0.182982 138 
0.447049 0.0297067 0.183785 136 
0.44732 0.029687 0.184586 137 
0.447386 0.0296807 0.18539 138 
0.448171 0.029627 0.186189 137 
0.448445 0.0296071 0.186994 139 
0.447795 0.0296483 0.187802 140 
0.448429 0.0296045 0.188606 144 
0.448756 0.029581 0.189413 142 
0.44893 0.0295677 0.190221 143 
0.449052 0.0295578 0.191028 138 
0.448815 0.0295717 0.191834 137 
0.448784 0.0295719 0.192641 137 
0.448857 0.0295652 0.193449 137 
0.449499 0.0295209 0.194264 135 
0.450974 0.0294215 0.195093 133 
0.451154 0.0294077 0.195907 134 
0.450605 0.0294422 0.196709 133 
0.451411 0.029387 0.197536 138 
0.451176 0.0294008 0.198343 135 
0.451671 0.0293662 0.199166 136 
0.451698 0.0293626 0.19998 136 
0.451568 0.0293693 0.200789 137 
0.45238 0.0293137 0.201625 132 
0.452199 0.0293238 0.202434 139 
0.452229 0.02932 0.203249 136 
0.45315 0.0292571 0.204095 134 
0.452079 0.0293263 0.204873 136 
0.453475 0.0292319 0.20574 134 
0.454352 0.029172 0.206592 138 
0.454649 0.0291505 0.207423 139 
0.454576 0.0291535 0.208239 137 
0.454769 0.0291388 0.209067 139 
0.45544 0.0290925 0.209918 142 
0.455795 0.0290672 0.210757 143 
0.457167 0.0289744 0.211649 143 
0.456668 0.0290056 0.212447 142 
0.45708 0.0289764 0.213293 142 
0.457762 0.0289293 0.214157 139 
0.457586 0.0289391 0.214973 140 
0.45811 0.0289026 0.21583 141 
0.457558 0.0289372 0.216623 140 
0.458083 0.0289006 0.217483 143 
0.458826 0.0288495 0.218359 139 
0.460332 0.0287478 0.21929 136 
0.46092 0.0287069 0.220163 137 
0.460419 0.0287382 0.22096 137 
0.461009 0.0286972 0.221836 138 
0.460292 0.0287429 0.222616 135 
0.461101 0.0286874 0.223511 134 
0.46164 0.0286497 0.224388 138 
0.461304 0.0286701 0.225196 139 
0.461571 0.0286505 0.226054 136 
0.461511 0.0286526 0.226884 132 
0.461889 0.0286256 0.227753 134 
0.462708 0.0285694 0.228662 135 
0.462759 0.0285641 0.229505 133 
0.462371 0.028588 0.230309 134 
0.461984 0.0286117 0.231111 135 
0.463303 0.0285223 0.232075 136 
0.461981 0.0286082 0.232787 140 
0.462365 0.0285808 0.233664 141 
0.46286 0.028546 0.234553 147 
0.463689 0.0284891 0.23548 145 
0.463469 0.0285018 0.236299 143 
0.464301 0.0284446 0.237231 143 
0.464138 0.0284536 0.238057 142 
0.463698 0.0284809 0.238852 145 
0.464145 0.0284493 0.239747 145 
0.463651 0.0284802 0.240535 144 
0.46349 0.0284889 0.24136 144 
0.462393 0.0285599 0.242075 148 
0.462069 0.0285795 0.242878 148 
0.461856 0.0285917 0.243695 150 
0.461809 0.028593 0.244531 146 
0.461817 0.0285905 0.245374 152 
0.461771 0.0285917 0.246211 160 
0.461286 0.028622 0.246991 153 
0.461351 0.0286158 0.247842 154 
0.461252 0.0286205 0.248672 151 
0.461044 0.0286324 0.249486 146 
0.460727 0.0286515 0.250286 145 
0.460357 0.0286742 0.251077 138 
0.459715 0.028715 0.251829 139 
0.459184 0.0287484 0.252595 139 
0.458926 0.0287636 0.253399 139 
0.460193 0.0286775 0.254425 139 
0.45999 0.0286891 0.255238 139 
0.458971 0.0287549 0.255929 140 
0.458662 0.0287736 0.256723 138 
0.458516 0.0287814 0.257543 137 
0.458804 0.0287603 0.25843 139 
0.458985 0.0287463 0.259301 141 
0.458786 0.0287577 0.260113 139 
0.459077 0.0287364 0.261003 135 
0.459369 0.0287151 0.261896 135 
0.459281 0.028719 0.262726 135 
0.458323 0.0287808 0.263412 138 
0.458562 0.028763 0.264297 133 
0.459891 0.0286727 0.265369 132 
0.460571 0.0286255 0.266335 134 
0.459174 0.0287166 0.266941 136 
0.459198 0.0287131 0.267793 138 
0.459495 0.0286914 0.268694 138 
0.45952 0.0286878 0.269548 136 
0.459382 0.028695 0.270372 136 
0.459354 0.028695 0.271217 130 
0.460092 0.028644 0.272205 129 
0.460394 0.0286219 0.273114 135 
0.459164 0.0287019 0.273733 134 
0.459247 0.0286944 0.274601 133 
0.459276 0.0286905 0.275459 132 
0.459908 0.0286466 0.276435 132 
0.458736 0.0287226 0.277057 130 
0.458985 0.0287041 0.27796 125 
0.458744 0.0287183 0.278765 125 
0.459158 0.0286888 0.279702 130 
0.45859 0.0287247 0.280441 132 
0.458569 0.0287242 0.281291 128 
0.458493 0.0287272 0.282129 128 
0.458691 0.0287121 0.283026 130 
0.458344 0.0287333 0.283808 130 
0.457944 0.0287581 0.284578 127 
0.458143 0.0287429 0.285477 126 
0.457744 0.0287675 0.286246 129 
0.458379 0.0287232 0.287243 126 
0.457926 0.0287515 0.288 129 
0.457366 0.0287869 0.288732 129 
0.45697 0.0288113 0.2895 127 
0.458041 0.028738 0.290601 127 
0.457047 0.0288023 0.291232 130 
0.456708 0.028823 0.292011 128 
0.456693 0.028822 0.292866 134 
0.456626 0.0288246 0.293709 129 
0.455693 0.0288848 0.294346 128 
0.456167 0.0288513 0.295319 132 
0.455938 0.0288646 0.296122 134 
0.455332 0.0289031 0.296834 129 
0.454353 0.0289665 0.297453 129 
0.455203 0.0289078 0.298521 131 
0.454761 0.0289353 0.29927 125 
0.454053 0.0289807 0.299953 124 
0.454204 0.0289686 0.300849 126 
0.453927 0.0289852 0.301639 124 
0.453222 0.0290303 0.302318 122 
0.453374 0.0290181 0.303216 122 
0.453528 0.029006 0.304116 123 
0.453467 0.0290081 0.30496 120 
0.453032 0.0290352 0.305707 119 
0.452224 0.0290871 0.306352 119 
0.451846 0.0291105 0.307112 124 
0.45168 0.0291195 0.307927 122 
0.451356 0.0291392 0.308699 119 
0.451351 0.0291376 0.309557 123 
0.450869 0.0291679 0.310286 123 
0.451716 0.0291094 0.311383 125 
0.452086 0.0290827 0.312349 120 
0.45187 0.0290952 0.313154 123 
0.45075 0.029168 0.3137 124 
0.450642 0.0291733 0.314532 124 
0.450853 0.0291572 0.315456 122 
0.450958 0.0291483 0.316352 122 
0.450851 0.0291535 0.317185 119 
0.450479 0.0291764 0.317943 118 
0.45133 0.0291175 0.319061 118 
0.451011 0.0291369 0.319833 123 
0.450906 0.0291419 0.320671 120 
0.450429 0.0291718 0.321395 118 
0.451016 0.0291306 0.322444 121 
0.451339 0.0291071 0.323413 121 
0.450543 0.0291584 0.324039 116 
0.450546 0.0291562 0.32491 116 
0.450762 0.0291397 0.325851 116 
0.450927 0.0291268 0.326775 116 
0.452323 0.0290315 0.328091 115 
0.450403 0.0291578 0.328357 114 
0.450782 0.0291305 0.329352 114 
0.451482 0.0290817 0.330453 113 
0.451328 0.02909 0.331282 117 
0.451175 0.0290983 0.33211 118 
0.451075 0.029103 0.332956 116 
0.451243 0.0290897 0.333891 113 
0.451359 0.02908 0.33481 110 
0.451635 0.0290595 0.335784 108 
0.451376 0.0290749 0.33658 107 
0.451654 0.0290543 0.337557 109 
0.451342 0.0290732 0.338335 105 
0.450977 0.0290956 0.339093 108 
0.451793 0.029039 0.340259 110 
0.452829 0.0289677 0.341504 103 
0.451654 0.0290442 0.341984 105 
0.452043 0.0290162 0.34301 100 
0.451894 0.0290242 0.343846 97 
0.452231 0.0289996 0.344856 94 
0.452352 0.0289895 0.345791 100 
0.452528 0.0289757 0.346745 92 
0.453138 0.0289328 0.34786 90 
0.452774 0.0289552 0.348623 94 
0.452248 0.0289884 0.349328 98 
0.451939 0.029007 0.350109 91 
0.452171 0.0289895 0.351091 79 
0.451647 0.0290225 0.351793 77 
0.452529 0.0289614 0.353018 80 
0.452763 0.0289437 0.354005 76 
0.453978 0.0288603 0.355365 76 
0.453342 0.0289008 0.356028 79 
0.454344 0.0288317 0.357312 78 
0.45338 0.0288942 0.35785 84 
0.453618 0.0288762 0.358847 86 
0.45331 0.0288948 0.359634 82 
0.453549 0.0288768 0.360633 84 
0.45297 0.0289135 0.361315 81 
0.453919 0.0288479 0.362595 77 
0.454433 0.0288113 0.363709 75 
0.455391 0.028745 0.365001 70 
0.455966 0.0287044 0.366147 78 
0.454941 0.028771 0.366653 75 
0.456401 0.0286711 0.368157 75 
0.455264 0.0287452 0.368616 71 
0.456617 0.0286524 0.370086 69 
0.455867 0.0287007 0.370701 74 
0.457337 0.0286 0.372227 67 
0.456029 0.0286856 0.372611 66 
0.456111 0.028678 0.37357 75 
0.457027 0.0286145 0.374876 72 
0.457613 0.028573 0.376049 66 
0.457977 0.0285465 0.377133 65 
0.458062 0.0285387 0.3781 64 
0.458204 0.0285271 0.379092 60 
0.45857 0.0285004 0.380183 60 
0.458432 0.0285076 0.381058 65 
0.458238 0.0285185 0.381911 58 
0.458157 0.0285218 0.382812 57 
0.459089 0.0284571 0.384155 66 
0.458613 0.0284869 0.384887 60 
0.459493 0.0284257 0.386214 60 
0.459187 0.0284442 0.387022 57 
0.458825 0.0284663 0.387803 59 
0.460161 0.0283745 0.389344 130 
0.459968 0.0283853 0.390205 63 
0.460344 0.0283579 0.391322 61 
0.459982 0.02838 0.392107 60 
0.452462 0.0332983 -0.0215145 12 
0.285587 0.0428403 0.0582045 11 
0.370201 0.0379989 0.0191595 9 
0.451874 0.0333255 -0.0184235 12 
0.454309 0.0331842 -0.0186295 13 
0.345088 0.0394305 0.0330915 12 
0.450419 0.0334024 -0.0149465 12 
0.453886 0.033202 -0.0156185 11 
0.45938 0.0328855 -0.0172115 12 
0.452908 0.0332537 -0.0133015 12 
0.451928 0.0333077 -0.0119235 12 
0.446904 0.0335932 -0.00871551 13 
0.453871 0.0331923 -0.0109445 17 
0.45532 0.0331072 -0.0106655 13 
0.458857 0.0329027 -0.0113155 11 
0.201879 0.0476166 0.102685 10 
0.458142 0.0329393 -0.00912052 14 
0.455692 0.0330775 -0.00710352 12 
0.462129 0.0327068 -0.00900051 11 
0.3343 0.0400262 0.0476275 11 
0.45401 0.0331675 -0.00358452 14 
0.453637 0.0331868 -0.00249952 15 
0.457028 0.0329905 -0.00303851 15 
0.455428 0.0330801 -0.00142352 11 
0.458059 0.0329272 -0.00162251 16 
0.462599 0.032665 -0.00262152 12 
0.460675 0.0327731 -0.000871508 17 
0.460178 0.0327995 0.000269488 15 
0.460644 0.0327707 0.00100549 20 
0.457063 0.0329738 0.00342749 18 
0.459204 0.032849 0.00346248 20 
0.460571 0.0327686 0.00382449 21 
0.459682 0.0328174 0.00511748 17 
0.46043 0.0327725 0.00573649 16 
0.462316 0.0326622 0.00589648 20 
0.464331 0.0325445 0.00601049 21 
0.45784 0.0329147 0.00955348 17 
0.460492 0.0327605 0.00941049 20 
0.458767 0.0328574 0.0110195 18 
0.461939 0.0326734 0.0106815 23 
0.463664 0.0325723 0.0109255 23 
0.460955 0.0327257 0.0129145 24 
0.459734 0.0327936 0.0143105 25 
0.463887 0.0325532 0.0136165 22 
0.462481 0.0326318 0.0150835 27 
0.463296 0.032583 0.0156915 24 
0.461161 0.0327035 0.0174285 25 
0.461689 0.0326711 0.0181445 25 
0.463753 0.0325505 0.0182825 25 
0.46004 0.0327616 0.0205975 28 
0.465855 0.0324257 0.0193365 26 
0.46877 0.0322562 0.0191755 27 
0.464405 0.0325047 0.0217175 23 
0.466089 0.0324059 0.0220165 24 
