0.378334,-0.332602,0.15679,118
0.379005,-0.333337,0.158099,121
0.378646,-0.332949,0.158926,120
0.377962,-0.332206,0.159596,118
0.377885,-0.332126,0.160554,115
0.377996,-0.33225,0.161603,119
0.377641,-0.331866,0.162427,122
0.377286,-0.331482,0.163251,120
0.377165,-0.331354,0.164187,121
0.376812,-0.330972,0.16501,122
0.377203,-0.331401,0.166201,121
0.376757,-0.330919,0.166976,121
0.37687,-0.331045,0.168031,118
0.375226,-0.329255,0.168198,113
0.375199,-0.32923,0.16918,108
0.374302,-0.328255,0.169717,118
0.373545,-0.327433,0.170321,110
0.37352,-0.327409,0.171301,110
0.373131,-0.326988,0.172092,107
0.372743,-0.326568,0.172882,101
0.372356,-0.326149,0.173671,98
0.372559,-0.326374,0.174772,99
0.372717,-0.32655,0.17585,100
0.372014,-0.325786,0.176469,100
0.3719,-0.325666,0.177403,95
0.371968,-0.325743,0.178435,89
0.370504,-0.324149,0.178633,87
0.369319,-0.32286,0.178976,86
0.370012,-0.323619,0.180348,80
0.369588,-0.32316,0.181106,74
0.368943,-0.32246,0.181739,75
0.368477,-0.321955,0.18247,81
0.369079,-0.322615,0.1838,77
0.367683,-0.321096,0.184004,80
0.367663,-0.321077,0.184983,87
0.367157,-0.320529,0.185685,91
0.366918,-0.320271,0.186538,89
0.36602,-0.319295,0.18701,99
0.36565,-0.318895,0.187785,101
0.365632,-0.318878,0.188762,90
0.364523,-0.317672,0.189102,91
0.364635,-0.317798,0.190155,83
0.365227,-0.318447,0.191495,73
0.363991,-0.317102,0.19175,73
0.364974,-0.318177,0.193327,67
0.365964,-0.319261,0.194916,72
0.365465,-0.31872,0.19561,67
0.364837,-0.318038,0.196224,66
0.365389,-0.318643,0.197557,70
0.365023,-0.318248,0.19833,68
0.366678,-0.320056,0.200349,60
0.365431,-0.318699,0.200578,58
0.366561,-0.319935,0.202284,54
0.366945,-0.320358,0.20353,60
0.366931,-0.320346,0.204529,59
0.367407,-0.320868,0.205838,54
0.368465,-0.322025,0.207521,55
0.367559,-0.321041,0.207958,58
0.368441,-0.322006,0.209537,59
0.369193,-0.32283,0.21104,57
0.368732,-0.322331,0.211761,56
0.368811,-0.32242,0.212833,56
0.370246,-0.323989,0.214793,54
0.370327,-0.324081,0.215873,48
0.370772,-0.32457,0.217196,129
0.371403,-0.325261,0.218645,51
0.372358,-0.326307,0.220316,52
0.37212,-0.326051,0.221194,52
0.156576,-0.088361,-0.0837722,12
0.374891,-0.321854,-0.233048,13
0.368424,-0.31494,-0.227535,11
0.374362,-0.321294,-0.230607,15
0.373799,-0.320696,-0.229186,12
0.364357,-0.310601,-0.221709,10
0.370413,-0.31708,-0.224822,12
0.372948,-0.319796,-0.225518,12
0.371756,-0.318524,-0.223688,11
0.375421,-0.322447,-0.225124,11
0.372653,-0.31949,-0.222245,15
0.374666,-0.321646,-0.222559,16
0.374106,-0.321051,-0.221162,11
0.377491,-0.324675,-0.222365,18
0.378283,-0.325525,-0.22185,15
0.378653,-0.325925,-0.221056,11
0.377049,-0.324213,-0.218979,13
0.378122,-0.325363,-0.218642,14
0.375921,-0.323013,-0.216195,17
0.378864,-0.326164,-0.217054,16
0.378011,-0.325256,-0.215479,14
0.37707,-0.324253,-0.213853,13
0.379085,-0.326411,-0.214099,11
0.381505,-0.329003,-0.214589,15
0.377526,-0.32475,-0.211066,17
0.370253,-0.316974,-0.205521,12
0.379447,-0.326812,-0.210209,18
0.379255,-0.32661,-0.209063,17
0.381102,-0.328589,-0.209169,14
0.378122,-0.325404,-0.206322,21
0.379862,-0.327269,-0.206357,18
0.380619,-0.328082,-0.205789,14
0.380001,-0.327424,-0.204391,15
0.379527,-0.326921,-0.203085,17
0.378633,-0.325968,-0.201532,17
0.382523,-0.330133,-0.202817,18
0.380424,-0.327891,-0.200553,19
0.382906,-0.330549,-0.200986,25
0.381613,-0.32917,-0.199205,25
0.382474,-0.330094,-0.198681,23
0.381853,-0.329433,-0.197299,20
0.382236,-0.329847,-0.196497,26
0.380904,-0.328425,-0.194715,21
0.382192,-0.329806,-0.194429,24
0.384503,-0.332281,-0.194715,22
0.38234,-0.329971,-0.192473,26
0.382486,-0.330131,-0.191536,23
0.383689,-0.331421,-0.191187,25
0.38403,-0.331789,-0.190355,23
0.383841,-0.33159,-0.18923,23
0.383796,-0.331546,-0.188186,25
0.385785,-0.333678,-0.18825,27
0.385449,-0.333322,-0.187044,23
0.384437,-0.332242,-0.185478,24
0.383432,-0.33117,-0.183922,25
0.384738,-0.332571,-0.183603,29
0.384793,-0.332633,-0.182615,32
0.385186,-0.333057,-0.181806,32
0.385921,-0.333847,-0.181174,32
0.386123,-0.334066,-0.180261,33
0.386422,-0.33439,-0.179399,33
0.385604,-0.333517,-0.17796,29
0.387563,-0.335617,-0.177948,28
0.38816,-0.33626,-0.177233,30
0.389254,-0.337434,-0.176766,29
0.386417,-0.334401,-0.174316,31
0.386427,-0.334415,-0.173307,29
0.387315,-0.335369,-0.172736,32
0.387375,-0.335436,-0.171751,30
0.386702,-0.33472,-0.170407,34
0.38686,-0.334892,-0.169472,33
0.389573,-0.337798,-0.169779,38
0.389931,-0.338185,-0.168934,34
0.388168,-0.336302,-0.16707,33
0.38774,-0.335847,-0.165854,32
0.389326,-0.337548,-0.165596,36
0.389142,-0.337354,-0.164495,34
0.391239,-0.339602,-0.164464,35
0.389863,-0.338132,-0.162806,33
0.390323,-0.338628,-0.162006,35
0.388857,-0.337063,-0.160318,36
0.38907,-0.337294,-0.159406,38
0.391265,-0.339647,-0.159394,30
0.388269,-0.336443,-0.157029,22
0.387846,-0.335994,-0.155835,18
1.44825,-1.47095,-0.629256,12
0.375278,-0.322549,-0.148273,14
0.386977,-0.335073,-0.152447,12
0.294459,-0.236051,-0.111174,13
0.305428,-0.247794,-0.11517,11
0.23951,-0.17724,-0.0862962,11
0.28655,-0.227592,-0.10562,14
0.302799,-0.244987,-0.111773,15
0.309728,-0.252407,-0.113929,13
0.320017,-0.263422,-0.117451,14
0.3367,-0.281283,-0.123573,15
0.326898,-0.270794,-0.118684,18
0.32344,-0.267095,-0.116449,17
0.320067,-0.263486,-0.114269,27
0.3181,-0.261384,-0.112676,29
0.31662,-0.259803,-0.111291,36
0.314734,-0.257786,-0.109753,51
0.314041,-0.257047,-0.108697,46
0.314251,-0.257275,-0.108,44
0.311927,-0.254788,-0.106316,45
0.310079,-0.252813,-0.10483,48
0.309412,-0.252101,-0.103807,49
0.309153,-0.251827,-0.102944,55
0.308635,-0.251275,-0.101986,56
0.307405,-0.249961,-0.100764,52
0.307379,-0.249936,-0.0999967,60
0.306416,-0.248907,-0.0988847,68
0.305602,-0.248037,-0.097833,71
0.305662,-0.248104,-0.0971041,74
0.305244,-0.24766,-0.0962034,76
0.304885,-0.247278,-0.0953262,72
0.304415,-0.246777,-0.0944124,79
0.303975,-0.246309,-0.0935123,78
0.303842,-0.246168,-0.092722,77
0.303958,-0.246295,-0.0920195,76
0.3033,-0.245593,-0.0910509,83
0.303527,-0.245838,-0.0903878,75
0.302761,-0.245021,-0.0893889,66
0.301947,-0.244151,-0.0883781,73
0.301763,-0.243957,-0.0875819,71
0.302015,-0.24423,-0.0869309,83
0.301695,-0.24389,-0.086092,88
0.301404,-0.24358,-0.0852646,83
0.301901,-0.244115,-0.0846925,91
0.301229,-0.243398,-0.0837461,90
0.301265,-0.243438,-0.0830268,94
0.300975,-0.243131,-0.0822063,96
0.301227,-0.243403,-0.0815556,93
0.301101,-0.24327,-0.0807877,90
0.301435,-0.24363,-0.080161,93
0.301173,-0.243352,-0.0793533,95
0.301101,-0.243278,-0.0786042,95
0.301111,-0.24329,-0.0778801,97
0.301229,-0.243419,-0.077188,90
0.30078,-0.242941,-0.0763311,101
0.301412,-0.24362,-0.0757878,102
0.301449,-0.243662,-0.0750723,105
0.30146,-0.243676,-0.0743493,100
0.301525,-0.243748,-0.0736419,100
0.301807,-0.244053,-0.0729946,94
0.301629,-0.243864,-0.0722199,100
0.302102,-0.244373,-0.0716233,98
0.302277,-0.244563,-0.0709444,105
0.302398,-0.244695,-0.0702506,104
0.302519,-0.244827,-0.0695565,106
0.302968,-0.245311,-0.0689475,110
0.303447,-0.245825,-0.0683439,105
0.303707,-0.246106,-0.0676824,108
0.304603,-0.247069,-0.0671799,110
0.304866,-0.247352,-0.0665152,110
0.30474,-0.24722,-0.0657539,110
0.304948,-0.247445,-0.0650747,109
0.305156,-0.247671,-0.0643948,108
0.305839,-0.248404,-0.063827,108
0.306273,-0.248871,-0.0631973,108
0.306821,-0.249461,-0.0625921,108
0.30692,-0.249569,-0.061881,107
0.308492,-0.251256,-0.0615042,107
0.307769,-0.250483,-0.0606043,107
0.308011,-0.250745,-0.0599225,107
0.308795,-0.251587,-0.0593583,105
0.308896,-0.251698,-0.0586427,111
0.309743,-0.252608,-0.0580858,110
0.310335,-0.253244,-0.0574709,108
0.311046,-0.254008,-0.0568779,109
0.311295,-0.254278,-0.0561865,109
0.311982,-0.255016,-0.0555826,110
0.312409,-0.255476,-0.0549234,111
0.313811,-0.256979,-0.0544541,108
0.313474,-0.256621,-0.0536398,106
0.31447,-0.25769,-0.0530828,104
0.314994,-0.258255,-0.0524318,108
0.315581,-0.258886,-0.0517897,106
0.317228,-0.260652,-0.0513391,108
0.317066,-0.260481,-0.0505529,105
0.318302,-0.261808,-0.0500168,106
0.318812,-0.262357,-0.0493469,105
0.319509,-0.263105,-0.0487067,103
0.320116,-0.263759,-0.0480479,103
0.321256,-0.264982,-0.0474749,100
0.322531,-0.266351,-0.0469181,102
0.324583,-0.268551,-0.0464802,101
0.325021,-0.269023,-0.045775,104
0.326072,-0.270152,-0.0451635,102
0.327197,-0.271359,-0.0445577,100
0.328594,-0.272858,-0.0439869,103
0.330569,-0.274977,-0.0434946,100
0.331395,-0.275864,-0.0428247,95
0.333885,-0.278535,-0.0423879,91
0.338339,-0.283308,-0.0422125,95
0.340773,-0.285919,-0.0417361,92
0.343175,-0.288495,-0.0412424,85
0.345542,-0.291034,-0.0407313,75
0.350097,-0.295916,-0.04049,57
0.417008,-0.367605,-0.0481228,63
0.417046,-0.367649,-0.0471034,89
0.416352,-0.366909,-0.0459952,104
0.416448,-0.367015,-0.0449848,109
0.416207,-0.366761,-0.043935,103
0.415575,-0.366087,-0.0428425,108
0.415393,-0.365895,-0.0418033,107
0.415436,-0.365944,-0.0407896,111
0.415032,-0.365515,-0.0397289,109
0.414853,-0.365326,-0.0386937,116
0.415009,-0.365497,-0.037693,116
0.415838,-0.366388,-0.0367567,113
0.414767,-0.365244,-0.0356374,114
0.415093,-0.365597,-0.0346517,117
0.414862,-0.365353,-0.0336151,114
0.413854,-0.364277,-0.0325132,119
0.414181,-0.36463,-0.0315279,117
0.412958,-0.363323,-0.0304164,116
0.413285,-0.363677,-0.0294321,119
0.413447,-0.363854,-0.0284338,120
0.413278,-0.363676,-0.0274109,121
0.413055,-0.363441,-0.0263852,125
0.411844,-0.362146,-0.0252949,121
0.412008,-0.362325,-0.0242994,129
0.412448,-0.3628,-0.0233201,126
0.411681,-0.361981,-0.0222677,124
0.410972,-0.361225,-0.0212229,130
0.411138,-0.361406,-0.0202285,127
0.41136,-0.361648,-0.0192362,129
0.410329,-0.360546,-0.0181829,129
0.409845,-0.360031,-0.01716,129
0.410122,-0.360331,-0.016172,127
0.40937,-0.359528,-0.0151418,128
0.408838,-0.358961,-0.0141238,123
0.408577,-0.358684,-0.0131181,126
0.40837,-0.358467,-0.0121155,128
0.407629,-0.357675,-0.0110988,126
0.407478,-0.357517,-0.0101016,129
0.407009,-0.357017,-0.00909771,135
0.40702,-0.357033,-0.00810631,138
0.406553,-0.356536,-0.00710638,138
0.406407,-0.356382,-0.00611382,129
0.406741,-0.356743,-0.00512799,136
0.40633,-0.356306,-0.00413321,138
0.405973,-0.355927,-0.00314105,138
0.405513,-0.355437,-0.00215039,138
0.405265,-0.355175,-0.00116254,138
0.405495,-0.355424,-0.000175401,136
0.404247,-0.35409,0.000807079,128
0.403637,-0.353439,0.00178708,132
0.403814,-0.353632,0.00277124,134
0.403416,-0.353209,0.00374939,133
0.402602,-0.352339,0.00471922,126
0.402259,-0.351976,0.00569298,136
0.402074,-0.35178,0.00666812,130
0.401838,-0.351531,0.00764113,133
0.401862,-0.351559,0.00861963,127
0.401627,-0.351311,0.00959096,130
0.401964,-0.351675,0.0105789,136
0.401161,-0.350818,0.0115301,140
0.400724,-0.350352,0.0124904,140
0.400957,-0.350606,0.0134749,139
0.399546,-0.349097,0.0143914,134
0.399268,-0.348801,0.0153512,139
0.399144,-0.348672,0.0163169,137
0.398663,-0.34816,0.0172641,136
0.398643,-0.348141,0.0182332,133
0.397962,-0.347415,0.0191655,132
0.398197,-0.34767,0.0201477,130
0.397469,-0.346893,0.0210724,132
0.396543,-0.345903,0.0219807,130
0.397081,-0.346483,0.0229816,136
0.395857,-0.345174,0.0238634,138
0.395791,-0.345107,0.0248222,139
0.395676,-0.344987,0.0257771,138
0.395963,-0.345298,0.0267626,139
0.395499,-0.344803,0.0276897,137
0.395537,-0.344846,0.028656,139
0.394925,-0.344194,0.029567,140
0.396216,-0.345581,0.0306432,143
0.394206,-0.343429,0.0314256,140
0.394345,-0.343582,0.0323992,148
0.393542,-0.342724,0.0332825,144
0.392496,-0.341606,0.0341377,141
0.393031,-0.342182,0.0351486,143
0.393024,-0.342178,0.036106,142
0.392968,-0.342121,0.0370582,145
0.392518,-0.341642,0.037967,144
0.390895,-0.339905,0.0387409,140
0.390647,-0.339642,0.0396653,137
0.389574,-0.338495,0.0404909,140
0.390153,-0.339119,0.0415111,146
0.390491,-0.339484,0.0425049,147
0.389227,-0.338132,0.0432978,145
0.388742,-0.337616,0.044185,143
0.388068,-0.336896,0.0450447,142
0.387492,-0.336282,0.0459143,141
0.386728,-0.335465,0.046755,144
0.387206,-0.335981,0.0477663,143
0.38716,-0.335935,0.0487054,145
0.385024,-0.333648,0.0493399,145
0.38498,-0.333603,0.0502736,144
0.384653,-0.333256,0.0511646,143
0.383951,-0.332507,0.0519965,144
0.38452,-0.333119,0.0530239,139
0.382186,-0.33062,0.0535919,136
0.381774,-0.330181,0.0544591,135
0.381687,-0.330091,0.055378,140
0.380815,-0.329159,0.0561652,135
0.380592,-0.328923,0.0570585,136
0.380277,-0.328589,0.057935,138
0.380377,-0.328699,0.0588832,137
0.379697,-0.327973,0.0596928,139
0.379112,-0.327348,0.0605162,139
0.37903,-0.327263,0.0614296,138
0.37822,-0.326398,0.0622067,140
0.378686,-0.3269,0.0632217,143
0.377471,-0.325601,0.0639163,146
0.377392,-0.325519,0.0648263,142
0.376998,-0.325099,0.0656737,139
0.37647,-0.324536,0.0664926,137
0.376258,-0.324312,0.0673732,138
0.375688,-0.323704,0.0681793,138
0.375926,-0.323963,0.0691515,141
0.37518,-0.323165,0.0699169,137
0.374437,-0.322372,0.0706794,136
0.374142,-0.322058,0.0715354,142
0.374914,-0.322889,0.0726251,138
0.373819,-0.321718,0.0733035,143
0.373526,-0.321406,0.0741571,135
0.37266,-0.320481,0.0748788,133
0.373119,-0.320976,0.0759022,136
0.37296,-0.320809,0.0767843,135
0.372847,-0.32069,0.0776765,133
0.37247,-0.320289,0.0785055,130
0.372181,-0.319983,0.0793544,134
0.371631,-0.319396,0.080138,129
0.371783,-0.319562,0.0810929,134
0.371848,-0.319634,0.0820273,127
0.372749,-0.320604,0.0831744,131
0.372463,-0.3203,0.0840229,130
0.37231,-0.320138,0.0849048,128
0.371411,-0.319178,0.0855912,130
0.371435,-0.319206,0.086517,125
0.371371,-0.319141,0.0874201,123
0.371571,-0.319358,0.0883945,128
0.371684,-0.319482,0.0893468,124
0.372281,-0.320125,0.0904337,126
0.371823,-0.319638,0.0912308,125
0.372598,-0.320472,0.0923726,125
0.372449,-0.320316,0.0932567,122
0.371993,-0.319829,0.0940523,129
0.371757,-0.319579,0.0949099,131
0.37205,-0.319896,0.0959212,123
0.372255,-0.32012,0.096909,121
0.371933,-0.319777,0.097741,125
0.372051,-0.319907,0.0987045,125
0.372346,-0.320227,0.0997229,124
0.373263,-0.321213,0.100934,120
0.372719,-0.320633,0.101699,120
0.37253,-0.320433,0.102573,119
0.372873,-0.320804,0.103613,120
0.37273,-0.320653,0.104501,116
0.37343,-0.321407,0.10566,119
0.373376,-0.321352,0.106579,114
0.373189,-0.321155,0.107455,114
0.374026,-0.322057,0.108668,115
0.373795,-0.321812,0.109531,112
0.373966,-0.321998,0.110529,113
0.373959,-0.321994,0.111467,112
0.374176,-0.32223,0.112483,110
0.374304,-0.322371,0.11347,113
0.374837,-0.322945,0.114599,116
0.375102,-0.323233,0.115637,111
0.375639,-0.323812,0.116774,109
0.375364,-0.32352,0.117626,111
0.375496,-0.323665,0.118623,110
0.375764,-0.323956,0.11967,111
0.376351,-0.324589,0.120835,111
0.376486,-0.324737,0.121839,107
0.377305,-0.325619,0.123096,107
0.377533,-0.325867,0.12414,106
0.377625,-0.325968,0.125134,109
0.377671,-0.326021,0.126112,105
0.377947,-0.32632,0.127178,100
0.378824,-0.327264,0.128477,102
0.380077,-0.328613,0.129927,101
0.378828,-0.327276,0.130412,101
0.378647,-0.327084,0.131309,101
0.379066,-0.327537,0.132442,105
0.379349,-0.327843,0.133524,109
0.379539,-0.328051,0.134571,112
0.380336,-0.328909,0.135865,108
0.380248,-0.328819,0.136805,108
0.379975,-0.328528,0.13767,107
0.379888,-0.328439,0.13861,110
0.379896,-0.32845,0.139589,111
0.380323,-0.328912,0.140745,109
0.380425,-0.329024,0.141767,106
0.380387,-0.328987,0.142732,106
0.38063,-0.329251,0.143816,103
0.381062,-0.329718,0.144984,101
0.381308,-0.329985,0.146075,102
0.381932,-0.330658,0.147332,106
0.381991,-0.330724,0.148346,101
0.381767,-0.330487,0.149237,111
0.381449,-0.330149,0.150085,104
0.381179,-0.329863,0.150954,108
0.381145,-0.329829,0.151928,104
0.380547,-0.329191,0.152648,108
0.381078,-0.329765,0.153879,109
0.380481,-0.329127,0.154598,102
0.380402,-0.329045,0.155552,101
0.380793,-0.329469,0.156724,101
0.380856,-0.329539,0.157747,103
0.380308,-0.328954,0.158484,102
0.379949,-0.328572,0.159307,104
0.379591,-0.328192,0.16013,110
0.379468,-0.328062,0.161064,112
0.379205,-0.327783,0.161931,110
0.378896,-0.327455,0.162775,112
0.378541,-0.327078,0.163596,113
0.377956,-0.326452,0.164302,109
0.377789,-0.326276,0.165212,107
0.377576,-0.326051,0.166099,102
0.377363,-0.325826,0.166986,106
0.376828,-0.325256,0.167711,107
0.37671,-0.325131,0.168643,105
0.375948,-0.324316,0.169249,100
0.375463,-0.3238,0.169993,96
0.375209,-0.32353,0.170854,92
0.374454,-0.322722,0.171455,97
0.374702,-0.322993,0.172574,95
0.374222,-0.32248,0.173314,89
0.374562,-0.322849,0.174484,87
0.373583,-0.321801,0.174959,86
0.373197,-0.32139,0.175745,81
0.373174,-0.321369,0.176723,90
0.371978,-0.320088,0.177071,85
0.371911,-0.320019,0.178023,77
0.371394,-0.319468,0.178732,72
0.371776,-0.319881,0.17993,69
0.371082,-0.319139,0.180539,67
0.371105,-0.319167,0.181541,75
0.370413,-0.318428,0.182148,72
0.369236,-0.317167,0.18248,71
0.368508,-0.316389,0.183058,73
0.368487,-0.31637,0.184032,81
0.368379,-0.316257,0.184957,83
0.369022,-0.316951,0.18631,80
0.367459,-0.315275,0.186404,75
0.368011,-0.315872,0.187708,73
0.36707,-0.314864,0.188152,78
0.366307,-0.314049,0.188694,74
0.366289,-0.314032,0.189669,75
0.366227,-0.313968,0.190618,68
0.366165,-0.313905,0.191569,65
0.36545,-0.313141,0.192132,61
0.366348,-0.314109,0.193655,57
0.367076,-0.314894,0.195082,51
0.367016,-0.314832,0.196038,56
0.36656,-0.314347,0.196756,56
0.366019,-0.313769,0.19742,55
0.36688,-0.314696,0.19894,53
0.366864,-0.314683,0.199927,55
0.366674,-0.314481,0.200807,54
0.367716,-0.315604,0.202453,46
0.366952,-0.314787,0.202978,47
0.368087,-0.316009,0.20469,50
0.368162,-0.316093,0.205743,52
0.368683,-0.316656,0.207079,52
0.368715,-0.316693,0.208109,56
0.36848,-0.316444,0.208968,52
0.369227,-0.31725,0.210459,50
0.369933,-0.318011,0.211929,45
0.370102,-0.318196,0.213055,44
0.371993,-0.320231,0.215307,44
0.371211,-0.319394,0.21582,123
0.372476,-0.320756,0.217678,42
0.372194,-0.320456,0.218519,50
0.373193,-0.321533,0.220213,44
0.375835,-0.31724,-0.232999,11
0.374302,-0.31563,-0.230908,11
0.270188,-0.206022,-0.158679,12
0.377715,-0.319229,-0.231182,12
0.378691,-0.32026,-0.230808,13
0.377789,-0.319314,-0.229158,13
0.378765,-0.320346,-0.228781,13
0.374528,-0.315888,-0.2249,18
0.372425,-0.313677,-0.222472,13
0.379022,-0.320626,-0.225842,17
0.377467,-0.318992,-0.223778,13
0.384554,-0.326458,-0.227418,16
0.377593,-0.319132,-0.221802,15
0.376935,-0.318442,-0.220345,17
0.382211,-0.324001,-0.222749,14
0.376599,-0.318095,-0.218079,15
0.377336,-0.318875,-0.217532,16
0.379956,-0.321636,-0.218187,12
0.381515,-0.323282,-0.218152,16
0.388113,-0.330233,-0.221307,19
0.388204,-0.330332,-0.220312,20
0.382885,-0.324734,-0.215915,14
0.382927,-0.324782,-0.214907,21
0.382204,-0.324025,-0.213423,14
0.383639,-0.325538,-0.213281,18
0.38234,-0.324174,-0.211445,18
0.379918,-0.321627,-0.20893,18
0.382619,-0.324475,-0.209558,17
0.381188,-0.322972,-0.207661,15
0.386431,-0.328496,-0.209808,18
0.384388,-0.326348,-0.207541,13
0.382705,-0.324579,-0.205502,20
0.381372,-0.323178,-0.203683,15
0.383852,-0.325794,-0.204134,17
0.387004,-0.329116,-0.204967,20
0.385346,-0.327374,-0.202959,20
0.38337,-0.325296,-0.200776,22
0.383802,-0.325754,-0.200005,21
0.385006,-0.327025,-0.199678,27
0.386072,-0.328152,-0.199266,19
0.385636,-0.327696,-0.197989,26
0.384334,-0.326327,-0.196223,25
0.383855,-0.325827,-0.194932,23
0.385882,-0.327965,-0.195055,27
0.38511,-0.327155,-0.193599,30
0.384583,-0.326603,-0.192285,27
0.385019,-0.327066,-0.19151,26
0.386426,-0.328551,-0.191267,26
0.384449,-0.326472,-0.189162,25
0.386287,-0.328412,-0.18915,30
0.387557,-0.329753,-0.18882,33
0.387366,-0.329555,-0.187695,29
0.387811,-0.330026,-0.186913,28
0.387327,-0.32952,-0.185634,26
0.388016,-0.33025,-0.184981,27
0.3869,-0.329078,-0.183372,25
0.39069,-0.333073,-0.184347,32
0.388574,-0.330847,-0.182215,35
0.388091,-0.330341,-0.180945,34
0.390461,-0.332841,-0.181153,38
0.387082,-0.329286,-0.178395,35
0.389143,-0.33146,-0.178435,36
0.389446,-0.331783,-0.177572,31
0.3898,-0.332159,-0.176733,33
0.388092,-0.330362,-0.174858,32
0.38972,-0.332081,-0.174659,34
0.389779,-0.332146,-0.173673,34
0.390184,-0.332576,-0.172858,30
0.390145,-0.332539,-0.171823,38
0.392241,-0.33475,-0.171831,36
0.392052,-0.334555,-0.17072,39
0.390525,-0.332949,-0.168966,39
0.390488,-0.332913,-0.167935,36
0.390057,-0.332462,-0.166718,37
0.390415,-0.332843,-0.165877,35
0.391866,-0.334375,-0.165549,38
0.390739,-0.333191,-0.164009,40
0.392093,-0.334621,-0.163628,40
0.393256,-0.33585,-0.163152,40
0.392322,-0.334869,-0.161708,38
0.39179,-0.334312,-0.160454,40
0.395166,-0.337871,-0.160973,40
0.392919,-0.335507,-0.158943,38
0.392686,-0.335265,-0.157828,42
0.391957,-0.3345,-0.156494,37
0.392921,-0.335519,-0.155913,32
0.392441,-0.335017,-0.154693,24
0.385867,-0.328094,-0.150822,14
0.357951,-0.298684,-0.13776,14
0.367079,-0.308305,-0.140773,16
0.316344,-0.254851,-0.118224,11
0.148031,-0.0775045,-0.0477719,13
0.334675,-0.274171,-0.124347,13
0.3324,-0.271777,-0.122559,14
0.296816,-0.234285,-0.107003,15
0.34203,-0.281929,-0.124863,14
0.341839,-0.281731,-0.123927,14
0.334328,-0.273819,-0.120021,13
0.328342,-0.267514,-0.116773,17
0.324229,-0.263183,-0.114311,23
0.325323,-0.264338,-0.113941,27
0.32269,-0.261566,-0.112095,36
0.320763,-0.259539,-0.110542,39
0.319266,-0.257964,-0.109167,39
0.31837,-0.257022,-0.108033,43
0.317419,-0.256023,-0.106883,50
0.316992,-0.255575,-0.105939,57
0.315448,-0.253951,-0.104576,55
0.315059,-0.253543,-0.103655,59
0.314491,-0.252947,-0.10267,57
0.313659,-0.252073,-0.101591,58
0.312567,-0.250924,-0.100423,66
0.312216,-0.250558,-0.0995305,68
0.311633,-0.249946,-0.0985567,75
0.31117,-0.24946,-0.0976293,76
0.310476,-0.248731,-0.0966235,76
0.310104,-0.248341,-0.0957352,84
0.309935,-0.248166,-0.0949203,84
0.309479,-0.247688,-0.0940075,83
0.309484,-0.247695,-0.093256,85
0.308744,-0.246918,-0.0922513,84
0.309007,-0.247197,-0.09159,85
0.307929,-0.246064,-0.0904786,82
0.307652,-0.245774,-0.0896394,81
0.307545,-0.245664,-0.0888586,79
0.307015,-0.245108,-0.0879405,81
0.306544,-0.244614,-0.0870449,80
0.306691,-0.244771,-0.0863511,87
0.30653,-0.244604,-0.0855587,90
0.306313,-0.244378,-0.08475,92
0.306798,-0.244891,-0.0841625,96
0.306469,-0.244547,-0.0833204,97
0.306281,-0.244352,-0.082524,102
0.306458,-0.24454,-0.0818399,102
0.306635,-0.244729,-0.0811554,102
0.306251,-0.244327,-0.080303,104
0.307102,-0.245226,-0.0798185,106
0.306466,-0.244558,-0.0788935,103
0.306419,-0.244512,-0.0781438,105
0.306905,-0.245026,-0.0775482,106
0.306943,-0.245069,-0.0768225,109
0.306729,-0.244846,-0.0760258,104
0.30646,-0.244564,-0.0752151,104
0.30661,-0.244725,-0.0745227,104
0.307014,-0.245153,-0.0738992,104
0.307081,-0.245226,-0.0731827,105
0.30698,-0.245122,-0.0724209,100
0.307385,-0.245551,-0.0717947,102
0.307791,-0.245982,-0.071167,108
0.307662,-0.245848,-0.070398,115
0.308749,-0.246997,-0.0699437,112
0.308223,-0.246445,-0.0690721,110
0.308774,-0.247028,-0.0684758,111
0.309556,-0.247855,-0.0679344,108
0.309999,-0.248324,-0.0673053,114
0.309926,-0.248249,-0.0665483,115
0.310198,-0.248538,-0.0658752,111
0.311104,-0.249496,-0.0653525,113
0.310973,-0.249361,-0.0645805,114
0.311074,-0.249469,-0.0638636,114
0.311378,-0.249792,-0.0631931,113
0.311943,-0.25039,-0.0625811,114
0.312365,-0.250838,-0.0619341,109
0.312555,-0.251041,-0.0612335,111
0.313419,-0.251954,-0.0606802,112
0.313699,-0.252252,-0.0599959,111
0.314364,-0.252955,-0.0593927,115
0.314528,-0.25313,-0.0586804,112
0.315613,-0.254277,-0.0581599,112
0.31563,-0.254297,-0.0574136,106
0.316245,-0.254948,-0.056789,108
0.316772,-0.255506,-0.056144,110
0.317392,-0.256163,-0.0555147,109
0.318076,-0.256886,-0.0548948,110
0.318702,-0.257548,-0.0542605,109
0.319607,-0.258505,-0.0536759,110
0.320826,-0.259794,-0.0531458,108
0.320938,-0.259914,-0.0524048,108
0.321299,-0.260297,-0.0517087,110
0.322252,-0.261305,-0.0511173,109
0.322679,-0.261757,-0.0504279,105
0.323895,-0.263042,-0.0498737,105
0.3242,-0.263366,-0.0491574,103
0.32591,-0.265171,-0.0486761,107
0.326638,-0.265942,-0.0480232,107
0.327662,-0.267024,-0.0474149,103
0.328497,-0.267908,-0.0467711,102
0.329831,-0.269317,-0.0462016,107
0.331044,-0.270599,-0.0456064,104
0.331933,-0.271539,-0.0449557,103
0.333739,-0.273445,-0.0444373,105
0.335191,-0.274979,-0.0438576,102
0.33721,-0.277112,-0.0433521,106
0.339293,-0.279311,-0.0428448,102
0.342981,-0.283203,-0.0425495,105
0.345257,-0.285605,-0.0420422,102
0.347715,-0.288201,-0.0415473,98
0.349875,-0.290481,-0.0410003,88
0.352219,-0.292956,-0.0404655,69
0.419484,-0.363899,-0.0480728,56
0.419978,-0.364422,-0.0471104,94
0.420416,-0.364888,-0.046139,105
0.419545,-0.363973,-0.0450115,109
0.419075,-0.363481,-0.043935,110
0.42031,-0.364786,-0.0430526,107
0.420124,-0.364594,-0.0420081,115
0.418805,-0.363206,-0.0408438,114
0.418906,-0.363315,-0.0398347,115
0.41816,-0.362532,-0.0387393,115
0.417923,-0.362286,-0.0376986,122
0.417857,-0.362219,-0.0366755,119
0.41858,-0.362985,-0.0357267,118
0.418007,-0.362385,-0.0346568,119
0.417269,-0.361609,-0.0335756,123
0.417206,-0.361546,-0.0325561,124
0.416752,-0.361071,-0.0315049,125
0.4163,-0.360597,-0.0304564,123
0.415572,-0.359833,-0.0293892,123
0.415291,-0.359539,-0.0283594,127
0.415288,-0.35954,-0.0273511,124
0.415175,-0.359424,-0.0263355,125
0.415008,-0.35925,-0.0253169,127
0.414786,-0.35902,-0.0242959,127
0.415063,-0.359315,-0.0233066,130
0.41407,-0.358271,-0.0222421,122
0.414237,-0.358451,-0.0212473,126
0.41424,-0.358457,-0.0202431,127
0.413034,-0.357188,-0.0191785,128
0.413367,-0.357543,-0.0181933,129
0.412442,-0.35657,-0.0171503,126
0.412229,-0.356349,-0.0161422,125
0.410986,-0.355041,-0.0150949,125
0.410939,-0.354995,-0.0140981,127
0.412252,-0.356383,-0.0131475,132
0.410632,-0.354677,-0.0120987,130
0.41075,-0.354805,-0.0111081,133
0.410382,-0.35442,-0.0101043,135
0.409585,-0.353583,-0.00909276,136
0.409974,-0.353996,-0.00810959,132
0.409019,-0.352992,-0.00710071,132
0.408926,-0.352897,-0.00610983,138
0.409691,-0.353708,-0.00512996,139
0.408687,-0.352652,-0.00412914,134
0.408062,-0.351995,-0.00313632,137
0.409577,-0.353597,-0.00215569,142
0.407829,-0.351756,-0.00116223,140
0.407263,-0.351162,-0.000176694,139
0.407334,-0.35124,0.000808345,135
0.406823,-0.350705,0.00178991,131
0.405893,-0.349726,0.00276481,138
0.405966,-0.349807,0.00374684,140
0.405356,-0.349167,0.00471922,136
0.405326,-0.349138,0.00569847,137
0.405034,-0.348833,0.00667234,128
0.404482,-0.348253,0.00763874,127
0.404558,-0.348337,0.00861829,134
0.404479,-0.348256,0.00959391,136
0.402891,-0.346585,0.0105225,130
0.402814,-0.346506,0.0114934,136
0.403255,-0.346975,0.0124829,140
0.403387,-0.347117,0.0134627,144
0.403,-0.346712,0.0144217,142
0.40184,-0.345492,0.0153443,137
0.401304,-0.344929,0.0162902,137
0.400872,-0.344477,0.0172385,137
0.400545,-0.344134,0.0181901,137
0.399404,-0.342933,0.019095,138
0.400251,-0.34383,0.0201092,138
0.399824,-0.343384,0.0210508,133
0.399247,-0.342778,0.0219807,129
0.398218,-0.341695,0.0228778,130
0.398151,-0.341628,0.0238356,137
0.398237,-0.341721,0.0248041,138
0.39802,-0.341496,0.0257508,142
0.39836,-0.341857,0.0267393,141
0.39759,-0.341048,0.0276415,148
0.397326,-0.340772,0.0285813,143
0.396863,-0.340286,0.029503,142
0.396551,-0.339961,0.0304356,139
0.395692,-0.339057,0.0313172,138
0.396081,-0.339471,0.0323106,140
0.395922,-0.339306,0.0332538,140
0.395366,-0.338722,0.0341573,144
0.394515,-0.337828,0.0350281,143
0.393866,-0.337146,0.0359154,143
0.392778,-0.336001,0.0367527,142
0.392968,-0.336205,0.0377241,142
0.392082,-0.335273,0.0385762,139
0.391493,-0.334654,0.0394577,142
0.3911,-0.334243,0.0403594,144
0.390564,-0.33368,0.0412419,147
0.390513,-0.333629,0.0421814,146
0.390607,-0.333732,0.0431392,141
0.390074,-0.333172,0.0440172,144
0.388631,-0.331652,0.0447734,141
0.388248,-0.331251,0.0456638,143
0.38801,-0.331003,0.0465721,147
0.387725,-0.330705,0.0474729,143
0.387251,-0.330207,0.0483456,148
0.386589,-0.329512,0.0491889,143
0.387065,-0.330018,0.0501966,140
0.386122,-0.329025,0.0509941,142
0.385278,-0.328137,0.051802,142
0.384719,-0.327551,0.0526501,133
0.384256,-0.327065,0.0535105,135
0.384168,-0.326975,0.054429,138
0.384081,-0.326886,0.0553475,141
0.383296,-0.32606,0.0561498,138
0.382792,-0.325532,0.0569958,138
0.38243,-0.325152,0.0578635,138
0.382114,-0.324822,0.0587379,144
0.381938,-0.324639,0.0596356,140
0.380936,-0.323584,0.060384,136
0.380442,-0.323066,0.0612201,140
0.37995,-0.322549,0.0620543,145
0.379323,-0.321891,0.0628608,140
0.379561,-0.322146,0.0638294,150
0.378801,-0.321346,0.0646063,143
0.378768,-0.321314,0.0655222,141
0.377113,-0.31957,0.0661155,138
0.37744,-0.319918,0.0671001,138
0.376512,-0.318942,0.0678302,135
0.376302,-0.318723,0.0687045,140
0.376094,-0.318506,0.0695782,136
0.376197,-0.318618,0.0705177,140
0.376123,-0.318543,0.0714198,143
0.375294,-0.31767,0.0721571,136
0.374336,-0.316662,0.0728619,133
0.374308,-0.316636,0.0737699,135
0.374457,-0.316796,0.0747184,137
0.374386,-0.316725,0.0756176,137
0.374051,-0.316374,0.0764556,134
0.373805,-0.316117,0.0773131,134
0.373824,-0.31614,0.0782326,132
0.373316,-0.315606,0.079026,132
0.373468,-0.315769,0.0799775,128
0.373576,-0.315887,0.0809195,134
0.37307,-0.315355,0.08171,135
0.373047,-0.315334,0.0826196,131
0.373025,-0.315314,0.0835297,131
0.373047,-0.315341,0.0844516,130
0.373378,-0.315693,0.085454,127
0.373445,-0.315767,0.0863898,129
0.373425,-0.315749,0.0873033,128
0.373362,-0.315685,0.0882056,124
0.373651,-0.315993,0.0892034,129
0.373457,-0.315791,0.090071,125
0.373395,-0.315728,0.0909748,124
0.373509,-0.315853,0.091928,124
0.373008,-0.315326,0.0927089,123
0.373608,-0.315963,0.0938007,127
0.373548,-0.315903,0.0947068,127
0.374196,-0.31659,0.0958183,123
0.374092,-0.316483,0.0967141,125
0.373812,-0.316191,0.0975578,122
0.373843,-0.316226,0.098493,122
0.374006,-0.316402,0.099469,119
0.373816,-0.316204,0.100339,120
0.374158,-0.316568,0.101372,120
0.374324,-0.316746,0.102352,121
0.374312,-0.316737,0.103279,121
0.374524,-0.316963,0.104277,119
0.374424,-0.316861,0.105177,115
0.37437,-0.316807,0.106092,115
0.374761,-0.317223,0.107151,115
0.375825,-0.31835,0.108433,115
0.374833,-0.317305,0.109045,116
0.37563,-0.31815,0.110245,116
0.376251,-0.318809,0.111392,112
0.375616,-0.318141,0.112119,114
0.376238,-0.318802,0.113271,111
0.376413,-0.318989,0.114273,109
0.376453,-0.319034,0.11523,110
0.376809,-0.319414,0.116299,111
0.377122,-0.319747,0.117355,112
0.377209,-0.319842,0.118333,111
0.37707,-0.319698,0.119232,109
0.377884,-0.320562,0.120473,108
0.378201,-0.3209,0.12154,110
0.378932,-0.321675,0.12276,112
0.379206,-0.321968,0.123817,103
0.378153,-0.320858,0.124383,100
0.37861,-0.321344,0.125509,100
0.379161,-0.321929,0.126674,104
0.3793,-0.322079,0.127686,105
0.379947,-0.322766,0.128894,103
0.379949,-0.322771,0.129858,101
0.380554,-0.323413,0.131056,104
0.380789,-0.323665,0.132114,108
0.380561,-0.323427,0.132992,109
0.380658,-0.323533,0.133998,104
0.381128,-0.324033,0.135154,105
0.380761,-0.323648,0.135977,102
0.38156,-0.324495,0.137271,103
0.38166,-0.324603,0.138285,107
0.381526,-0.324466,0.139204,103
0.382096,-0.325071,0.140414,102
0.381823,-0.324785,0.141278,96
0.382065,-0.325045,0.142356,100
0.382168,-0.325157,0.143378,103
0.382225,-0.32522,0.144382,107
0.382188,-0.325184,0.145346,106
0.381917,-0.324901,0.14621,102
0.382068,-0.325064,0.147257,100
0.382692,-0.325726,0.148512,102
0.382798,-0.325842,0.149544,104
0.383047,-0.326108,0.15064,106
0.383202,-0.326275,0.151696,104
0.382318,-0.325344,0.152288,103
0.382851,-0.32591,0.153516,104
0.38244,-0.32548,0.154318,104
0.382502,-0.325548,0.155336,106
0.38247,-0.325518,0.156311,107
0.381638,-0.324642,0.156916,103
0.381325,-0.324314,0.157759,99
0.381106,-0.324087,0.158646,99
0.380888,-0.32386,0.159532,104
0.381186,-0.324178,0.160663,101
0.381532,-0.324547,0.161819,105
0.38094,-0.323924,0.162527,112
0.381286,-0.324293,0.163686,110
0.379947,-0.322882,0.164029,101
0.379919,-0.322855,0.165006,98
0.378962,-0.321846,0.165527,100
0.378563,-0.321429,0.166319,99
0.37812,-0.320964,0.167088,89
0.37731,-0.320111,0.167671,91
0.377146,-0.319941,0.168576,93
0.37689,-0.319674,0.169434,90
0.376223,-0.318972,0.170082,92
0.37661,-0.319384,0.171267,90
0.376035,-0.31878,0.17196,84
0.375965,-0.318709,0.172911,85
0.374259,-0.316909,0.17301,88
0.37428,-0.316935,0.174006,87
0.374981,-0.317679,0.175361,86
0.374323,-0.316987,0.176,82
0.373622,-0.316249,0.176614,79
0.372878,-0.315467,0.177202,81
0.372901,-0.315493,0.178198,72
0.372743,-0.31533,0.179099,72
0.372273,-0.314836,0.179829,72
0.371536,-0.314061,0.180411,69
0.371113,-0.313617,0.181162,73
0.370115,-0.312566,0.181594,68
0.370271,-0.312734,0.182663,74
0.36919,-0.311595,0.183042,80
0.369434,-0.311855,0.18416,79
0.369193,-0.311604,0.185006,81
0.368821,-0.311214,0.185778,72
0.368187,-0.310547,0.186398,80
0.367598,-0.309928,0.187042,71
0.36771,-0.31005,0.188087,72
0.367866,-0.310217,0.18916,66
0.367366,-0.309693,0.189852,65
0.367479,-0.309815,0.190901,70
0.366981,-0.309292,0.191591,60
0.368012,-0.310385,0.193186,61
0.368258,-0.310648,0.19432,60
0.366928,-0.309245,0.194514,59
0.366736,-0.309046,0.195385,54
0.368076,-0.310466,0.197181,53
0.368104,-0.310499,0.19819,50
0.368353,-0.310764,0.199334,54
0.368646,-0.311078,0.200509,51
0.367662,-0.310041,0.200899,54
0.368263,-0.31068,0.202265,48
0.369266,-0.311743,0.203887,52
0.369031,-0.311497,0.20474,48
0.370263,-0.312803,0.206516,45
0.369448,-0.311945,0.207008,48
0.37064,-0.313209,0.208769,46
0.369645,-0.31216,0.209144,51
0.370347,-0.312906,0.210602,49
0.370739,-0.313323,0.211864,51
0.370504,-0.313078,0.212725,45
0.371528,-0.314164,0.214403,122
0.37265,-0.315353,0.216153,40
0.373461,-0.316214,0.217707,40
0.372995,-0.315725,0.218426,39
0.637374,-0.582753,-0.411446,8
0.391967,-0.32843,-0.2413,10
0.386328,-0.32259,-0.236385,14
0.382971,-0.319114,-0.233053,11
0.642965,-0.58857,-0.407941,10
0.378594,-0.314585,-0.228023,16
1.29002,-1.25919,-0.83941,9
0.374838,-0.310698,-0.223463,13
0.32612,-0.260209,-0.19022,11
0.382242,-0.318379,-0.226312,10
0.228321,-0.15885,-0.124831,11
0.377526,-0.313498,-0.221158,12
0.139839,-0.0671374,-0.0683191,10
0.380741,-0.316836,-0.221197,10
0.377094,-0.31306,-0.217819,14
0.380022,-0.316098,-0.21868,13
0.382333,-0.318497,-0.219131,13
0.384241,-0.320478,-0.219313,15
1.9418,-1.93492,-1.20894,10
0.387089,-0.323437,-0.219036,13
0.382311,-0.318488,-0.215001,12
0.38654,-0.322874,-0.216611,15
0.387021,-0.323377,-0.215872,19
0.384161,-0.320415,-0.213066,16
0.381255,-0.317406,-0.210251,9
0.384201,-0.320463,-0.211034,13
0.640642,-0.586293,-0.366556,13
0.386998,-0.323369,-0.210674,10
0.384528,-0.320812,-0.208151,18
0.384573,-0.320863,-0.207153,16
0.388946,-0.325399,-0.208739,11
0.387619,-0.324027,-0.206914,16
0.38582,-0.322165,-0.204819,17
0.386836,-0.323222,-0.204391,19
0.384088,-0.320376,-0.201755,22
0.385914,-0.322272,-0.201799,18
0.389032,-0.325508,-0.202582,18
0.384759,-0.321082,-0.199089,19
0.388344,-0.324802,-0.200126,14
0.388932,-0.325415,-0.199434,20
0.390213,-0.326746,-0.199133,17
0.388052,-0.324509,-0.196882,18
0.389327,-0.325834,-0.196574,18
0.389476,-0.325992,-0.19563,18
0.388937,-0.325437,-0.194305,22
0.393508,-0.330179,-0.195808,20
0.390023,-0.32657,-0.192856,22
0.38919,-0.325709,-0.191375,20
0.388362,-0.324854,-0.189902,24
0.388513,-0.325013,-0.188965,20
0.3893,-0.325832,-0.18837,24
0.39014,-0.326707,-0.187801,25
0.392225,-0.328872,-0.18789,25
0.391484,-0.328107,-0.186471,25
0.391737,-0.328373,-0.185581,23
0.391593,-0.328227,-0.184483,26
0.390561,-0.32716,-0.182923,24
0.391953,-0.328607,-0.182626,29
0.389396,-0.325959,-0.180287,29
0.391372,-0.328011,-0.180287,28
0.390442,-0.32705,-0.178795,26
0.39243,-0.329114,-0.178787,26
0.393536,-0.330265,-0.178325,30
0.391999,-0.328675,-0.176534,30
0.391959,-0.328636,-0.175498,30
0.393113,-0.329836,-0.175054,32
0.391731,-0.328406,-0.173356,32
0.393883,-0.330641,-0.173395,28
0.391456,-0.328128,-0.171197,32
0.392458,-0.32917,-0.17067,31
0.392967,-0.329701,-0.169902,28
0.396296,-0.333157,-0.170479,27
0.39429,-0.33108,-0.168505,25
0.395056,-0.331878,-0.167851,29
0.393366,-0.330128,-0.166041,28
0.393879,-0.330663,-0.165269,31
0.394293,-0.331097,-0.164449,35
0.397951,-0.334894,-0.165121,34
0.394323,-0.331134,-0.162438,36
0.396504,-0.3334,-0.16242,34
0.396723,-0.333629,-0.161502,33
0.395072,-0.331921,-0.159744,38
0.395491,-0.332359,-0.158921,35
0.394254,-0.331079,-0.157361,32
0.39684,-0.333764,-0.157494,34
0.397111,-0.334049,-0.156599,36
0.397587,-0.334546,-0.155793,34
0.395883,-0.332782,-0.154042,30
0.397982,-0.334962,-0.153935,24
0.389005,-0.325655,-0.149092,13
0.399712,-0.336763,-0.152642,10
0.378485,-0.314749,-0.142692,15
0.518991,-0.460489,-0.200572,12
0.361062,-0.296683,-0.133553,15
0.321739,-0.255899,-0.116475,14
1.42754,-1.40289,-0.570697,13
0.352316,-0.287621,-0.127286,14
0.349434,-0.284634,-0.125244,18
0.341341,-0.276242,-0.121135,13
0.335728,-0.270422,-0.118059,14
0.334243,-0.268884,-0.116642,14
0.331962,-0.266522,-0.114923,19
0.328661,-0.2631,-0.112821,21
0.327055,-0.261436,-0.111392,28
0.325918,-0.26026,-0.110153,30
0.325144,-0.25946,-0.109058,34
0.322662,-0.256887,-0.107324,44
0.322882,-0.257119,-0.106616,40
0.321719,-0.255914,-0.105393,41
0.320318,-0.254464,-0.104089,43
0.319393,-0.253506,-0.102968,49
0.319148,-0.253255,-0.1021,43
0.318385,-0.252465,-0.101047,51
0.317626,-0.25168,-0.1,51
0.316962,-0.250994,-0.098992,61
0.316302,-0.250312,-0.0979893,67
0.317059,-0.2511,-0.0974854,73
0.31544,-0.249423,-0.096155,68
0.315235,-0.249213,-0.0953199,77
0.314586,-0.248541,-0.0943348,77
0.314531,-0.248487,-0.0935548,74
0.31424,-0.248187,-0.0926965,77
0.31339,-0.247308,-0.0916545,79
0.313366,-0.247286,-0.09089,75
0.312786,-0.246687,-0.0899441,74
0.312412,-0.246302,-0.089069,67
0.312535,-0.246432,-0.088356,73
0.312018,-0.245897,-0.0874387,75
0.312782,-0.246693,-0.0869296,85
0.312032,-0.245917,-0.0859425,83
0.312272,-0.246168,-0.0852673,88
0.311641,-0.245516,-0.0843233,93
0.311822,-0.245707,-0.083631,93
0.311281,-0.245147,-0.0827197,91
0.311607,-0.245488,-0.0820715,92
0.311818,-0.24571,-0.0813879,91
0.311393,-0.245271,-0.0805165,85
0.311894,-0.245793,-0.0799175,86
0.311585,-0.245475,-0.0790826,91
0.311219,-0.245098,-0.0782336,89
0.310941,-0.244812,-0.0774118,87
0.31173,-0.245632,-0.0768909,89
0.31174,-0.245645,-0.0761501,92
0.311606,-0.245509,-0.07537,96
0.31179,-0.245702,-0.0746775,97
0.311888,-0.245806,-0.0739612,95
0.311812,-0.24573,-0.0731986,92
0.312606,-0.246556,-0.0726663,89
0.312154,-0.246089,-0.0718044,99
0.312746,-0.246706,-0.0712155,91
0.312904,-0.246872,-0.0705125,94
0.313178,-0.24716,-0.0698387,105
0.313893,-0.247904,-0.069274,103
0.314199,-0.248224,-0.0686046,104
0.314978,-0.249035,-0.0680497,106
0.315258,-0.249327,-0.06737,103
0.315212,-0.249282,-0.0666111,108
0.31567,-0.24976,-0.0659723,106
0.315655,-0.249747,-0.0652204,108
0.316502,-0.250629,-0.0646687,105
0.316547,-0.250677,-0.063929,109
0.31695,-0.251098,-0.0632706,107
0.317175,-0.251334,-0.0625705,107
0.31749,-0.251664,-0.0618895,107
0.317596,-0.251776,-0.0611614,107
0.318064,-0.252264,-0.060511,104
0.319049,-0.253289,-0.0599684,107
0.319247,-0.253497,-0.0592557,107
0.319874,-0.25415,-0.0586309,103
0.32035,-0.254646,-0.0579723,104
0.321074,-0.2554,-0.0573616,107
0.321616,-0.255966,-0.056711,102
0.321974,-0.25634,-0.0560217,107
0.323332,-0.257752,-0.0555244,105
0.323915,-0.258359,-0.0548721,108
0.324722,-0.259199,-0.0542591,104
0.324962,-0.259451,-0.0535368,104
0.325298,-0.259803,-0.0528311,101
0.32589,-0.260419,-0.05217,107
0.32748,-0.262072,-0.0516833,102
0.328049,-0.262665,-0.0510097,106
0.329108,-0.263767,-0.0504178,101
0.329749,-0.264435,-0.0497496,100
0.330328,-0.265038,-0.0490678,102
0.330909,-0.265644,-0.0483835,101
0.332156,-0.266942,-0.0478041,104
0.33308,-0.267903,-0.0471667,103
0.334819,-0.269711,-0.0466523,102
0.335965,-0.270903,-0.0460375,105
0.336982,-0.271961,-0.0453974,106
0.337937,-0.272955,-0.0447429,102
0.340121,-0.275225,-0.0442626,100
0.342338,-0.27753,-0.0437756,105
0.344661,-0.279944,-0.0432918,95
0.346507,-0.281863,-0.0427301,102
0.349454,-0.284925,-0.0423075,101
0.351549,-0.287102,-0.0417565,98
0.354018,-0.289668,-0.0412431,83
0.355786,-0.291507,-0.0406278,70
0.422673,-0.36095,-0.0481157,53
0.422655,-0.360934,-0.0470894,82
0.422924,-0.361217,-0.0460978,98
0.422219,-0.360488,-0.0449914,105
0.422775,-0.36107,-0.0440328,108
0.421787,-0.360047,-0.0428996,113
0.421032,-0.359266,-0.0417971,105
0.421417,-0.359669,-0.0408197,107
0.420779,-0.35901,-0.0397348,112
0.42054,-0.358765,-0.0386937,119
0.420472,-0.358698,-0.0376708,112
0.421484,-0.359752,-0.0367513,117
0.420056,-0.358273,-0.0356008,119
0.419935,-0.35815,-0.0345754,120
0.419476,-0.357677,-0.0335215,116
0.419356,-0.357556,-0.032499,118
0.419237,-0.357436,-0.0314772,119
0.418726,-0.356908,-0.0304253,120
0.418161,-0.356325,-0.0293721,121
0.418438,-0.356615,-0.0283841,127
0.418379,-0.356557,-0.027371,127
0.417985,-0.356152,-0.0263355,124
0.416981,-0.355112,-0.025262,125
0.416592,-0.354711,-0.0242328,128
0.416925,-0.355061,-0.0232495,123
0.415763,-0.353858,-0.0221782,130
0.41582,-0.35392,-0.0211803,127
0.415602,-0.353697,-0.0201678,124
0.41522,-0.353304,-0.0191484,121
0.41528,-0.353369,-0.0181519,121
0.41501,-0.353091,-0.0171405,121
0.414631,-0.352702,-0.0161262,125
0.41409,-0.352143,-0.0151077,122
0.414043,-0.352097,-0.0141099,123
0.413723,-0.351768,-0.0131034,123
0.413841,-0.351894,-0.0121122,125
0.412057,-0.350045,-0.0110667,121
0.411959,-0.349946,-0.0100739,129
0.41143,-0.349401,-0.00907179,133
0.411658,-0.34964,-0.00808778,132
0.411509,-0.349489,-0.007096,128
0.410877,-0.348835,-0.00609788,137
0.410622,-0.348574,-0.00510774,128
0.410476,-0.348426,-0.00412,134
0.41017,-0.348111,-0.00313197,133
0.410401,-0.348354,-0.00214776,136
0.410472,-0.348431,-0.00116208,140
0.409954,-0.347897,-0.000176762,139
0.409866,-0.347808,0.000807501,135
0.408554,-0.346448,0.00178321,137
0.407727,-0.345592,0.00275644,132
0.407483,-0.345343,0.00373226,132
0.406768,-0.344603,0.0046999,129
0.407685,-0.345559,0.00569206,128
0.406707,-0.344546,0.00665126,128
0.406573,-0.34441,0.00762442,131
0.406388,-0.344221,0.00859562,130
0.405889,-0.343706,0.00955712,130
0.404923,-0.342706,0.0105017,129
0.404845,-0.342628,0.0114708,134
0.404405,-0.342174,0.0124265,141
0.404432,-0.342205,0.0133981,139
0.403684,-0.341431,0.0143377,134
0.403299,-0.341035,0.0152895,135
0.402711,-0.340427,0.0162299,131
0.402074,-0.339768,0.0171647,132
0.401951,-0.339644,0.0181231,130
0.401114,-0.338778,0.0190418,133
0.400688,-0.338338,0.0199798,136
0.400111,-0.337742,0.0209065,136
0.40055,-0.338201,0.0218942,133
0.399773,-0.337397,0.0228046,133
0.399454,-0.337068,0.0237423,134
0.399792,-0.337423,0.024725,136
0.39907,-0.336677,0.0256317,140
0.398302,-0.335882,0.0265311,139
0.398188,-0.335767,0.0274783,138
0.398326,-0.335913,0.0284456,140
0.398114,-0.335695,0.0293842,142
0.397452,-0.335011,0.0302828,139
0.396346,-0.333865,0.0311382,141
0.396584,-0.334116,0.0321121,142
0.396128,-0.333645,0.0330214,145
0.395773,-0.333279,0.0339383,146
0.395963,-0.333479,0.0349083,140
0.394279,-0.331733,0.0356864,141
0.394371,-0.331831,0.0366434,138
0.393679,-0.331115,0.0375161,140
0.394212,-0.331673,0.0385216,134
0.393424,-0.330857,0.0393797,142
0.392446,-0.329844,0.0402117,143
0.392297,-0.329692,0.0411375,145
0.391084,-0.328435,0.0419332,146
0.392389,-0.329794,0.0430361,141
0.390599,-0.327937,0.0437525,143
0.390742,-0.328089,0.0447108,145
0.390213,-0.327542,0.0455809,143
0.38983,-0.327147,0.0464682,144
0.389783,-0.327101,0.0474001,141
0.388306,-0.32557,0.0481309,144
0.388498,-0.325773,0.0490933,146
0.387979,-0.325236,0.0499531,146
0.387036,-0.32426,0.0507475,141
0.387134,-0.324365,0.0516947,140
0.386385,-0.32359,0.0525121,133
0.386062,-0.323256,0.0533925,138
0.385085,-0.322244,0.0541674,137
0.384765,-0.321915,0.0550438,134
0.384213,-0.321345,0.0558806,136
0.383202,-0.320297,0.0566378,136
0.382565,-0.319638,0.0574535,135
0.382573,-0.319649,0.0583777,137
0.382122,-0.319183,0.0592218,140
0.381581,-0.318625,0.0600477,137
0.381225,-0.318258,0.0609045,136
0.381326,-0.318366,0.0618437,142
0.381063,-0.318095,0.0627159,139
0.380801,-0.317825,0.0635872,138
0.379452,-0.316427,0.0642489,140
0.379418,-0.316395,0.0651598,142
0.37916,-0.316129,0.0660264,137
0.378902,-0.315864,0.0668922,148
0.378107,-0.315041,0.0676479,141
0.377226,-0.314129,0.0683822,141
0.377642,-0.314564,0.0693821,141
0.376676,-0.313562,0.0700931,138
0.376646,-0.313535,0.0709994,141
0.376617,-0.313508,0.0719061,142
0.375968,-0.312835,0.072677,142
0.376117,-0.312994,0.0736221,139
0.375957,-0.31283,0.0744989,135
0.375753,-0.312621,0.0753653,134
0.375594,-0.312459,0.0762414,139
0.375259,-0.312113,0.0770762,133
0.375631,-0.312503,0.0780761,130
0.374592,-0.311426,0.0787423,128
0.374744,-0.311587,0.0796901,132
0.375028,-0.311886,0.0806717,136
0.375314,-0.312186,0.0816555,134
0.374762,-0.311615,0.0824327,132
0.375269,-0.312145,0.083474,130
0.37485,-0.311713,0.0842829,127
0.374609,-0.311465,0.0851357,132
0.374676,-0.311538,0.0860679,134
0.374876,-0.311749,0.0870359,131
0.374812,-0.311685,0.0879354,125
0.374441,-0.311302,0.0887524,126
0.375084,-0.311973,0.0898429,126
0.375331,-0.312233,0.0908291,123
0.375579,-0.312494,0.0918175,126
0.374854,-0.311743,0.0925359,123
0.375457,-0.312373,0.0936253,125
0.374689,-0.311578,0.0943283,126
0.375425,-0.312346,0.0954601,125
0.375321,-0.312241,0.0963526,127
0.376062,-0.313014,0.0974925,129
0.375692,-0.312632,0.0983086,123
0.375678,-0.312621,0.0992296,121
0.376378,-0.313351,0.100366,123
0.376053,-0.313017,0.101195,122
0.376085,-0.313054,0.102133,118
0.376074,-0.313045,0.103058,116
0.37584,-0.312805,0.103914,116
0.376275,-0.31326,0.10498,115
0.376355,-0.313345,0.105936,119
0.376927,-0.313943,0.107051,117
0.376739,-0.313751,0.107923,117
0.376775,-0.313792,0.108869,117
0.377216,-0.314253,0.109949,115
0.377028,-0.314061,0.110823,115
0.377291,-0.314337,0.111847,114
0.37733,-0.314381,0.112798,116
0.377459,-0.314518,0.11378,112
0.377679,-0.31475,0.114795,112
0.378352,-0.315453,0.115969,118
0.37794,-0.315028,0.116768,114
0.377891,-0.31498,0.117694,112
0.378658,-0.31578,0.118909,112
0.378701,-0.315827,0.11987,109
0.379336,-0.316491,0.121045,112
0.38002,-0.317205,0.122243,110
0.380156,-0.31735,0.123245,109
0.380248,-0.317448,0.124231,102
0.380523,-0.317738,0.125287,105
0.380524,-0.317741,0.126243,107
0.381632,-0.318898,0.127616,104
0.38131,-0.318566,0.128454,105
0.381359,-0.318619,0.129432,107
0.381037,-0.318288,0.130269,109
0.381735,-0.319017,0.131499,109
0.382343,-0.319652,0.1327,112
0.382347,-0.319659,0.133667,108
0.382165,-0.319474,0.134561,110
0.382403,-0.319724,0.135622,113
0.382736,-0.320073,0.136724,112
0.382369,-0.319694,0.137544,107
0.382609,-0.319947,0.138611,107
0.382663,-0.320006,0.139604,107
0.382904,-0.320261,0.140675,109
0.3831,-0.320467,0.141729,107
0.383061,-0.320431,0.142687,112
0.382883,-0.320248,0.143587,112
0.383974,-0.321386,0.145025,114
0.383749,-0.321155,0.145908,111
0.383336,-0.320729,0.146709,106
0.38377,-0.321184,0.147876,111
0.383311,-0.32071,0.148656,106
0.383182,-0.320578,0.14958,103
0.383241,-0.320643,0.150586,107
0.383395,-0.320807,0.151636,107
0.383456,-0.320873,0.152646,110
0.383611,-0.321038,0.1537,107
0.383201,-0.320614,0.154499,107
0.382981,-0.320388,0.155383,105
0.382573,-0.319967,0.15618,111
0.382119,-0.319499,0.156955,106
0.382463,-0.319859,0.158099,115
0.382197,-0.319586,0.15896,114
0.381839,-0.319217,0.159777,115
0.381903,-0.319286,0.160793,114
0.382248,-0.319648,0.161944,113
0.381937,-0.319329,0.162784,115
0.381114,-0.318475,0.163375,112
0.380573,-0.317916,0.1641,110
0.380266,-0.3176,0.164936,109
0.379821,-0.31714,0.165703,107
0.379516,-0.316826,0.166538,105
0.379119,-0.316416,0.167327,102
0.379323,-0.316632,0.168414,99
0.378927,-0.316223,0.169202,95
0.378349,-0.315625,0.169896,104
0.377634,-0.314885,0.170519,101
0.377884,-0.315148,0.171631,100
0.377584,-0.314839,0.172462,92
0.377284,-0.31453,0.173294,102
0.376712,-0.313938,0.173982,96
0.375823,-0.313017,0.174503,98
0.37589,-0.31309,0.175522,96
0.374916,-0.312079,0.175991,99
0.374441,-0.311589,0.176722,84
0.374689,-0.311849,0.177836,86
0.373273,-0.31038,0.178059,77
0.373564,-0.310686,0.179197,83
0.372647,-0.309735,0.179681,79
0.372002,-0.309067,0.180309,85
0.37198,-0.309047,0.181276,79
0.371337,-0.308381,0.181902,82
0.371139,-0.308178,0.182771,80
0.369488,-0.306464,0.18283,89
0.370346,-0.30736,0.184287,83
0.370061,-0.307067,0.185105,83
0.369645,-0.306637,0.185849,81
0.36945,-0.306437,0.186716,84
0.369298,-0.306283,0.187609,79
0.369016,-0.305992,0.188426,76
0.36856,-0.305521,0.189142,70
0.368759,-0.305732,0.190237,70
0.369223,-0.306217,0.191489,62
0.368024,-0.304973,0.191768,63
0.368748,-0.30573,0.193176,61
