ply
format ascii 1.0
comment Created by CloudCompare v2.11 alpha (Anoia)
comment Created 2025/12/9 20:40
obj_info Generated by CloudCompare!
element vertex 1468
property float x
property float y
property float z
property float scalar_Scalar_field
end_header
0.358906 -0.463142 0.307038 168 
0.358255 -0.463109 0.30778 163 
0.358291 -0.463113 0.308661 162 
0.358727 -0.463138 0.309624 161 
0.359337 -0.463172 0.310625 163 
0.359031 -0.463158 0.311438 159 
0.359874 -0.463205 0.312492 159 
0.36072 -0.463252 0.313551 159 
0.359895 -0.46321 0.314255 160 
0.360281 -0.463233 0.315219 158 
0.361422 -0.463296 0.316349 163 
0.360537 -0.46325 0.317038 162 
0.361217 -0.463289 0.318072 162 
0.360334 -0.463244 0.318759 161 
0.360782 -0.463269 0.319744 164 
0.362046 -0.463339 0.320917 162 
0.361917 -0.463334 0.321775 160 
0.362138 -0.463348 0.322715 157 
0.362068 -0.463346 0.323588 160 
0.362057 -0.463348 0.324475 157 
0.361988 -0.463346 0.325349 156 
0.362212 -0.46336 0.326294 157 
0.362144 -0.463358 0.327169 158 
0.362661 -0.463388 0.328187 156 
0.361952 -0.463352 0.328907 159 
0.361653 -0.463338 0.329726 147 
0.361763 -0.463346 0.330647 152 
0.361465 -0.463332 0.331466 150 
0.361343 -0.463328 0.332329 152 
0.362388 -0.463385 0.333491 153 
0.361449 -0.463337 0.334146 146 
0.361212 -0.463327 0.334981 146 
0.3615 -0.463344 0.335952 146 
0.361147 -0.463327 0.336756 146 
0.360737 -0.463307 0.337545 152 
0.360386 -0.463291 0.338349 152 
0.359631 -0.463252 0.339043 150 
0.359282 -0.463236 0.339844 153 
0.358646 -0.463204 0.340567 151 
0.358012 -0.463172 0.341289 155 
0.35807 -0.463177 0.3422 153 
0.357783 -0.463163 0.343016 152 
0.357841 -0.463169 0.343928 149 
0.357383 -0.463146 0.344695 150 
0.356811 -0.463117 0.345429 149 
0.355956 -0.463074 0.34608 149 
0.355217 -0.463036 0.346762 150 
0.354765 -0.463014 0.347526 147 
0.354314 -0.462992 0.348288 145 
0.353808 -0.462967 0.349033 142 
0.353642 -0.46296 0.349877 154 
0.352799 -0.462917 0.35052 154 
0.352748 -0.462916 0.351398 149 
0.352246 -0.462891 0.35214 147 
0.35124 -0.462839 0.352727 145 
0.351134 -0.462836 0.353587 144 
0.35019 -0.462787 0.354189 142 
0.349416 -0.462747 0.35484 148 
0.349534 -0.462756 0.355768 147 
0.348652 -0.462711 0.356382 145 
0.348216 -0.462689 0.357135 150 
0.348002 -0.46268 0.357958 146 
0.347181 -0.462638 0.358586 144 
0.347079 -0.462634 0.359443 150 
0.346812 -0.462622 0.360247 145 
0.346326 -0.462598 0.360979 148 
0.346115 -0.462589 0.361801 149 
0.34596 -0.462582 0.36264 145 
0.34586 -0.462579 0.363498 149 
0.345761 -0.462576 0.364357 151 
0.34424 -0.462496 0.364738 141 
0.344414 -0.462507 0.365687 139 
0.343934 -0.462484 0.366415 135 
0.343946 -0.462486 0.36731 139 
0.343794 -0.46248 0.368149 135 
0.343099 -0.462445 0.368801 139 
0.343547 -0.462471 0.369849 132 
0.343451 -0.462468 0.370708 141 
0.34341 -0.462468 0.371588 137 
0.343587 -0.462479 0.372545 123 
0.342567 -0.462426 0.373078 116 
0.34269 -0.462435 0.374016 121 
0.343249 -0.462467 0.375113 119 
0.343592 -0.462487 0.376134 121 
0.343608 -0.46249 0.377039 127 
0.343406 -0.462482 0.377865 124 
0.343914 -0.462511 0.378952 113 
0.343877 -0.462511 0.37984 103 
0.344442 -0.462543 0.380953 108 
0.343857 -0.462514 0.381639 102 
0.343274 -0.462485 0.382324 100 
0.344114 -0.462532 0.383545 107 
0.344848 -0.462573 0.384731 117 
0.343933 -0.462526 0.38529 114 
0.344063 -0.462535 0.386248 110 
0.343919 -0.46253 0.387101 112 
0.345759 -0.462631 0.388725 110 
0.345394 -0.462613 0.389496 112 
0.345748 -0.462634 0.390549 104 
0.345162 -0.462605 0.391234 101 
0.346238 -0.462665 0.392576 97 
0.347264 -0.462722 0.393904 100 
0.348297 -0.46278 0.395239 102 
0.347538 -0.462741 0.395857 96 
0.347004 -0.462714 0.396565 92 
0.348543 -0.462799 0.398115 90 
0.347447 -0.462742 0.398594 92 
0.349669 -0.462864 0.400434 91 
0.348681 -0.462813 0.400957 94 
0.349329 -0.46285 0.402157 92 
0.349924 -0.462884 0.403338 88 
0.350067 -0.462894 0.404333 96 
0.350665 -0.462928 0.405521 92 
0.352697 -0.46304 0.40732 86 
0.351526 -0.462979 0.407764 82 
0.352187 -0.463016 0.408989 87 
0.352392 -0.46303 0.410022 85 
0.352713 -0.463049 0.411105 86 
0.35419 -0.463131 0.412694 95 
0.35278 -0.463057 0.41303 94 
0.352584 -0.463049 0.413893 96 
0.35285 -0.463065 0.41496 95 
0.353868 -0.463122 0.416362 87 
0.355649 -0.46322 0.418108 92 
0.354231 -0.463146 0.418433 123 
0.354559 -0.463166 0.419538 94 
0.356115 -0.463252 0.421198 97 
0.355101 -0.463199 0.421702 97 
0.344418 -0.458187 0.00414918 11 
0.386613 -0.460043 -0.0149408 10 
0.348424 -0.458367 0.00414618 10 
0.287233 -0.455679 0.0338362 9 
0.062273 -0.445784 0.137925 10 
0.343332 -0.458149 0.00937019 12 
0.343894 -0.458176 0.0100472 10 
0.346302 -0.458284 0.00987318 10 
0.344854 -0.458223 0.0114812 10 
0.335903 -0.457831 0.0165152 12 
0.346603 -0.458304 0.0125592 12 
0.34432 -0.458206 0.0145342 15 
0.337599 -0.457912 0.0185022 12 
0.341085 -0.458067 0.0178552 13 
0.342082 -0.458113 0.0183352 14 
1.18915 -0.495403 -0.35987 9 
0.344422 -0.458221 0.0191512 14 
0.340691 -0.458058 0.0217262 15 
0.343502 -0.458184 0.0214132 14 
0.342247 -0.458131 0.0228882 17 
0.341164 -0.458085 0.0242812 16 
0.344977 -0.458256 0.0235512 14 
0.341518 -0.458105 0.0259672 15 
0.340115 -0.458045 0.0274872 15 
0.33937 -0.458015 0.0287192 11 
0.344306 -0.458234 0.0275372 15 
0.341737 -0.458123 0.0295432 11 
0.336996 -0.457916 0.0324502 10 
0.335946 -0.457872 0.0337942 12 
0.339176 -0.458016 0.0333522 13 
0.338654 -0.457995 0.0344762 13 
0.348124 -0.458415 0.0314812 12 
0.341176 -0.458111 0.0352532 20 
0.343653 -0.458222 0.0351522 15 
0.34638 -0.458344 0.0349592 17 
0.337402 -0.45795 0.0395022 17 
0.343539 -0.458223 0.0379362 13 
0.339694 -0.458056 0.0403842 18 
0.339982 -0.45807 0.0411712 18 
0.340759 -0.458107 0.0417662 18 
0.341212 -0.458129 0.0424902 21 
0.340798 -0.458113 0.0435552 19 
0.343486 -0.458233 0.0434092 21 
0.338631 -0.458021 0.0461962 19 
0.339564 -0.458064 0.0467312 25 
0.336701 -0.45794 0.0487252 21 
0.34101 -0.458132 0.0479722 22 
0.339039 -0.458047 0.0496172 22 
0.337779 -0.457993 0.0509852 27 
0.344454 -0.45829 0.0493692 27 
0.338894 -0.458047 0.0523472 21 
0.338597 -0.458036 0.0533472 22 
0.339906 -0.458095 0.0537522 25 
0.34063 -0.458129 0.0543772 22 
0.344898 -0.45832 0.0537102 30 
0.34041 -0.458124 0.0562392 23 
0.340651 -0.458136 0.0570422 26 
0.341323 -0.458168 0.0576892 23 
0.340111 -0.458116 0.0590122 25 
0.341159 -0.458165 0.0595262 25 
0.341996 -0.458204 0.0601182 30 
0.340782 -0.458152 0.0614342 30 
0.340809 -0.458155 0.0623102 28 
0.342024 -0.458211 0.0627732 28 
0.344936 -0.458342 0.0626542 29 
0.341756 -0.458203 0.0646372 23 
0.343573 -0.458286 0.0649022 29 
0.342625 -0.458246 0.0661112 31 
0.344667 -0.458338 0.0663082 34 
0.342901 -0.458262 0.0677882 31 
0.342931 -0.458265 0.0686622 28 
0.346677 -0.458433 0.0683042 34 
0.346597 -0.458432 0.0692202 31 
0.345147 -0.458369 0.0705842 32 
0.348151 -0.458504 0.0704932 31 
0.348626 -0.458528 0.0712302 32 
0.346284 -0.458426 0.0728742 35 
0.345111 -0.458376 0.0741342 34 
0.344708 -0.45836 0.0751442 39 
0.346218 -0.458429 0.0755492 32 
0.346252 -0.458432 0.0764222 35 
0.346396 -0.458441 0.0772602 39 
0.347696 -0.4585 0.0777402 38 
0.346192 -0.458436 0.0790872 38 
0.346666 -0.458459 0.0798232 41 
0.347307 -0.458489 0.0805092 44 
0.349334 -0.458581 0.0807792 45 
0.348373 -0.45854 0.0819522 40 
0.347307 -0.458495 0.0831522 47 
0.349334 -0.458587 0.0834322 44 
0.348486 -0.458551 0.0845642 49 
0.349577 -0.458602 0.0851262 44 
0.34945 -0.458598 0.0860452 47 
0.3496 -0.458607 0.0868822 50 
0.350586 -0.458653 0.0874812 53 
0.349736 -0.458617 0.0886052 49 
0.349943 -0.458628 0.0894262 45 
0.351882 -0.458716 0.0897622 49 
0.352765 -0.458757 0.0903992 52 
0.351406 -0.458699 0.0916582 51 
0.35212 -0.458733 0.0923432 48 
0.351324 -0.458699 0.0934412 50 
0.352375 -0.458748 0.0940352 51 
0.352139 -0.458739 0.0949792 52 
0.35252 -0.458758 0.0957572 48 
0.35431 -0.45884 0.0961632 50 
0.353904 -0.458824 0.0971522 50 
0.355649 -0.458903 0.0975782 50 
0.353321 -0.458802 0.0990642 51 
0.353706 -0.458821 0.0998432 53 
0.354091 -0.45884 0.100624 49 
0.354365 -0.458854 0.101433 52 
0.35583 -0.458921 0.101944 57 
0.355652 -0.458915 0.102869 58 
0.357182 -0.458985 0.103371 64 
0.357919 -0.45902 0.104073 60 
0.356314 -0.458951 0.105347 60 
0.35665 -0.458968 0.106145 56 
0.358188 -0.459038 0.106657 60 
0.357725 -0.45902 0.107649 61 
0.35795 -0.459032 0.108476 63 
0.35829 -0.459049 0.109277 64 
0.358918 -0.459079 0.110012 68 
0.35794 -0.459037 0.111118 65 
0.359603 -0.459113 0.111618 66 
0.360063 -0.459136 0.112395 75 
0.35914 -0.459096 0.113484 71 
0.359715 -0.459124 0.114235 72 
0.359945 -0.459136 0.115065 74 
0.360523 -0.459164 0.115818 74 
0.360755 -0.459176 0.116649 79 
0.360583 -0.459171 0.117566 78 
0.360817 -0.459183 0.118396 82 
0.361515 -0.459216 0.119128 77 
0.361054 -0.459198 0.120104 74 
0.360827 -0.459189 0.12103 74 
0.361874 -0.459238 0.121694 74 
0.361821 -0.459238 0.122584 73 
0.361073 -0.459206 0.123613 78 
0.361543 -0.459229 0.124396 76 
0.360855 -0.459201 0.125409 74 
0.361036 -0.459211 0.12625 76 
0.360755 -0.4592 0.127179 76 
0.361631 -0.459241 0.127886 80 
0.362511 -0.459282 0.128594 76 
0.361188 -0.459225 0.12972 71 
0.360218 -0.459184 0.130774 77 
0.36173 -0.459253 0.131367 81 
0.361395 -0.45924 0.132302 82 
0.360772 -0.459215 0.133287 87 
0.36067 -0.459212 0.134176 88 
0.36028 -0.459197 0.135115 86 
0.359205 -0.459151 0.136172 85 
0.360195 -0.459197 0.136868 90 
0.359981 -0.459189 0.137773 93 
0.359997 -0.459192 0.138638 91 
0.359326 -0.459164 0.139617 91 
0.358772 -0.459141 0.140574 88 
0.358562 -0.459134 0.141472 84 
0.359266 -0.459167 0.142222 87 
0.357861 -0.459106 0.14331 94 
0.35771 -0.459101 0.144194 93 
0.357902 -0.459112 0.145025 97 
0.357016 -0.459074 0.146021 98 
0.356981 -0.459075 0.146885 106 
0.356835 -0.45907 0.147765 108 
0.356237 -0.459045 0.14871 110 
0.355754 -0.459026 0.149637 108 
0.356511 -0.459061 0.150382 112 
0.355411 -0.459014 0.151394 110 
0.355605 -0.459025 0.15222 109 
0.355463 -0.45902 0.153092 107 
0.353757 -0.458946 0.154178 113 
0.35384 -0.458952 0.155016 109 
0.354762 -0.458995 0.155742 119 
0.353731 -0.458951 0.156727 114 
0.354095 -0.458969 0.157528 119 
0.352735 -0.45891 0.15855 118 
0.352434 -0.458898 0.159433 118 
0.352023 -0.458882 0.160328 117 
0.352996 -0.458927 0.161053 121 
0.351206 -0.458849 0.162112 121 
0.35168 -0.458872 0.162898 123 
0.350669 -0.458829 0.163857 123 
0.350539 -0.458825 0.164712 126 
0.349862 -0.458796 0.165627 124 
0.349407 -0.458778 0.166515 125 
0.348953 -0.45876 0.1674 123 
0.347741 -0.458707 0.168365 119 
0.347833 -0.458713 0.169188 119 
0.346736 -0.458666 0.170134 116 
0.346452 -0.458655 0.170993 116 
0.346653 -0.458666 0.171803 113 
0.34637 -0.458655 0.17266 116 
0.346142 -0.458647 0.173511 116 
0.346075 -0.458646 0.174346 115 
0.346224 -0.458654 0.17516 116 
0.34632 -0.45866 0.175979 117 
0.346202 -0.458657 0.176818 125 
0.347592 -0.458721 0.177525 117 
0.346505 -0.458674 0.178447 117 
0.347574 -0.458724 0.179187 120 
0.347565 -0.458726 0.180017 119 
0.347936 -0.458744 0.180817 120 
0.347442 -0.458724 0.181685 113 
0.347058 -0.458708 0.182542 120 
0.347429 -0.458727 0.183343 118 
0.347856 -0.458748 0.18414 120 
0.348284 -0.458769 0.184939 123 
0.34866 -0.458788 0.185743 123 
0.34806 -0.458763 0.186613 122 
0.348707 -0.458794 0.1874 118 
0.348542 -0.458788 0.18824 120 
0.348703 -0.458797 0.18906 123 
0.349028 -0.458814 0.18987 126 
0.348919 -0.458811 0.190706 130 
0.349354 -0.458832 0.191512 133 
0.349682 -0.458849 0.192325 129 
0.350229 -0.458875 0.193128 130 
0.350942 -0.458909 0.193925 128 
0.35007 -0.458872 0.194799 129 
0.350292 -0.458884 0.19562 129 
0.350788 -0.458908 0.196429 131 
0.350957 -0.458917 0.197255 129 
0.351566 -0.458946 0.198063 130 
0.351407 -0.458941 0.198902 133 
0.351963 -0.458968 0.199715 133 
0.351805 -0.458963 0.200555 130 
0.352419 -0.458992 0.201368 131 
0.352317 -0.45899 0.202206 131 
0.352216 -0.458987 0.203043 134 
0.352336 -0.458994 0.203874 132 
0.352788 -0.459016 0.204697 139 
0.353076 -0.459031 0.205526 137 
0.354252 -0.459086 0.206336 137 
0.354766 -0.459111 0.207164 140 
0.355114 -0.459129 0.207997 139 
0.355351 -0.459141 0.208832 142 
0.35531 -0.459141 0.209672 143 
0.355772 -0.459164 0.210506 147 
0.356068 -0.459179 0.211343 143 
0.356871 -0.459217 0.212178 152 
0.35717 -0.459233 0.213018 153 
0.357639 -0.459256 0.213859 159 
0.358167 -0.459281 0.214701 160 
0.358639 -0.459304 0.215545 165 
0.35883 -0.459315 0.216391 159 
0.358851 -0.459318 0.217237 163 
0.360296 -0.459385 0.21809 165 
0.358952 -0.459326 0.21893 165 
0.359942 -0.459373 0.219784 163 
0.361396 -0.45944 0.220647 170 
0.360848 -0.459417 0.221491 167 
0.361504 -0.459449 0.22235 166 
0.361703 -0.45946 0.223205 164 
0.362017 -0.459476 0.224062 163 
0.36216 -0.459484 0.224917 164 
0.362131 -0.459485 0.225769 164 
0.363315 -0.45954 0.226648 168 
0.363982 -0.459572 0.22752 171 
0.362567 -0.45951 0.228338 168 
0.361964 -0.459485 0.229174 165 
0.362919 -0.45953 0.230056 163 
0.363473 -0.459557 0.230928 166 
0.362524 -0.459516 0.231751 162 
0.362558 -0.459519 0.232606 162 
0.362708 -0.459528 0.233466 165 
0.363554 -0.459568 0.234354 164 
0.361686 -0.459486 0.235132 163 
0.362991 -0.459547 0.236042 169 
0.36274 -0.459537 0.236885 171 
0.361741 -0.459494 0.237693 175 
0.361378 -0.45948 0.238528 170 
0.361533 -0.459489 0.239389 178 
0.361401 -0.459485 0.240235 179 
0.361614 -0.459496 0.2411 188 
0.361541 -0.459495 0.241949 185 
0.361124 -0.459478 0.242778 183 
0.361225 -0.459484 0.243637 186 
0.360982 -0.459475 0.244475 185 
0.360854 -0.459471 0.24532 186 
0.358675 -0.459375 0.24603 183 
0.359118 -0.459397 0.246909 183 
0.35905 -0.459396 0.247754 183 
0.358756 -0.459384 0.248583 184 
0.357331 -0.459322 0.249329 182 
0.357153 -0.459316 0.250163 182 
0.35754 -0.459335 0.25104 187 
0.35742 -0.459332 0.251878 188 
0.356511 -0.459292 0.252653 180 
0.355439 -0.459246 0.253411 188 
0.356387 -0.459291 0.254336 182 
0.356945 -0.459318 0.255231 183 
0.356547 -0.459302 0.256044 179 
0.356206 -0.459288 0.256861 184 
0.353744 -0.459179 0.257482 182 
0.353741 -0.459181 0.258324 186 
0.353962 -0.459192 0.259189 187 
0.353683 -0.459182 0.260005 186 
0.354016 -0.459199 0.260882 184 
0.353516 -0.459178 0.261676 187 
0.352851 -0.45915 0.262451 184 
0.351581 -0.459094 0.26316 178 
0.350758 -0.459059 0.263913 181 
0.350377 -0.459043 0.264711 178 
0.350764 -0.459063 0.265593 185 
0.350384 -0.459048 0.26639 184 
0.350552 -0.459057 0.267249 181 
0.350228 -0.459044 0.268051 175 
0.349195 -0.458999 0.268769 171 
0.350569 -0.459064 0.269772 167 
0.350137 -0.459046 0.270561 172 
0.350309 -0.459056 0.271423 171 
0.349824 -0.459036 0.272203 173 
0.349341 -0.459015 0.272982 167 
0.350335 -0.459062 0.273951 166 
0.351998 -0.45914 0.275011 169 
0.350576 -0.459077 0.275668 171 
0.350752 -0.459087 0.276535 168 
0.350874 -0.459095 0.277396 175 
0.351106 -0.459107 0.278273 175 
0.350624 -0.459087 0.279051 168 
0.350748 -0.459095 0.279913 172 
0.351258 -0.45912 0.280832 169 
0.350722 -0.459097 0.281601 169 
0.351013 -0.459112 0.28249 171 
0.351195 -0.459122 0.283365 168 
0.35343 -0.459226 0.284552 175 
0.352003 -0.459163 0.285185 176 
0.35291 -0.459206 0.286177 172 
0.352373 -0.459184 0.286944 168 
0.353339 -0.459229 0.28795 170 
0.353304 -0.45923 0.288798 169 
0.353715 -0.45925 0.28972 166 
0.353905 -0.459261 0.290607 166 
0.354319 -0.459282 0.291532 172 
0.354455 -0.45929 0.292413 168 
0.354422 -0.45929 0.293265 165 
0.354223 -0.459283 0.294089 167 
0.355146 -0.459327 0.295109 170 
0.355116 -0.459327 0.295965 170 
0.355086 -0.459328 0.296821 164 
0.355339 -0.459341 0.297728 170 
0.355423 -0.459347 0.298606 165 
0.356186 -0.459384 0.29961 167 
0.356725 -0.45941 0.300575 165 
0.357836 -0.459463 0.30165 166 
0.356446 -0.459402 0.302256 163 
0.357329 -0.459444 0.303292 170 
0.358045 -0.459478 0.3043 165 
0.35825 -0.459489 0.305211 166 
0.358169 -0.459488 0.306067 165 
0.358432 -0.459502 0.306992 159 
0.358582 -0.45951 0.307896 164 
0.359076 -0.459535 0.30887 163 
0.358883 -0.459528 0.309706 160 
0.35892 -0.459532 0.31059 160 
0.359417 -0.459556 0.31157 156 
0.360783 -0.459621 0.312736 163 
0.360765 -0.459622 0.313613 166 
0.359881 -0.459583 0.314305 161 
0.360846 -0.459629 0.315394 160 
0.361177 -0.459646 0.316349 156 
0.361278 -0.459653 0.317255 160 
0.362019 -0.459689 0.318305 159 
0.361713 -0.459677 0.319123 160 
0.36199 -0.459692 0.320072 164 
0.36186 -0.459688 0.32093 165 
0.361556 -0.459676 0.321749 157 
0.362302 -0.459712 0.32281 158 
0.3627 -0.459732 0.323793 161 
0.362221 -0.459712 0.324571 155 
0.362737 -0.459738 0.325585 158 
0.362669 -0.459737 0.326462 159 
0.363599 -0.459781 0.32758 157 
0.363062 -0.459758 0.328344 157 
0.363348 -0.459774 0.32931 160 
0.363576 -0.459786 0.330263 153 
0.363628 -0.45979 0.331173 153 
0.363505 -0.459787 0.33204 155 
0.363617 -0.459794 0.332967 147 
0.363141 -0.459774 0.333745 152 
0.363255 -0.459781 0.334673 144 
0.362429 -0.459746 0.335359 150 
0.362601 -0.459756 0.336303 151 
0.361662 -0.459715 0.336956 157 
0.361952 -0.45973 0.337932 151 
0.360957 -0.459687 0.338566 159 
0.362477 -0.459758 0.339873 157 
0.36078 -0.459683 0.340316 161 
0.36043 -0.459669 0.34112 156 
0.360604 -0.459679 0.342068 159 
0.360023 -0.459654 0.342808 158 
0.35927 -0.459622 0.343498 158 
0.358519 -0.45959 0.344187 158 
0.357886 -0.459563 0.344907 162 
0.357427 -0.459544 0.345674 156 
0.357314 -0.459541 0.34654 160 
0.357088 -0.459532 0.347373 155 
0.356288 -0.459498 0.348039 149 
0.356177 -0.459495 0.348904 148 
0.355609 -0.459471 0.349635 150 
0.355728 -0.459478 0.350568 147 
0.354649 -0.459431 0.351145 162 
0.353802 -0.459394 0.351788 157 
0.353071 -0.459363 0.352464 152 
0.352004 -0.459316 0.353035 151 
0.351785 -0.459308 0.353862 151 
0.352581 -0.459347 0.355002 152 
0.351236 -0.459287 0.355482 154 
0.350738 -0.459266 0.356221 150 
0.351532 -0.459305 0.357365 151 
0.349914 -0.459233 0.35775 148 
0.35009 -0.459243 0.358701 151 
0.349317 -0.45921 0.359349 148 
0.348435 -0.459171 0.35996 151 
0.348111 -0.459158 0.360748 149 
0.347677 -0.459141 0.361501 148 
0.347134 -0.459118 0.362216 151 
0.347365 -0.45913 0.363186 150 
0.347044 -0.459118 0.363974 148 
0.345951 -0.45907 0.364504 141 
0.345907 -0.45907 0.365382 133 
0.346359 -0.459092 0.366429 138 
0.345161 -0.459039 0.366917 131 
0.345063 -0.459037 0.367777 135 
0.344473 -0.459012 0.368469 135 
0.344102 -0.458997 0.369235 138 
0.344772 -0.45903 0.370362 139 
0.344347 -0.459012 0.371109 131 
0.344197 -0.459007 0.371953 132 
0.343773 -0.45899 0.372699 129 
0.344171 -0.45901 0.373737 127 
0.343857 -0.458998 0.374523 125 
0.344147 -0.459013 0.375526 115 
0.344162 -0.459016 0.376431 117 
0.344233 -0.459021 0.377358 115 
0.344086 -0.459017 0.378205 108 
0.344212 -0.459024 0.379154 107 
0.345441 -0.459083 0.380511 106 
0.343973 -0.459018 0.380871 101 
0.343882 -0.459015 0.381741 100 
0.345 -0.459069 0.383067 101 
0.343974 -0.459024 0.383587 101 
0.344488 -0.459049 0.384689 109 
0.344398 -0.459047 0.385563 115 
0.344694 -0.459063 0.386586 110 
0.344825 -0.459071 0.387547 107 
0.346843 -0.459166 0.389243 100 
0.345643 -0.459113 0.389691 105 
0.346332 -0.459146 0.390876 102 
0.348199 -0.459234 0.39253 98 
0.347383 -0.459199 0.393129 92 
0.347407 -0.459202 0.39406 92 
0.349005 -0.459277 0.395622 93 
0.34701 -0.459188 0.395745 95 
0.347483 -0.459212 0.396859 95 
0.349479 -0.459306 0.398597 92 
0.349563 -0.459311 0.399561 94 
0.349591 -0.459315 0.400503 89 
0.350016 -0.459336 0.401611 85 
0.349818 -0.459329 0.402462 89 
0.350814 -0.459377 0.403812 94 
0.350787 -0.459378 0.404738 98 
0.350931 -0.459387 0.405737 92 
0.352049 -0.459441 0.40715 91 
0.352196 -0.459449 0.408155 81 
0.351884 -0.459437 0.408965 85 
0.352721 -0.459478 0.410269 87 
0.353505 -0.459516 0.411554 84 
0.353886 -0.459536 0.412669 90 
0.354269 -0.459556 0.413787 93 
0.355294 -0.459605 0.415189 82 
0.354806 -0.459585 0.415929 93 
0.354609 -0.459578 0.416798 89 
0.354705 -0.459584 0.417797 94 
0.355384 -0.459618 0.419058 124 
0.355363 -0.459619 0.420009 90 
0.354818 -0.459596 0.420723 89 
0.355851 -0.459646 0.422152 93 
0.260993 -0.451671 0.0436792 8 
0.336728 -0.454406 0.00860618 10 
0.346218 -0.454751 0.00505419 13 
0.348714 -0.454843 0.00482818 9 
0.363966 -0.455396 -0.00136182 10 
0.337624 -0.454447 0.0118962 10 
0.297462 -0.452998 0.0314262 11 
0.340034 -0.454538 0.0126362 17 
0.339224 -0.454511 0.0139382 14 
0.338852 -0.454499 0.0150342 11 
0.34604 -0.454761 0.0126872 8 
0.027517 -0.443245 0.154837 12 
0.344769 -0.454719 0.0151382 12 
0.343333 -0.45467 0.0167182 14 
0.343564 -0.45468 0.0175452 12 
0.340057 -0.454555 0.0200362 12 
0.355881 -0.45513 0.0139502 10 
0.348182 -0.454853 0.0182992 18 
0.34544 -0.454756 0.0204392 13 
0.343451 -0.454687 0.0222382 11 
0.348268 -0.454863 0.0210712 14 
0.34525 -0.454756 0.0233112 18 
0.343763 -0.454704 0.0248782 15 
0.345943 -0.454785 0.0248682 15 
0.346906 -0.454822 0.0253852 11 
0.344799 -0.454748 0.0272082 11 
0.346483 -0.454811 0.0274202 19 
0.339022 -0.454543 0.0314802 13 
0.341045 -0.454618 0.0315442 14 
0.343032 -0.454692 0.0316302 10 
0.33853 -0.454531 0.0344092 12 
0.334123 -0.454374 0.0371302 14 
0.338188 -0.454523 0.0363612 18 
0.338259 -0.454527 0.0372362 16 
0.451843 -0.458646 -0.00801781 13 
0.33851 -0.454541 0.0389402 13 
0.342379 -0.454683 0.0382882 16 
0.343219 -0.454715 0.0388622 17 
0.344337 -0.454758 0.0393272 19 
0.341234 -0.454648 0.0414652 19 
0.341525 -0.45466 0.0422552 25 
0.342089 -0.454683 0.0429382 21 
0.339831 -0.454603 0.0447222 20 
0.341313 -0.454659 0.0450472 23 
0.339226 -0.454585 0.0467522 17 
0.343044 -0.454726 0.0461852 26 
0.34078 -0.454645 0.0479512 23 
0.342377 -0.454705 0.0482432 22 
0.343218 -0.454738 0.0488262 21 
0.34313 -0.454737 0.0497602 18 
0.344029 -0.454771 0.0503252 29 
0.343339 -0.454748 0.0514822 23 
0.342 -0.454702 0.0528752 22 
0.346081 -0.454852 0.0522722 26 
0.343629 -0.454765 0.0540702 21 
0.340827 -0.454665 0.0559852 22 
0.341772 -0.454702 0.0565342 27 
0.343429 -0.454764 0.0568312 22 
0.342039 -0.454715 0.0582222 28 
0.343863 -0.454784 0.0584662 29 
0.343834 -0.454785 0.0593702 30 
0.343206 -0.454764 0.0604832 27 
0.343396 -0.454773 0.0613082 26 
0.346111 -0.454874 0.0612562 27 
0.343778 -0.454791 0.0629562 26 
0.344243 -0.45481 0.0636872 25 
0.344929 -0.454837 0.0643432 29 
0.346498 -0.454896 0.0647022 29 
0.343239 -0.454779 0.0666932 39 
0.344687 -0.454834 0.0670942 30 
0.344553 -0.454831 0.0680272 28 
0.344037 -0.454814 0.0690852 30 
0.34456 -0.454835 0.0697982 40 
0.347285 -0.454936 0.0697932 30 
0.345334 -0.454867 0.0713172 31 
0.347237 -0.454939 0.0715882 29 
0.346276 -0.454906 0.0727852 33 
0.3493 -0.455018 0.0727062 37 
0.347721 -0.454962 0.0740992 34 
0.349421 -0.455026 0.0744512 37 
0.34696 -0.454939 0.0761122 37 
0.347657 -0.454966 0.0767802 40 
0.350025 -0.455054 0.0769332 39 
0.348335 -0.454995 0.0783422 38 
0.349259 -0.45503 0.0789452 41 
0.349462 -0.45504 0.0797702 40 
0.351905 -0.455131 0.0799202 37 
0.350651 -0.455087 0.0811862 37 
0.350968 -0.455101 0.0819792 45 
0.348998 -0.455031 0.0834482 46 
0.351885 -0.455138 0.0834832 44 
0.351698 -0.455133 0.0844252 44 
0.351513 -0.455129 0.0853662 47 
0.351608 -0.455134 0.0862242 44 
0.35176 -0.455142 0.0870662 44 
0.352644 -0.455176 0.0877002 43 
0.353474 -0.455208 0.0883512 46 
0.352275 -0.455167 0.0895742 46 
0.352711 -0.455184 0.0903372 47 
0.353429 -0.455213 0.0910222 53 
0.354321 -0.455247 0.0916632 56 
0.353459 -0.455218 0.0927832 52 
0.354237 -0.455248 0.0934562 49 
0.354111 -0.455246 0.0943752 53 
0.355746 -0.455307 0.0948232 54 
0.353241 -0.455218 0.0963722 50 
0.356065 -0.455323 0.0965112 57 
0.355883 -0.455318 0.0974442 54 
0.35536 -0.455301 0.0984642 55 
0.35535 -0.455303 0.0993492 54 
0.356081 -0.455332 0.100046 54 
0.356871 -0.455363 0.100729 56 
0.356977 -0.455368 0.101586 60 
0.356798 -0.455364 0.102515 61 
0.357248 -0.455382 0.103286 58 
0.357986 -0.455411 0.103988 61 
0.358612 -0.455436 0.10472 64 
0.359413 -0.455468 0.105411 62 
0.359003 -0.455455 0.106395 58 
0.35969 -0.455482 0.107116 59 
0.360148 -0.455501 0.107893 63 
0.35945 -0.455477 0.108941 67 
0.36072 -0.455525 0.10953 68 
0.360311 -0.455512 0.110509 67 
0.36083 -0.455533 0.111275 66 
0.361118 -0.455546 0.112094 65 
0.360305 -0.455518 0.113161 71 
0.360131 -0.455514 0.114081 72 
0.361522 -0.455567 0.114656 73 
0.361871 -0.455582 0.115464 66 
0.361988 -0.455588 0.116322 74 
0.362281 -0.455601 0.117142 74 
0.362984 -0.455628 0.117876 78 
0.361412 -0.455573 0.119091 68 
0.361358 -0.455573 0.119983 75 
0.363051 -0.455637 0.120513 72 
0.362121 -0.455605 0.121586 81 
0.362709 -0.455628 0.122347 73 
0.362656 -0.455628 0.123239 78 
0.362546 -0.455626 0.124142 78 
0.362727 -0.455635 0.124986 77 
0.362559 -0.455631 0.125898 68 
0.362976 -0.455648 0.126696 75 
0.362459 -0.455631 0.127674 82 
0.363402 -0.455668 0.128373 82 
0.362886 -0.455651 0.129349 87 
0.362896 -0.455653 0.130224 89 
0.362849 -0.455653 0.13111 85 
0.362686 -0.455649 0.132016 93 
0.362698 -0.455652 0.13289 90 
0.363061 -0.455667 0.133701 97 
0.363074 -0.455669 0.134574 96 
0.363088 -0.455672 0.135446 92 
0.362114 -0.455638 0.136489 87 
0.362246 -0.455645 0.137339 87 
0.362146 -0.455643 0.138228 87 
0.36112 -0.455607 0.139271 91 
0.361311 -0.455616 0.140109 92 
0.360579 -0.455591 0.141098 95 
0.360655 -0.455596 0.141953 96 
0.360271 -0.455584 0.142881 93 
0.360867 -0.455608 0.143654 100 
0.359853 -0.455573 0.144678 96 
0.358386 -0.455521 0.145768 98 
0.358865 -0.45554 0.146557 101 
0.358717 -0.455537 0.147441 106 
0.357771 -0.455504 0.148442 104 
0.358593 -0.455536 0.149181 109 
0.357422 -0.455495 0.15021 103 
0.357051 -0.455483 0.151121 101 
0.356681 -0.455471 0.15203 102 
0.356255 -0.455458 0.152944 99 
0.356508 -0.455469 0.153764 108 
0.355859 -0.455447 0.154706 105 
0.355438 -0.455433 0.155615 112 
0.355298 -0.45543 0.156485 115 
0.354431 -0.4554 0.157449 112 
0.354798 -0.455415 0.158251 114 
0.353767 -0.455379 0.15923 118 
0.353186 -0.45536 0.16015 118 
0.353552 -0.455375 0.160951 119 
0.353808 -0.455387 0.161767 119 
0.352784 -0.455351 0.162734 120 
0.351988 -0.455323 0.163671 117 
0.35158 -0.45531 0.164561 120 
0.35057 -0.455275 0.165516 121 
0.350112 -0.45526 0.166406 123 
0.350258 -0.455267 0.167228 123 
0.349037 -0.455224 0.168197 119 
0.34902 -0.455225 0.169034 113 
0.348731 -0.455216 0.1699 111 
0.348661 -0.455216 0.170741 111 
0.348592 -0.455215 0.171583 105 
0.34945 -0.455248 0.172333 115 
0.348782 -0.455226 0.173232 114 
0.349478 -0.455253 0.174001 111 
0.349138 -0.455243 0.174867 115 
0.348473 -0.45522 0.17576 109 
0.348461 -0.455221 0.176594 115 
0.348777 -0.455235 0.177399 116 
0.348985 -0.455244 0.178214 110 
0.349412 -0.455262 0.179012 114 
0.34913 -0.455254 0.179868 115 
0.348632 -0.455237 0.18074 116 
0.34906 -0.455255 0.181538 119 
0.349326 -0.455266 0.182351 115 
0.350084 -0.455296 0.183127 122 
0.350243 -0.455304 0.18395 123 
0.349855 -0.455292 0.184811 124 
0.34996 -0.455297 0.185636 126 
0.350066 -0.455303 0.186462 123 
0.350336 -0.455315 0.187278 125 
0.351267 -0.455351 0.188054 124 
0.35165 -0.455368 0.188865 123 
0.35209 -0.455386 0.189675 123 
0.351483 -0.455365 0.190546 129 
0.351758 -0.455377 0.191365 129 
0.351484 -0.455369 0.192215 128 
0.352091 -0.455393 0.193019 127 
0.353199 -0.455436 0.1938 129 
0.351931 -0.455391 0.194697 128 
0.351989 -0.455395 0.19553 133 
0.353209 -0.455442 0.196312 132 
0.353048 -0.455438 0.197156 129 
0.353164 -0.455444 0.197988 130 
0.353892 -0.455473 0.198797 132 
0.354288 -0.45549 0.199621 132 
0.354184 -0.455488 0.200463 131 
0.354247 -0.455492 0.2013 137 
0.354813 -0.455515 0.202121 142 
0.355158 -0.45553 0.202951 140 
0.355056 -0.455528 0.203794 139 
0.355907 -0.455561 0.204612 138 
0.355806 -0.455559 0.205456 145 
0.35745 -0.455622 0.206262 144 
0.356111 -0.455575 0.207132 140 
0.356743 -0.4556 0.207963 144 
0.356982 -0.455611 0.208802 145 
0.357166 -0.455619 0.209642 146 
0.357916 -0.455649 0.210477 146 
0.358442 -0.455671 0.211316 152 
0.358516 -0.455675 0.212161 151 
0.35859 -0.45568 0.213007 152 
0.359291 -0.455708 0.21385 153 
0.359139 -0.455704 0.214697 157 
0.358988 -0.455701 0.215545 161 
0.360492 -0.455758 0.216393 160 
0.359599 -0.455727 0.21724 159 
0.361223 -0.455789 0.218095 166 
0.361648 -0.455807 0.218949 171 
0.361902 -0.455818 0.219803 168 
0.361927 -0.455821 0.220655 166 
0.362067 -0.455828 0.221509 164 
0.361747 -0.455818 0.222358 161 
0.362061 -0.455832 0.223215 165 
0.362262 -0.455841 0.224071 166 
0.362232 -0.455842 0.224923 168 
0.363823 -0.455903 0.22581 170 
0.363099 -0.455878 0.22665 168 
0.362262 -0.455849 0.227484 171 
0.36287 -0.455874 0.228353 173 
0.363772 -0.455909 0.229234 170 
0.36392 -0.455917 0.230095 166 
0.363141 -0.45589 0.230926 169 
0.363117 -0.455891 0.231781 171 
0.363151 -0.455894 0.232637 174 
0.362666 -0.455878 0.233475 174 
0.362124 -0.455859 0.234308 172 
0.363375 -0.455908 0.235214 167 
0.361679 -0.455847 0.235996 171 
0.361084 -0.455826 0.236823 171 
0.360778 -0.455817 0.237661 170 
0.36266 -0.455889 0.238605 177 
0.361431 -0.455845 0.239398 180 
0.361069 -0.455834 0.240232 182 
0.36111 -0.455837 0.241087 188 
0.36121 -0.455843 0.241946 177 
0.361137 -0.455842 0.242795 185 
0.360664 -0.455826 0.24362 185 
0.360765 -0.455832 0.244479 181 
0.358867 -0.455763 0.245211 184 
0.358003 -0.455733 0.246004 180 
0.357482 -0.455715 0.246817 179 
0.357528 -0.455719 0.247667 176 
0.357631 -0.455725 0.248523 185 
0.357678 -0.455728 0.249374 183 
0.357499 -0.455723 0.250209 183 
0.355913 -0.455666 0.250936 183 
0.355737 -0.455661 0.251767 183 
0.356179 -0.45568 0.252648 188 
0.357358 -0.455726 0.253592 189 
0.3569 -0.455711 0.254403 184 
0.357122 -0.455721 0.25527 181 
0.354031 -0.455607 0.255846 183 
0.354362 -0.455622 0.25672 182 
0.354024 -0.455611 0.257533 186 
0.352688 -0.455563 0.258252 179 
0.353019 -0.455577 0.259125 180 
0.352574 -0.455562 0.259924 183 
0.353128 -0.455585 0.260821 185 
0.351523 -0.455527 0.261502 182 
0.351689 -0.455535 0.26236 180 
0.350809 -0.455504 0.263108 178 
0.350317 -0.455487 0.263895 179 
0.350429 -0.455494 0.264747 176 
0.349938 -0.455477 0.265532 173 
0.34934 -0.455457 0.266304 171 
0.349782 -0.455475 0.267192 174 
0.349677 -0.455473 0.268019 175 
0.350121 -0.455492 0.268911 170 
0.350182 -0.455496 0.269759 176 
0.350025 -0.455492 0.270581 171 
0.349977 -0.455492 0.271416 171 
0.349492 -0.455476 0.272196 170 
0.34972 -0.455486 0.273066 169 
0.349729 -0.455488 0.273908 165 
0.350233 -0.455509 0.274816 172 
0.350518 -0.455522 0.275697 174 
0.35064 -0.455528 0.276557 177 
0.350597 -0.455528 0.277396 168 
0.352378 -0.455597 0.278487 169 
0.351561 -0.455568 0.279221 165 
0.351353 -0.455562 0.280039 170 
0.350981 -0.45555 0.280832 166 
0.351052 -0.455555 0.281689 167 
0.350902 -0.455551 0.282515 164 
0.351748 -0.455585 0.283489 160 
0.35182 -0.45559 0.28435 167 
0.352726 -0.455625 0.285339 167 
0.352245 -0.455609 0.286116 167 
0.352931 -0.455637 0.287076 172 
0.353342 -0.455654 0.287995 166 
0.35353 -0.455663 0.288879 167 
0.353775 -0.455674 0.289775 166 
0.354919 -0.455719 0.29082 169 
0.353596 -0.455672 0.291458 163 
0.353955 -0.455687 0.292375 170 
0.354315 -0.455702 0.293294 171 
0.354452 -0.45571 0.294177 172 
0.354871 -0.455727 0.295109 168 
0.354897 -0.45573 0.295975 169 
0.357244 -0.45582 0.297255 173 
0.356817 -0.455806 0.298044 164 
0.357586 -0.455837 0.29905 171 
0.357159 -0.455823 0.299839 169 
0.35736 -0.455832 0.300744 167 
0.357618 -0.455844 0.301661 168 
0.357535 -0.455843 0.302515 170 
0.358196 -0.45587 0.303511 172 
0.358572 -0.455886 0.304455 167 
0.358319 -0.455878 0.305278 162 
0.358582 -0.45589 0.306203 163 
0.358674 -0.455896 0.307095 162 
0.359629 -0.455933 0.308162 160 
0.359838 -0.455943 0.309081 163 
0.360453 -0.455968 0.310084 163 
0.359509 -0.455935 0.310768 159 
0.360877 -0.455988 0.311932 160 
0.360916 -0.455992 0.312821 161 
0.36142 -0.456013 0.31381 172 
0.361345 -0.456012 0.314678 161 
0.361037 -0.456002 0.315495 162 
0.361602 -0.456026 0.316502 160 
0.361412 -0.45602 0.317345 158 
0.361804 -0.456037 0.318318 163 
0.363018 -0.456085 0.319477 158 
0.363121 -0.456091 0.32039 160 
0.36305 -0.45609 0.321264 160 
0.363801 -0.456121 0.322328 161 
0.364084 -0.456133 0.323286 158 
0.363014 -0.456095 0.32393 160 
0.362475 -0.456077 0.324696 159 
0.363169 -0.456105 0.325753 157 
0.363042 -0.456102 0.326616 159 
0.363268 -0.456113 0.327565 158 
0.363672 -0.45613 0.328559 160 
0.363017 -0.456107 0.329295 156 
0.363128 -0.456113 0.330219 154 
0.36318 -0.456117 0.331129 163 
0.363527 -0.456132 0.332114 157 
0.363168 -0.456121 0.332922 149 
0.363105 -0.456121 0.333805 156 
0.362689 -0.456107 0.334598 161 
0.362979 -0.45612 0.335572 154 
0.362976 -0.456122 0.336472 152 
0.363386 -0.456139 0.337481 154 
0.362442 -0.456106 0.338134 161 
0.362382 -0.456105 0.339019 160 
0.362734 -0.456121 0.340016 163 
0.361032 -0.456059 0.340458 163 
0.360798 -0.456052 0.341295 166 
0.36039 -0.456038 0.342084 166 
0.360566 -0.456047 0.343034 164 
0.359984 -0.456027 0.343773 160 
0.359869 -0.456025 0.344643 163 
0.359639 -0.456018 0.345479 160 
0.359293 -0.456007 0.346283 164 
0.3586 -0.455983 0.346986 160 
0.357909 -0.455959 0.347689 156 
0.356932 -0.455924 0.348306 158 
0.356994 -0.455928 0.349223 158 
0.356136 -0.455898 0.349871 158 
0.356141 -0.4559 0.350772 150 
0.355402 -0.455874 0.351452 151 
0.35535 -0.455874 0.352335 153 
0.354443 -0.455842 0.352961 154 
0.354107 -0.455831 0.353758 157 
0.353716 -0.455818 0.354537 156 
0.353552 -0.455814 0.355386 155 
0.352087 -0.455761 0.355831 148 
0.351137 -0.455727 0.356431 148 
0.350695 -0.455712 0.357188 152 
0.350534 -0.455708 0.358034 146 
0.350206 -0.455698 0.358825 150 
0.349823 -0.455685 0.359599 149 
0.349832 -0.455688 0.360498 151 
0.348781 -0.45565 0.361055 147 
0.34879 -0.455652 0.361954 148 
0.347854 -0.455619 0.362543 149 
0.347865 -0.455621 0.363442 154 
0.347432 -0.455607 0.364194 149 
0.347055 -0.455594 0.364964 142 
0.346402 -0.455572 0.365641 136 
0.346027 -0.45556 0.36641 129 
0.345929 -0.455558 0.367272 133 
0.345721 -0.455552 0.368097 132 
0.345568 -0.455548 0.368941 128 
0.346189 -0.455574 0.370052 125 
0.345099 -0.455534 0.370572 132 
0.344838 -0.455527 0.371378 127 
0.344523 -0.455517 0.372165 122 
0.344977 -0.455536 0.373223 113 
0.345047 -0.455541 0.374148 109 
0.344402 -0.455518 0.374818 101 
0.346017 -0.455581 0.376299 101 
0.344159 -0.455513 0.37653 104 
0.345553 -0.455568 0.377939 95 
0.344467 -0.455529 0.378446 95 
0.34498 -0.45555 0.379538 94 
0.344888 -0.455549 0.380409 93 
0.345403 -0.45557 0.381507 90 
0.34642 -0.455611 0.382795 87 
0.346829 -0.455629 0.383859 87 
0.345129 -0.455566 0.384128 96 
0.345315 -0.455575 0.385109 94 
0.347171 -0.455648 0.386728 102 
0.345745 -0.455596 0.387096 96 
0.346545 -0.455628 0.388318 101 
0.346344 -0.455623 0.389156 96 
0.345977 -0.455611 0.389929 101 
0.347451 -0.455669 0.391424 96 
0.347307 -0.455666 0.392287 90 
0.347835 -0.455688 0.393418 91 
0.348535 -0.455716 0.394619 82 
0.348279 -0.455709 0.395442 83 
0.34932 -0.455751 0.396786 86 
0.349403 -0.455756 0.397748 84 
0.349034 -0.455744 0.398528 83 
0.350423 -0.455799 0.400025 80 
0.351478 -0.455841 0.401392 82 
0.349911 -0.455784 0.401681 83 
0.352455 -0.455883 0.403671 85 
0.350881 -0.455825 0.403955 83 
0.352172 -0.455876 0.405434 82 
0.352088 -0.455875 0.40634 85 
0.35385 -0.455944 0.408028 90 
0.352439 -0.455893 0.408375 84 
0.353453 -0.455933 0.409753 85 
0.35395 -0.455954 0.410915 77 
0.353694 -0.455947 0.411754 81 
0.354542 -0.455981 0.413072 83 
0.353648 -0.455949 0.413635 87 
0.354671 -0.455991 0.415035 86 
0.354533 -0.455987 0.415929 90 
0.354453 -0.455987 0.41685 87 
0.35601 -0.456048 0.418498 86 
0.355696 -0.456038 0.419319 117 
0.355911 -0.456049 0.420377 95 
0.357186 -0.4561 0.421914 90 
0.356636 -0.456081 0.422631 96 
0.043624 -0.442679 0.144487 9 
0.310045 -0.450207 0.0210992 11 
0.424519 -0.453441 -0.0321088 9 
0.345405 -0.451209 0.00623717 11 
0.34586 -0.451224 0.00697018 12 
0.139638 -0.445399 0.103229 9 
0.045616 -0.44274 0.145536 8 
0.336626 -0.45097 0.0140642 12 
0.067701 -0.443367 0.13665 8 
0.348377 -0.451306 0.0105362 13 
0.347702 -0.451289 0.0117882 14 
0.345456 -0.451228 0.0137502 14 
0.345184 -0.451222 0.0148102 12 
0.349713 -0.451352 0.0137132 11 
0.345201 -0.451227 0.0166742 10 
0.351159 -0.451397 0.0149582 11 
0.024682 -0.442153 0.157228 10 
0.352788 -0.451448 0.0161322 16 
0.346866 -0.451282 0.0196772 13 
0.340719 -0.45111 0.0232942 12 
0.343594 -0.451194 0.0229672 19 
0.343606 -0.451196 0.0238872 13 
0.346909 -0.451292 0.0233912 10 
0.346191 -0.451274 0.0246292 13 
0.344864 -0.451238 0.0261232 18 
0.345825 -0.451267 0.0266412 13 
0.345336 -0.451256 0.0277732 11 
0.34385 -0.451216 0.0293212 13 
0.342761 -0.451187 0.0306972 12 
0.344765 -0.451246 0.0307802 12 
0.346788 -0.451305 0.0308642 14 
0.340509 -0.451129 0.0343722 12 
0.344533 -0.451245 0.0336342 15 
0.344217 -0.451238 0.0346802 13 
0.347296 -0.451328 0.0343472 17 
0.339546 -0.45111 0.0383962 13 
0.340323 -0.451134 0.0389882 16 
0.339529 -0.451114 0.0402112 17 
0.346635 -0.451317 0.0382902 18 
0.345705 -0.451293 0.0395742 17 
0.345668 -0.451294 0.0405032 17 
0.343696 -0.45124 0.0421882 14 
0.345539 -0.451295 0.0423792 19 
0.339593 -0.451128 0.0455922 19 
0.339668 -0.451132 0.0464612 20 
0.34088 -0.451168 0.0468952 24 
0.342208 -0.451208 0.0472882 26 
0.342011 -0.451204 0.0482642 23 
0.34329 -0.451243 0.0486812 22 
0.342601 -0.451225 0.0498422 15 
0.341805 -0.451205 0.0510382 20 
0.343029 -0.451242 0.0514822 19 
0.344754 -0.451293 0.0517442 24 
0.342311 -0.451225 0.0535422 28 
0.34657 -0.451349 0.0528832 24 
0.346261 -0.451342 0.0538992 26 
0.343203 -0.451257 0.0559062 27 
0.343501 -0.451267 0.0566942 23 
0.343636 -0.451273 0.0575412 26 
0.345144 -0.451318 0.0579002 23 
0.346274 -0.451352 0.0583992 27 
0.344701 -0.451309 0.0598492 26 
0.352158 -0.451524 0.0581412 25 
0.346298 -0.451359 0.0610842 24 
0.348772 -0.451432 0.0611262 28 
0.34674 -0.451376 0.0627242 27 
0.349499 -0.451456 0.0626792 30 
0.344922 -0.451328 0.0651312 27 
0.348883 -0.451443 0.0646872 25 
0.348298 -0.451428 0.0657802 26 
0.347827 -0.451417 0.0668332 35 
0.348469 -0.451437 0.0675152 31 
0.345181 -0.451345 0.0694922 30 
0.347696 -0.451419 0.0695572 31 
0.347949 -0.451428 0.0703662 32 
0.348704 -0.451452 0.0710142 32 
0.350189 -0.451496 0.0714292 37 
0.346661 -0.451398 0.0734502 38 
0.349079 -0.451469 0.0735702 35 
0.348444 -0.451453 0.0746612 34 
0.348089 -0.451444 0.0756622 40 
0.350354 -0.451511 0.0758442 38 
0.350612 -0.451521 0.0766562 38 
0.350031 -0.451506 0.0777252 36 
0.351188 -0.451541 0.0782622 37 
0.351617 -0.451555 0.0790222 40 
0.351315 -0.451549 0.0800042 41 
0.351464 -0.451555 0.0808502 41 
0.352855 -0.451597 0.0813252 40 
0.352497 -0.451589 0.0823232 46 
0.354178 -0.451639 0.0827192 47 
0.351896 -0.451575 0.0842782 52 
0.352724 -0.451601 0.0849252 49 
0.35282 -0.451606 0.0857862 44 
0.352521 -0.451599 0.0867602 46 
0.352448 -0.451599 0.0876682 47 
0.352489 -0.451602 0.0885422 44 
0.35531 -0.451685 0.0886382 41 
0.354667 -0.451669 0.0897072 51 
0.354539 -0.451667 0.0906312 52 
0.354411 -0.451666 0.0915542 48 
0.354852 -0.45168 0.0923202 52 
0.355693 -0.451706 0.0929802 50 
0.355566 -0.451705 0.0939022 54 
0.356926 -0.451746 0.0944272 53 
0.355541 -0.451708 0.0956822 52 
0.356902 -0.451749 0.0962112 54 
0.356032 -0.451726 0.0973252 52 
0.357167 -0.451761 0.0979172 56 
0.357616 -0.451776 0.0986892 55 
0.359453 -0.45183 0.0991082 57 
0.356908 -0.451759 0.100642 60 
0.358163 -0.451797 0.101212 59 
0.35735 -0.451776 0.102301 66 
0.359128 -0.451829 0.102746 63 
0.359352 -0.451837 0.103579 65 
0.359229 -0.451836 0.104496 61 
0.359627 -0.451849 0.105286 67 
0.361365 -0.451901 0.105757 67 
0.361826 -0.451917 0.106536 64 
0.362055 -0.451925 0.107372 66 
0.361758 -0.451919 0.108331 67 
0.361637 -0.451917 0.109247 65 
0.3621 -0.451933 0.110028 70 
0.361864 -0.451928 0.11097 72 
0.362387 -0.451945 0.111738 71 
0.361976 -0.451935 0.112718 75 
0.362092 -0.45194 0.113578 74 
0.362325 -0.451949 0.114412 71 
0.362969 -0.45197 0.115158 77 
0.363968 -0.452 0.115828 79 
0.363263 -0.451982 0.116866 71 
0.363324 -0.451986 0.117739 72 
0.363208 -0.451985 0.118649 73 
0.364681 -0.452029 0.119226 77 
0.36498 -0.45204 0.120051 76 
0.364865 -0.452038 0.120962 74 
0.364516 -0.45203 0.121919 75 
0.363404 -0.452 0.123027 71 
0.364762 -0.452041 0.123639 73 
0.3653 -0.452059 0.124418 71 
0.364128 -0.452027 0.125532 75 
0.365137 -0.452058 0.126219 79 
0.364144 -0.452031 0.127293 76 
0.364623 -0.452047 0.128084 76 
0.365163 -0.452065 0.128864 74 
0.364702 -0.452054 0.129832 78 
0.365302 -0.452073 0.130603 74 
0.365372 -0.452077 0.131472 76 
0.364383 -0.45205 0.132531 86 
0.364866 -0.452066 0.133324 93 
0.364174 -0.452048 0.134326 90 
0.363719 -0.452037 0.135283 88 
0.36391 -0.452045 0.136127 85 
0.364688 -0.452069 0.13687 84 
0.363064 -0.452024 0.138022 91 
0.363372 -0.452035 0.138845 94 
0.363098 -0.452029 0.139764 93 
0.362708 -0.45202 0.140701 94 
0.362261 -0.452009 0.141645 97 
0.361757 -0.451996 0.142596 97 
0.36201 -0.452005 0.143426 96 
0.361393 -0.451989 0.144391 96 
0.360894 -0.451977 0.145336 96 
0.360627 -0.451971 0.146243 98 
0.360074 -0.451957 0.147192 95 
0.359867 -0.451953 0.148087 93 
0.359719 -0.451951 0.148972 92 
0.358998 -0.451932 0.149939 98 
0.358337 -0.451915 0.150894 99 
0.35785 -0.451902 0.151822 101 
0.358105 -0.451912 0.152645 102 
0.357847 -0.451906 0.153539 109 
0.35742 -0.451896 0.154454 106 
0.356599 -0.451874 0.15542 106 
0.357308 -0.451896 0.156182 110 
0.355979 -0.45186 0.157209 111 
0.355334 -0.451843 0.158144 114 
0.355196 -0.451841 0.159013 118 
0.354442 -0.451821 0.159957 113 
0.354531 -0.451825 0.160795 120 
0.354228 -0.451819 0.16168 120 
0.353312 -0.451794 0.162636 123 
0.353235 -0.451794 0.163491 120 
0.352936 -0.451787 0.164371 118 
0.352249 -0.451769 0.165293 119 
0.351732 -0.451756 0.166193 117 
0.351382 -0.451747 0.167073 116 
0.35175 -0.45176 0.167874 116 
0.351126 -0.451744 0.168781 111 
0.351164 -0.451747 0.169617 116 
0.351479 -0.451758 0.170425 113 
0.351188 -0.451751 0.171294 111 
0.351725 -0.451769 0.172081 112 
0.350664 -0.45174 0.173023 119 
0.350101 -0.451725 0.173913 112 
0.350473 -0.451738 0.174716 114 
0.35046 -0.451739 0.175554 111 
0.350779 -0.451751 0.176363 110 
0.350933 -0.451757 0.177186 110 
0.351033 -0.451762 0.178015 114 
0.351354 -0.451773 0.178826 118 
0.351621 -0.451783 0.179642 116 
0.352442 -0.451808 0.180415 115 
0.351936 -0.451796 0.181293 119 
0.351984 -0.451799 0.182128 115 
0.353419 -0.451843 0.182861 115 
0.353525 -0.451848 0.183694 118 
0.352908 -0.451832 0.184577 124 
0.352515 -0.451822 0.185443 124 
0.352789 -0.451832 0.186263 123 
0.353396 -0.451851 0.187063 124 
0.353393 -0.451853 0.187902 123 
0.353391 -0.451855 0.188742 122 
0.353057 -0.451847 0.189601 126 
0.353334 -0.451857 0.190424 126 
0.353668 -0.451869 0.191244 124 
0.354114 -0.451884 0.19206 129 
0.354059 -0.451884 0.192903 132 
0.354173 -0.451889 0.193737 126 
0.354455 -0.451899 0.194564 132 
0.354402 -0.4519 0.195406 130 
0.355189 -0.451925 0.196212 135 
0.355362 -0.451932 0.197046 133 
0.355535 -0.451939 0.197881 130 
0.355205 -0.451931 0.198736 130 
0.355828 -0.451951 0.199554 141 
0.355723 -0.45195 0.2004 138 
0.355619 -0.451949 0.201245 139 
0.356358 -0.451972 0.202065 136 
0.356593 -0.451981 0.202901 141 
0.357224 -0.452001 0.203727 140 
0.356896 -0.451994 0.20458 142 
0.357982 -0.452027 0.205398 145 
0.357994 -0.452029 0.206244 144 
0.356763 -0.451995 0.207114 145 
0.357002 -0.452004 0.207953 148 
0.358148 -0.45204 0.208779 149 
0.358447 -0.45205 0.20962 151 
0.35869 -0.452059 0.210464 150 
0.358649 -0.45206 0.211311 154 
0.36078 -0.452124 0.21214 154 
0.360282 -0.452112 0.212994 163 
0.360931 -0.452133 0.213841 161 
0.360664 -0.452127 0.214692 159 
0.361086 -0.452141 0.215542 160 
0.360877 -0.452137 0.216393 166 
0.360955 -0.452141 0.217244 164 
0.361553 -0.452161 0.218098 164 
0.361173 -0.452151 0.218948 165 
0.362754 -0.4522 0.219812 167 
0.362143 -0.452184 0.220661 166 
0.361822 -0.452176 0.22151 167 
0.362714 -0.452204 0.222375 163 
0.363088 -0.452217 0.223235 167 
0.362768 -0.45221 0.224085 168 
0.362102 -0.452192 0.224927 161 
0.361496 -0.452176 0.225767 171 
0.363492 -0.452237 0.226666 167 
0.36329 -0.452233 0.227517 171 
0.363205 -0.452232 0.22837 169 
0.362715 -0.45222 0.229212 172 
0.362227 -0.452207 0.230052 172 
0.361971 -0.452202 0.230898 173 
0.362872 -0.45223 0.231783 170 
0.361866 -0.452202 0.232602 171 
0.361728 -0.4522 0.233451 174 
0.361591 -0.452198 0.234299 176 
0.361051 -0.452184 0.23513 167 
0.360858 -0.452181 0.235974 169 
0.360609 -0.452175 0.236815 172 
0.361337 -0.452198 0.237701 174 
0.360399 -0.452173 0.238509 180 
0.360267 -0.452171 0.239354 182 
0.360479 -0.452179 0.240217 180 
0.360807 -0.452191 0.241087 182 
0.359646 -0.452158 0.241875 182 
0.359402 -0.452153 0.242712 184 
0.359217 -0.45215 0.243551 182 
0.358008 -0.452116 0.244327 187 
0.357655 -0.452107 0.245153 187 
0.357926 -0.452117 0.246019 187 
0.357235 -0.452099 0.246821 185 
0.357451 -0.452107 0.247683 182 
0.357157 -0.4521 0.24851 185 
0.356978 -0.452097 0.249345 183 
0.356913 -0.452097 0.250188 187 
0.356228 -0.452079 0.250983 182 
0.356559 -0.45209 0.251856 185 
0.356778 -0.452099 0.252721 184 
0.356546 -0.452094 0.25355 186 
0.356371 -0.452091 0.254383 181 
0.355241 -0.452059 0.255134 186 
0.354676 -0.452044 0.25593 179 
0.353723 -0.452018 0.25669 181 
0.355343 -0.452068 0.257682 181 
0.35355 -0.452017 0.258361 188 
0.353493 -0.452017 0.259199 185 
0.352824 -0.451999 0.259978 184 
0.352935 -0.452004 0.260832 181 
0.351273 -0.451957 0.261507 181 
0.351771 -0.451974 0.262399 180 
0.350394 -0.451935 0.263097 181 
0.350121 -0.451929 0.263907 176 
0.352276 -0.451995 0.26498 173 
0.350072 -0.451931 0.265581 170 
0.35013 -0.451935 0.266427 174 
0.35019 -0.451939 0.267274 169 
0.349701 -0.451926 0.268058 170 
0.349871 -0.451933 0.268918 167 
0.350317 -0.451948 0.269812 170 
0.350269 -0.451949 0.270648 172 
0.350496 -0.451957 0.271518 168 
0.35045 -0.451958 0.272355 163 
0.350348 -0.451957 0.273185 162 
0.351296 -0.451987 0.27415 166 
0.350754 -0.451972 0.274924 171 
0.351151 -0.451986 0.275822 168 
0.351993 -0.452013 0.276781 169 
0.35123 -0.451992 0.277524 165 
0.351685 -0.452008 0.278434 163 
0.350538 -0.451976 0.27912 168 
0.350607 -0.45198 0.279976 164 
0.351728 -0.452015 0.280984 168 
0.350802 -0.451989 0.281698 163 
0.35115 -0.452001 0.282597 162 
0.351609 -0.452017 0.283514 162 
0.351405 -0.452013 0.284333 163 
0.352311 -0.452042 0.285322 166 
0.352107 -0.452037 0.286142 170 
0.352071 -0.452038 0.286988 171 
0.353653 -0.452087 0.288093 169 
0.35401 -0.4521 0.289006 163 
0.353639 -0.452091 0.289802 160 
0.354278 -0.452111 0.290764 165 
0.354245 -0.452112 0.291617 168 
0.354718 -0.452128 0.292555 162 
0.354855 -0.452134 0.293438 165 
0.354767 -0.452134 0.294283 161 
0.354399 -0.452125 0.29508 165 
0.355383 -0.452156 0.296114 166 
0.356941 -0.452204 0.297255 167 
0.356685 -0.452198 0.298075 170 
0.356713 -0.452201 0.298946 164 
0.356402 -0.452194 0.299756 163 
0.357399 -0.452226 0.300808 168 
0.357487 -0.45223 0.301693 167 
0.35769 -0.452238 0.302601 165 
0.357893 -0.452246 0.303511 168 
0.357869 -0.452247 0.304378 161 
0.35836 -0.452264 0.305346 167 
0.359949 -0.452313 0.306532 159 
0.359522 -0.452302 0.307324 166 
0.359846 -0.452314 0.308266 160 
0.360577 -0.452338 0.309292 162 
0.360905 -0.45235 0.310239 164 
0.361292 -0.452363 0.3112 165 
0.360575 -0.452344 0.311932 156 
0.361137 -0.452362 0.312932 160 
0.361526 -0.452376 0.313897 162 
0.362794 -0.452416 0.315053 162 
0.3619 -0.452391 0.315747 160 
0.361942 -0.452394 0.316642 160 
0.361693 -0.452389 0.317473 160 
0.362263 -0.452408 0.318486 157 
0.3626 -0.45242 0.31945 160 
0.362527 -0.45242 0.320323 152 
0.362455 -0.45242 0.321197 157 
0.364031 -0.452469 0.32245 162 
0.362314 -0.45242 0.322945 158 
0.362889 -0.452439 0.323971 155 
0.362937 -0.452442 0.324875 159 
0.363045 -0.452447 0.325795 164 
0.363212 -0.452454 0.326729 161 
0.363615 -0.452468 0.327722 156 
0.364198 -0.452488 0.328761 159 
0.363718 -0.452476 0.329541 157 
0.364895 -0.452513 0.330731 163 
0.364948 -0.452516 0.331645 158 
0.36364 -0.452479 0.332218 158 
