0.47423,0.115189,0.0889536,130
0.474586,0.115232,0.0899388,126
0.474626,0.115235,0.0908655,124
0.474666,0.115238,0.0917929,123
0.474708,0.115241,0.0927212,122
0.475385,0.115326,0.0937756,123
0.475874,0.115386,0.0947956,118
0.475918,0.11539,0.0957285,116
0.476665,0.115484,0.096805,119
0.477609,0.115602,0.097925,118
0.478493,0.115713,0.0990369,117
0.478864,0.115759,0.100046,123
0.478977,0.115771,0.101002,120
0.479415,0.115825,0.102029,125
0.48031,0.115937,0.103155,121
0.481013,0.116025,0.104245,125
0.482047,0.116155,0.105409,122
0.482298,0.116185,0.106406,122
0.481959,0.11614,0.107274,126
0.482276,0.116178,0.108288,128
0.482398,0.116192,0.109259,125
0.482652,0.116222,0.110262,121
0.48271,0.116227,0.111221,123
0.483692,0.116351,0.112395,125
0.484017,0.11639,0.11342,126
0.485006,0.116515,0.114603,127
0.485134,0.116529,0.115587,131
0.48513,0.116526,0.116539,131
0.485194,0.116532,0.117509,131
0.484925,0.116496,0.118399,131
0.48479,0.116476,0.119321,132
0.484324,0.116414,0.120161,132
0.484789,0.116472,0.121232,131
0.485189,0.116521,0.12229,128
0.485056,0.116502,0.123214,130
0.484526,0.116432,0.124038,127
0.484661,0.116447,0.125031,124
0.483403,0.116284,0.125664,119
0.483937,0.11635,0.126761,120
0.484473,0.116416,0.127861,122
0.484013,0.116355,0.1287,121
0.482759,0.116193,0.129326,123
0.482633,0.116174,0.130251,121
0.48231,0.116131,0.131123,126
0.481921,0.116079,0.131976,122
0.481139,0.115977,0.13272,127
0.480885,0.115942,0.133608,120
0.480303,0.115865,0.134405,120
0.479789,0.115797,0.135219,127
0.479341,0.115738,0.13605,127
0.479286,0.115729,0.136993,129
0.47871,0.115653,0.137786,129
0.478396,0.115611,0.138653,127
0.478213,0.115585,0.139558,128
0.478161,0.115576,0.140501,128
0.4772,0.115451,0.141177,121
0.475856,0.115277,0.141737,122
0.476515,0.115359,0.14289,120
0.475369,0.115211,0.143503,118
0.474035,0.115038,0.144056,119
0.474115,0.115046,0.145035,123
0.473554,0.114972,0.145819,121
0.473059,0.114907,0.146621,117
0.472311,0.114809,0.147344,118
0.472328,0.114809,0.148304,113
0.471837,0.114744,0.149104,115
0.471537,0.114704,0.149964,115
0.471175,0.114655,0.150804,118
0.471193,0.114655,0.151765,116
0.470959,0.114623,0.152645,112
0.470346,0.114543,0.153403,108
0.470936,0.114616,0.154551,110
0.469755,0.114463,0.155121,106
0.469903,0.11448,0.156126,107
0.47043,0.114545,0.157259,110
0.470073,0.114497,0.158098,110
0.470729,0.114579,0.159278,109
0.471197,0.114636,0.160398,111
0.471222,0.114637,0.16137,103
0.470738,0.114573,0.162168,102
0.471272,0.114639,0.163316,103
0.471744,0.114697,0.164445,107
0.471899,0.114715,0.165467,106
0.471479,0.114659,0.166288,99
0.471252,0.114628,0.167177,97
0.471472,0.114654,0.168224,89
0.471309,0.114631,0.169136,87
0.47249,0.114779,0.170531,78
0.470922,0.114577,0.170939,87
0.471974,0.114709,0.172293,83
0.472454,0.114768,0.173443,88
0.471973,0.114704,0.174243,87
0.472647,0.114788,0.175468,86
0.47313,0.114848,0.176626,79
0.471303,0.114612,0.176925,74
0.471209,0.114598,0.177867,73
0.473815,0.114928,0.179829,71
0.47385,0.114931,0.180827,68
0.473628,0.1149,0.181728,75
0.473794,0.114919,0.182777,70
0.472927,0.114806,0.18343,74
0.473999,0.114941,0.184832,76
0.474816,0.115043,0.18614,78
0.474986,0.115062,0.187199,80
0.4747,0.115023,0.18808,78
0.475719,0.115151,0.189476,82
0.47563,0.115137,0.190438,75
0.475868,0.115166,0.19153,75
0.476697,0.115269,0.192863,68
0.476019,0.11518,0.19359,66
0.476062,0.115184,0.194609,69
0.47591,0.115162,0.195549,65
0.476348,0.115215,0.196731,60
0.476656,0.115252,0.197863,58
0.479283,0.115585,0.199958,64
0.477871,0.115403,0.200382,64
0.477985,0.115415,0.201441,64
0.477702,0.115377,0.202333,57
0.477817,0.115389,0.203394,69
0.477866,0.115393,0.204429,64
0.477453,0.115338,0.205267,60
0.477967,0.115401,0.206502,64
0.478549,0.115473,0.20777,63
0.478468,0.11546,0.208753,57
0.477325,0.115312,0.209276,55
0.478772,0.115495,0.210927,59
0.479828,0.115627,0.212414,61
0.476953,0.115258,0.21217,62
0.476213,0.115161,0.212862,61
0.476267,0.115166,0.213906,56
0.476189,0.115154,0.214892,59
0.475254,0.115032,0.215494,125
0.475836,0.115104,0.216778,58
0.475694,0.115084,0.217737,61
0.476014,0.115122,0.218908,70
0.110429,0.0697243,-0.060628,7
0.466547,0.118706,-0.226989,11
0.334871,0.10059,-0.163368,9
0.453335,0.116884,-0.218693,10
0.104139,0.0688575,-0.0569498,11
0.277247,0.0926595,-0.134341,8
0.493308,0.122375,-0.234474,9
0.468622,0.118978,-0.221894,9
0.0905591,0.0669898,-0.0506775,9
0.465109,0.11849,-0.21825,11
0.384987,0.107469,-0.180461,11
0.471639,0.119383,-0.219237,12
0.471375,0.119345,-0.218104,10
0.482793,0.120913,-0.222272,11
0.7235,0.15401,-0.330211,8
0.474103,0.119713,-0.216297,11
0.468595,0.118953,-0.212818,12
0.283825,0.0935472,-0.129972,9
0.473245,0.119588,-0.212876,11
0.478719,0.120338,-0.214281,10
0.470521,0.119209,-0.209661,11
0.468022,0.118863,-0.207567,9
0.473308,0.119588,-0.208869,11
0.442765,0.115387,-0.194655,12
0.477183,0.120116,-0.208527,15
0.470271,0.119163,-0.204552,11
0.468481,0.118915,-0.202793,15
0.470727,0.119221,-0.202753,11
0.478712,0.120317,-0.205129,15
0.471702,0.119351,-0.201171,12
0.472094,0.119402,-0.200339,14
0.472681,0.119481,-0.199587,14
0.470686,0.119204,-0.197765,12
0.479324,0.120389,-0.200331,13
0.473476,0.119583,-0.196926,11
0.475569,0.119869,-0.196784,12
0.47702,0.120066,-0.196374,12
0.478413,0.120255,-0.195936,12
0.475523,0.119855,-0.193772,19
0.478095,0.120207,-0.193804,15
0.479229,0.12036,-0.193255,18
0.479236,0.120359,-0.192256,16
0.484681,0.121104,-0.193397,16
0.478127,0.120202,-0.189821,18
0.473235,0.119528,-0.18692,14
0.485655,0.121231,-0.190743,12
0.484576,0.121081,-0.189317,15
0.481221,0.120618,-0.187024,10
0.48507,0.121144,-0.187491,17
0.488083,0.121556,-0.187627,19
0.482728,0.120818,-0.184596,17
0.483277,0.120891,-0.183802,12
0.484098,0.121001,-0.183107,14
0.484922,0.121112,-0.182412,21
0.485612,0.121205,-0.181664,19
0.489456,0.12173,-0.182072,11
0.485639,0.121204,-0.17967,17
0.487629,0.121475,-0.179391,20
0.484315,0.121018,-0.177191,22
0.48848,0.121587,-0.177689,20
0.491462,0.121994,-0.177749,23
0.494901,0.122464,-0.17796,18
0.49739,0.122804,-0.177822,18
0.489574,0.121728,-0.174061,18
0.493895,0.122319,-0.174565,21
0.492655,0.122147,-0.173124,24
0.492186,0.12208,-0.171955,21
0.493738,0.122291,-0.171481,23
0.497064,0.122745,-0.171606,26
0.493706,0.122282,-0.169455,23
0.490947,0.121901,-0.167519,24
0.496768,0.122697,-0.168467,24
0.49321,0.122207,-0.166273,24
0.49379,0.122284,-0.165461,17
0.495704,0.122544,-0.165087,19
0.50034,0.123178,-0.165596,21
0.496172,0.122604,-0.163227,17
0.495774,0.122547,-0.162093,24
0.499909,0.123112,-0.162415,24
0.501583,0.12334,-0.161937,19
0.504573,0.123747,-0.16187,22
0.503292,0.123569,-0.160447,21
0.498374,0.122892,-0.157893,22
0.502118,0.123404,-0.158051,21
0.5033,0.123564,-0.157404,23
0.504779,0.123764,-0.156844,23
0.5017,0.123339,-0.15489,24
0.5052,0.123817,-0.154941,22
0.505012,0.123789,-0.153869,28
0.501074,0.123247,-0.151678,29
0.505875,0.123903,-0.152098,26
0.506345,0.123965,-0.151222,29
0.505648,0.123867,-0.150004,27
0.502641,0.123452,-0.148117,25
0.508278,0.124223,-0.14874,28
0.507945,0.124175,-0.147629,28
0.510935,0.124583,-0.147467,35
0.509637,0.124403,-0.146079,27
0.509526,0.124385,-0.145032,27
0.511045,0.124591,-0.14444,29
0.511902,0.124706,-0.14366,27
0.507655,0.124122,-0.141472,30
0.512951,0.124845,-0.14191,28
0.510683,0.124532,-0.140275,30
0.507265,0.124061,-0.13834,30
0.513748,0.124948,-0.139067,27
0.512146,0.124726,-0.137623,30
0.512712,0.124801,-0.136757,33
0.514554,0.125051,-0.136223,31
0.5131,0.12485,-0.134828,32
0.514194,0.124997,-0.134095,30
0.516728,0.125342,-0.133727,34
0.514438,0.125026,-0.132125,38
0.515992,0.125237,-0.131501,33
0.517403,0.125428,-0.130836,34
0.517529,0.125443,-0.129847,34
0.517504,0.125437,-0.128822,40
0.518391,0.125556,-0.12802,38
0.519894,0.12576,-0.127364,39
0.518802,0.125608,-0.12608,36
0.519543,0.125707,-0.125237,33
0.52044,0.125828,-0.124429,35
0.520726,0.125865,-0.123475,38
0.518414,0.125545,-0.121917,35
0.52084,0.125876,-0.12146,38
0.521821,0.126008,-0.120664,41
0.522343,0.126077,-0.119761,41
0.523331,0.12621,-0.118961,39
0.523392,0.126216,-0.117952,40
0.524074,0.126307,-0.11708,38
0.52313,0.126175,-0.11585,46
0.524823,0.126405,-0.115197,46
0.524189,0.126316,-0.114037,44
0.523325,0.126195,-0.112831,39
0.523314,0.126191,-0.11181,41
0.525322,0.126464,-0.111211,41
0.526484,0.126621,-0.11043,44
0.524062,0.126287,-0.108909,40
0.52452,0.126347,-0.107984,45
0.523043,0.126143,-0.106668,45
0.524819,0.126383,-0.106007,43
0.525048,0.126412,-0.105034,45
0.525122,0.12642,-0.10403,45
0.526992,0.126674,-0.103375,48
0.527304,0.126714,-0.102414,49
0.525584,0.126477,-0.101067,48
0.525273,0.126432,-0.0999916,58
0.526444,0.12659,-0.0991935,50
0.525044,0.126396,-0.0979183,53
0.524892,0.126373,-0.0968764,56
0.524276,0.126286,-0.0957519,55
0.525135,0.126401,-0.0948932,55
0.525063,0.126389,-0.0938677,56
0.526315,0.126558,-0.093074,48
0.526635,0.1266,-0.0921151,57
0.527975,0.126781,-0.0913295,54
0.524865,0.126353,-0.0897882,56
0.524954,0.126363,-0.0887931,57
0.524734,0.12633,-0.0877471,58
0.525834,0.126478,-0.0869177,59
0.524297,0.126266,-0.0856597,60
0.525087,0.126372,-0.0847784,56
0.523942,0.126213,-0.0835903,61
0.524269,0.126255,-0.0826356,63
0.52367,0.126171,-0.0815381,62
0.523689,0.126171,-0.080537,60
0.524327,0.126256,-0.0796289,61
0.523346,0.12612,-0.0784794,62
0.522216,0.125963,-0.0773125,63
0.523622,0.126153,-0.0765155,58
0.522417,0.125986,-0.0753424,59
0.522213,0.125956,-0.0743146,59
0.520332,0.125696,-0.0730561,58
0.52196,0.125916,-0.072284,58
0.52092,0.125772,-0.071147,63
0.52095,0.125774,-0.0701562,64
0.51984,0.12562,-0.0690167,67
0.519871,0.125622,-0.0680289,74
0.519373,0.125551,-0.0669741,71
0.521078,0.125782,-0.0661969,66
0.519896,0.125618,-0.0650582,68
0.51857,0.125435,-0.0639069,71
0.518531,0.125427,-0.0629145,80
0.518569,0.12543,-0.0619317,81
0.517854,0.12533,-0.060862,85
0.517367,0.125261,-0.0598214,78
0.517033,0.125213,-0.0587999,83
0.51775,0.125309,-0.0578955,85
0.516443,0.125128,-0.0567702,82
0.51507,0.124938,-0.055643,81
0.514891,0.124911,-0.0546458,81
0.514565,0.124865,-0.0536346,76
0.515354,0.12497,-0.0527369,80
0.513621,0.124731,-0.0515879,86
0.513374,0.124695,-0.0505893,84
0.51195,0.124498,-0.0494805,78
0.512441,0.124563,-0.0485552,82
0.512198,0.124528,-0.0475614,87
0.512839,0.124613,-0.0466477,83
0.511057,0.124367,-0.0455203,82
0.511696,0.124453,-0.0446067,83
0.511604,0.124438,-0.0436298,78
0.510053,0.124224,-0.0425344,85
0.509745,0.124179,-0.0415442,92
0.509076,0.124086,-0.0405273,87
0.508772,0.124042,-0.0395408,86
0.507458,0.12386,-0.0384809,92
0.507518,0.123866,-0.0375253,91
0.506931,0.123784,-0.0365242,95
0.506849,0.12377,-0.0355601,91
0.506625,0.123738,-0.034587,95
0.50633,0.123695,-0.0336104,98
0.505821,0.123623,-0.0326216,100
0.505315,0.123552,-0.031635,94
0.503459,0.123296,-0.0305709,99
0.50502,0.123507,-0.0297092,98
0.504304,0.123408,-0.028716,99
0.502813,0.123202,-0.0276841,100
0.503591,0.123306,-0.026775,107
0.502671,0.123178,-0.0257787,107
0.50253,0.123157,-0.0248233,104
0.502391,0.123135,-0.0238686,105
0.501337,0.122989,-0.0228742,102
0.5012,0.122968,-0.0219226,102
0.500995,0.122938,-0.0209689,105
0.50009,0.122812,-0.0199892,106
0.500236,0.12283,-0.0190514,105
0.499475,0.122724,-0.0180817,104
0.498927,0.122647,-0.0171218,106
0.497756,0.122485,-0.0161449,104
0.497836,0.122494,-0.0152088,106
0.498332,0.12256,-0.0142839,107
0.497236,0.122408,-0.0133168,110
0.496904,0.12236,-0.0123718,111
0.497195,0.122398,-0.0114415,106
0.496451,0.122294,-0.0104898,104
0.495916,0.122219,-0.0095447,106
0.495452,0.122154,-0.00860277,108
0.495608,0.122173,-0.00767133,111
0.495558,0.122164,-0.00673684,118
0.497923,0.122484,-0.00582755,120
0.494981,0.122081,-0.00486446,117
0.495002,0.122082,-0.00393196,118
0.49695,0.122345,-0.00300852,111
0.494091,0.121953,-0.00206404,117
0.494047,0.121945,-0.00113305,118
0.494482,0.122002,-0.000201798,119
0.493757,0.121901,0.000727893,120
0.493512,0.121865,0.0016571,126
0.492995,0.121793,0.00258365,121
0.493636,0.121878,0.00351798,122
0.49285,0.121769,0.00444011,120
0.492473,0.121715,0.0053643,120
0.493456,0.121847,0.00630613,117
0.49213,0.121664,0.00721508,119
0.491825,0.12162,0.00813721,118
0.491319,0.121549,0.00905431,123
0.492233,0.121672,0.0100001,121
0.492336,0.121684,0.0109304,128
0.491358,0.121548,0.0118339,127
0.490991,0.121496,0.0127504,123
0.490491,0.121426,0.0136617,124
0.490328,0.121401,0.0145817,127
0.489898,0.121341,0.0154924,129
0.490275,0.12139,0.0164295,132
0.488976,0.121211,0.017307,133
0.489755,0.121315,0.0182594,136
0.488394,0.121127,0.0191287,136
0.487173,0.120959,0.0199991,135
0.486754,0.120899,0.0209001,134
0.486932,0.120921,0.0218271,144
0.486647,0.120881,0.0227329,145
0.485571,0.120732,0.0235984,141
0.4845,0.120583,0.0244604,139
0.484154,0.120534,0.0253572,143
0.483549,0.12045,0.0262384,137
0.48301,0.120374,0.0271214,139
0.482474,0.120299,0.0280027,141
0.481097,0.120109,0.0288309,140
0.481278,0.120132,0.0297519,141
0.479587,0.119899,0.0305529,138
0.479447,0.119878,0.0314507,137
0.478666,0.119769,0.0323044,134
0.478784,0.119783,0.0332186,133
0.478007,0.119675,0.0340688,133
0.477488,0.119603,0.0349353,130
0.477162,0.119556,0.0358148,136
0.476709,0.119492,0.0366835,136
0.475371,0.119308,0.0374801,139
0.474671,0.119211,0.038324,140
0.474037,0.119122,0.0391709,138
0.473782,0.119085,0.0400481,139
0.472964,0.118972,0.0408753,132
0.472649,0.118927,0.0417446,133
0.473086,0.118984,0.0426813,142
0.471399,0.118752,0.0434229,135
0.471026,0.1187,0.0442827,138
0.471401,0.118749,0.0452135,139
0.470533,0.118628,0.0460237,141
0.470535,0.118627,0.0469182,147
0.470043,0.118557,0.0477624,148
0.469058,0.118421,0.0485539,139
0.468324,0.118319,0.0493684,137
0.467042,0.118142,0.0501214,134
0.468828,0.118384,0.0512065,131
0.467238,0.118165,0.0519218,129
0.468474,0.118331,0.0529521,132
0.467867,0.118247,0.0537749,131
0.466042,0.117996,0.0544527,127
0.466478,0.118053,0.0553935,122
0.46802,0.118261,0.05647,129
0.466561,0.118061,0.0571838,126
0.466695,0.118077,0.0580913,127
0.46683,0.118093,0.0589997,129
0.466783,0.118085,0.0598855,127
0.467655,0.118202,0.0608915,125
0.467425,0.118168,0.0617552,122
0.468363,0.118294,0.0627753,127
0.467887,0.118227,0.0636067,126
0.46772,0.118202,0.0644794,126
0.46737,0.118153,0.0653261,121
0.468004,0.118237,0.0663115,124
0.46827,0.118271,0.0672468,122
0.468352,0.11828,0.0681567,125
0.46825,0.118264,0.0690401,126
0.468395,0.118282,0.0699606,123
0.469407,0.118418,0.0710132,121
0.469865,0.118478,0.0719851,124
0.469642,0.118445,0.0728534,125
0.469977,0.118489,0.0738091,124
0.47019,0.118516,0.074747,119
0.469782,0.118458,0.0755862,124
0.470556,0.118562,0.0766168,125
0.471396,0.118674,0.0776616,126
0.471801,0.118727,0.0786377,124
0.471331,0.118661,0.0794681,126
0.471675,0.118706,0.080436,121
0.471206,0.11864,0.0812655,122
0.472933,0.118873,0.0824766,128
0.471584,0.118687,0.0831526,125
0.473759,0.118981,0.0844516,124
0.473542,0.118949,0.0853287,128
0.473894,0.118995,0.0863091,128
0.474248,0.119041,0.0872917,124
0.474476,0.11907,0.0882527,130
0.47515,0.11916,0.0892989,126
0.475063,0.119146,0.0902037,121
0.474976,0.119132,0.0911087,120
0.47508,0.119144,0.092051,121
0.47525,0.119165,0.0930069,121
0.476827,0.119377,0.094242,121
0.477193,0.119425,0.0952419,122
0.47698,0.119394,0.0961276,118
0.477476,0.119459,0.0971569,123
0.478685,0.119622,0.0983348,120
0.479186,0.119688,0.0993715,115
0.479559,0.119736,0.100384,117
0.48039,0.119847,0.101495,118
0.482077,0.120074,0.102792,116
0.482327,0.120106,0.103787,117
0.482314,0.120102,0.104727,120
0.483422,0.120251,0.105913,121
0.48361,0.120274,0.1069,119
0.483202,0.120217,0.107757,117
0.48392,0.120312,0.108865,122
0.484044,0.120327,0.109841,126
0.483837,0.120296,0.110744,119
0.484227,0.120347,0.111784,122
0.48442,0.120371,0.11278,125
0.485346,0.120495,0.113949,129
0.485341,0.120492,0.114902,136
0.485671,0.120535,0.115936,129
0.485801,0.12055,0.116924,132
0.486401,0.12063,0.118026,126
0.486533,0.120646,0.119018,126
0.485661,0.120525,0.119763,124
0.485192,0.120459,0.120606,128
0.485794,0.120539,0.121716,126
0.486667,0.120655,0.122896,129
0.485127,0.120444,0.123468,130
0.486066,0.120569,0.124669,122
0.484464,0.120349,0.125219,120
0.486207,0.120584,0.126633,123
0.484939,0.120409,0.127266,124
0.484543,0.120353,0.128124,121
0.484548,0.120352,0.129089,124
0.483754,0.120242,0.12984,126
0.483096,0.12015,0.130625,126
0.483369,0.120185,0.131662,121
0.48258,0.120076,0.132409,127
0.482059,0.120003,0.133228,126
0.481803,0.119966,0.13412,125
0.481614,0.119938,0.135029,124
0.481228,0.119883,0.135883,124
0.480119,0.11973,0.136532,121
0.479278,0.119614,0.137253,125
0.478765,0.119542,0.138067,120
0.479432,0.11963,0.139219,119
0.479117,0.119585,0.14009,121
0.478345,0.119479,0.140826,121
0.478359,0.119478,0.141791,121
0.47707,0.119301,0.142371,122
0.476955,0.119283,0.143296,122
0.476062,0.11916,0.143988,122
0.475366,0.119063,0.144737,120
0.475188,0.119037,0.145642,117
0.474367,0.118923,0.14635,119
0.473934,0.118862,0.147175,118
0.473309,0.118775,0.147939,117
0.472367,0.118645,0.148603,125
0.47162,0.118541,0.149324,118
0.471957,0.118585,0.150387,116
0.471657,0.118542,0.151249,116
0.471167,0.118473,0.15205,114
0.470932,0.118439,0.152932,114
0.471461,0.118509,0.154062,113
0.470909,0.118432,0.154841,107
0.471185,0.118467,0.155892,109
0.470825,0.118416,0.156734,104
0.470721,0.1184,0.15766,108
0.470871,0.118418,0.158672,106
0.471404,0.118488,0.159814,104
0.471492,0.118498,0.160808,104
0.472797,0.118673,0.162219,97
0.470968,0.118422,0.162561,97
0.470803,0.118398,0.16347,97
0.47102,0.118425,0.164512,100
0.471302,0.118461,0.165578,96
0.471522,0.118488,0.166625,100
0.471422,0.118473,0.16756,107
0.471963,0.118544,0.168723,102
0.471608,0.118494,0.16957,95
0.47183,0.118521,0.170623,88
0.473405,0.118733,0.172167,86
0.474667,0.118902,0.173604,84
0.475415,0.119001,0.174859,80
0.473889,0.118792,0.175283,84
0.473276,0.118706,0.176039,83
0.473892,0.118788,0.17725,80
0.473344,0.118711,0.178029,81
0.472733,0.118626,0.178783,71
0.474387,0.118848,0.180391,69
0.474099,0.118807,0.181269,72
0.474526,0.118862,0.18242,73
0.473459,0.118716,0.183001,76
0.474666,0.118877,0.184455,76
0.475423,0.118977,0.185741,75
0.476249,0.119087,0.187057,76
0.475568,0.118993,0.187787,77
0.476527,0.11912,0.189162,76
0.476569,0.119124,0.190177,73
0.477138,0.119199,0.191405,76
0.476522,0.119113,0.19216,69
0.476434,0.119099,0.193127,70
0.476939,0.119165,0.194334,68
0.47844,0.119366,0.195949,64
0.479018,0.119442,0.197194,64
0.476942,0.119158,0.197353,62
0.478379,0.119351,0.198954,57
0.477697,0.119256,0.199682,61
0.478142,0.119314,0.20088,59
0.479256,0.119463,0.20236,64
0.478572,0.119368,0.203088,54
0.478156,0.119309,0.203928,61
0.478073,0.119295,0.204908,59
0.477326,0.119192,0.205606,55
0.478241,0.119313,0.207015,54
0.478759,0.119381,0.208258,57
0.479213,0.119441,0.209476,54
0.479333,0.119454,0.210552,58
0.478851,0.119387,0.211366,58
0.479776,0.11951,0.212797,66
0.479429,0.11946,0.213671,63
0.478213,0.119293,0.214159,60
0.478201,0.119289,0.21518,60
0.47779,0.119231,0.216023,62
0.479184,0.119418,0.217679,123
0.477503,0.119188,0.217949,65
0.477693,0.119211,0.219064,65
0.478888,0.119371,0.220641,68
1.72072,0.305105,-0.835871,9
0.340858,0.104207,-0.167333,8
1.0509,0.207573,-0.506566,10
0.249261,0.0908705,-0.12282,8
2.03474,0.350785,-0.970646,8
0.366543,0.107939,-0.17638,9
0.299389,0.0981626,-0.144328,13
0.676592,0.153064,-0.319641,8
0.472462,0.123349,-0.223109,11
0.474955,0.12371,-0.223242,11
0.464857,0.122238,-0.217567,12
0.470103,0.122999,-0.21897,9
0.462586,0.121903,-0.214528,11
1.35057,0.251127,-0.61868,11
0.472498,0.12334,-0.217019,13
0.464344,0.122152,-0.212336,10
0.467135,0.122556,-0.21259,11
0.684388,0.154165,-0.308638,9
0.415581,0.11505,-0.187743,10
0.0991481,0.0690182,-0.0514478,10
0.475898,0.123821,-0.212442,15
0.472224,0.123284,-0.20982,11
0.472224,0.123282,-0.208813,13
0.475697,0.123785,-0.209311,13
0.480966,0.124549,-0.210571,12
0.48083,0.124527,-0.20949,11
0.472359,0.123293,-0.204853,10
0.473861,0.123509,-0.204488,9
0.57898,0.138797,-0.247981,10
0.47075,0.123052,-0.201171,12
0.478355,0.124156,-0.203358,14
0.477759,0.124067,-0.202099,13
0.477165,0.123978,-0.200844,11
0.475192,0.123689,-0.199024,12
0.477571,0.124032,-0.198998,11
0.477377,0.124002,-0.197913,16
0.479109,0.124251,-0.197612,15
0.484232,0.124994,-0.198675,11
0.476998,0.12394,-0.19475,12
0.479193,0.124257,-0.194627,15
0.482822,0.124782,-0.195067,18
0.479806,0.124341,-0.192861,14
0.484462,0.125016,-0.193691,19
0.481697,0.124612,-0.191595,18
0.485088,0.125102,-0.191911,15
0.485232,0.125121,-0.190954,11
0.486265,0.125269,-0.190341,15
0.48689,0.125357,-0.189568,14
0.486351,0.125277,-0.188349,21
0.488352,0.125565,-0.188097,15
0.490647,0.125896,-0.187949,14
0.488027,0.125513,-0.185947,18
0.494097,0.126393,-0.187202,21
0.487156,0.125382,-0.1836,20
0.486689,0.125312,-0.182419,20
0.488692,0.125601,-0.182148,17
0.489257,0.125681,-0.181345,18
0.489823,0.125761,-0.18054,15
0.489007,0.12564,-0.179235,21
0.494388,0.126419,-0.18016,22
0.490766,0.125891,-0.177848,22
0.491545,0.126002,-0.177115,20
0.493237,0.126245,-0.176702,22
0.494728,0.126459,-0.176212,20
0.494322,0.126398,-0.175055,20
0.496386,0.126696,-0.174758,22
0.497754,0.126892,-0.174213,22
0.492762,0.126165,-0.171481,22
0.501015,0.127361,-0.173288,23
0.496315,0.126676,-0.17067,22
0.497257,0.126811,-0.169974,19
0.494732,0.126442,-0.168113,23
0.494612,0.126422,-0.167065,22
0.505841,0.12805,-0.169775,21
0.493185,0.12621,-0.16458,17
0.496724,0.126722,-0.164734,18
0.50539,0.127978,-0.166542,23
0.505485,0.127989,-0.165547,21
0.506315,0.128108,-0.164788,17
0.503779,0.127737,-0.162952,21
0.506657,0.128152,-0.162844,20
0.50727,0.128239,-0.162012,22
0.504146,0.127783,-0.160007,24
0.501493,0.127396,-0.158163,25
0.502893,0.127597,-0.157583,23
0.502053,0.127472,-0.15631,19
0.505642,0.127991,-0.156393,24
0.508244,0.128367,-0.156163,23
0.510574,0.128703,-0.155842,27
0.506024,0.12804,-0.153453,28
0.510411,0.128674,-0.15374,25
0.50785,0.1283,-0.151959,26
0.510177,0.128636,-0.151622,31
0.50969,0.128563,-0.150457,27
0.510095,0.128619,-0.149553,28
0.508869,0.128439,-0.148179,24
0.511804,0.128862,-0.147998,26
0.508718,0.128412,-0.1461,28
0.511801,0.128857,-0.145951,25
0.512437,0.128947,-0.145107,28
0.5136,0.129114,-0.144407,25
0.513038,0.12903,-0.143228,27
0.517009,0.129604,-0.143293,28
0.516288,0.129497,-0.142068,27
0.514739,0.12927,-0.140623,28
0.514554,0.129241,-0.13955,27
0.518395,0.129795,-0.139548,27
0.515244,0.129336,-0.137688,27
0.519863,0.130004,-0.137875,28
0.516697,0.129542,-0.136022,26
0.522194,0.130337,-0.136416,25
0.522628,0.130398,-0.135493,26
0.522753,0.130414,-0.134491,31
0.520942,0.130149,-0.133001,35
0.522229,0.130333,-0.132293,31
0.520578,0.130091,-0.130853,33
0.525449,0.130795,-0.131024,30
0.523079,0.130449,-0.12941,30
0.525082,0.130737,-0.128864,37
0.522641,0.130381,-0.127243,39
0.521534,0.130218,-0.125951,42
0.52415,0.130595,-0.125544,37
0.527187,0.131033,-0.125226,39
0.528112,0.131165,-0.124405,39
0.525023,0.130715,-0.122656,46
0.526808,0.130971,-0.122034,38
0.526003,0.130852,-0.120819,39
0.5293,0.131328,-0.12053,41
0.529282,0.131323,-0.119489,43
0.527761,0.1311,-0.118117,43
0.528615,0.131221,-0.117272,39
0.527731,0.131091,-0.116047,41
0.527165,0.131006,-0.114894,41
0.528178,0.131151,-0.114081,40
0.530387,0.131469,-0.113517,40
0.527051,0.130983,-0.111785,39
0.52775,0.131082,-0.110902,42
0.529085,0.131273,-0.110148,48
0.531784,0.131662,-0.109668,45
0.528832,0.131232,-0.108038,45
0.532249,0.131725,-0.107692,38
0.529771,0.131363,-0.106168,42
0.529529,0.131326,-0.105091,42
0.531036,0.131542,-0.104355,46
0.530317,0.131435,-0.103187,45
0.53151,0.131606,-0.102385,47
0.5296,0.131327,-0.100996,51
0.529918,0.13137,-0.100029,47
0.530873,0.131506,-0.0991788,45
0.530478,0.131447,-0.0980793,53
0.530958,0.131514,-0.09714,49
0.530247,0.131409,-0.0959864,50
0.531127,0.131534,-0.0951173,54
0.5301,0.131383,-0.093912,51
0.52987,0.131347,-0.0928488,52
0.529958,0.131357,-0.0918414,49
0.530841,0.131483,-0.0909686,54
0.530613,0.131448,-0.0899072,51
0.531181,0.131528,-0.0889787,55
0.529448,0.131274,-0.0876728,58
0.529462,0.131274,-0.0866558,57
0.531063,0.131503,-0.0858922,55
0.529177,0.131228,-0.0845737,59
0.529036,0.131205,-0.0835344,58
0.530875,0.131469,-0.0828006,58
0.528521,0.131126,-0.0814235,59
0.527677,0.131001,-0.0802822,60
0.528012,0.131048,-0.0793191,60
0.529373,0.131242,-0.078505,65
0.532732,0.131727,-0.0779746,57
0.527532,0.130971,-0.0762134,62
0.528893,0.131166,-0.0753937,60
0.527662,0.130985,-0.0742103,69
0.526204,0.130772,-0.0730009,67
0.526076,0.130751,-0.0719767,69
0.525716,0.130697,-0.0709225,71
0.524041,0.130452,-0.0696979,71
0.524769,0.130555,-0.06879,76
0.524182,0.130468,-0.0677127,78
0.524603,0.130526,-0.066764,80
0.523478,0.130361,-0.0656236,82
0.524209,0.130465,-0.0647131,79
0.523242,0.130323,-0.0635973,83
0.522895,0.13027,-0.0625584,82
0.522473,0.130207,-0.0615124,83
0.521899,0.130121,-0.0604511,76
0.521328,0.130036,-0.0593926,79
0.521064,0.129996,-0.0583704,77
0.520649,0.129934,-0.0573332,76
0.520008,0.129839,-0.0562738,79
0.521196,0.130008,-0.055408,78
0.518356,0.129595,-0.0541253,79
0.518327,0.129589,-0.0531363,82
0.518828,0.129659,-0.0522001,84
0.517896,0.129522,-0.0511235,82
0.517118,0.129407,-0.0500653,85
0.517319,0.129434,-0.0491015,81
0.517145,0.129406,-0.0481029,85
0.516672,0.129336,-0.0470787,82
0.515529,0.129168,-0.0459978,85
0.515658,0.129184,-0.0450303,87
0.513631,0.128889,-0.0438823,80
0.515322,0.129131,-0.043046,81
0.513004,0.128794,-0.0418835,85
0.514025,0.128939,-0.0409903,88
0.512236,0.128678,-0.0398796,90
0.512296,0.128685,-0.0389131,92
0.511034,0.1285,-0.037851,89
0.510364,0.128401,-0.0368356,95
0.509915,0.128334,-0.035838,94
0.510271,0.128383,-0.0348959,91
0.509971,0.128337,-0.0339102,91
0.509599,0.128281,-0.0329213,95
0.508357,0.1281,-0.0318809,91
0.508207,0.128076,-0.0309098,97
0.509364,0.128241,-0.0300145,95
0.507042,0.127903,-0.0289222,101
0.507473,0.127963,-0.027986,102
0.506967,0.127888,-0.0270001,99
0.505099,0.127615,-0.0259484,98
0.504814,0.127572,-0.0249796,96
0.505245,0.127632,-0.024045,104
0.504676,0.127548,-0.0230648,106
0.505323,0.127639,-0.0221382,103
0.503829,0.127421,-0.0211229,106
0.503621,0.127389,-0.0201628,105
0.50313,0.127315,-0.0191932,106
0.504633,0.127531,-0.0182948,105
0.501731,0.127109,-0.0172461,99
0.501106,0.127016,-0.016279,100
0.500694,0.126955,-0.0153205,105
0.499234,0.126741,-0.0143351,104
0.499316,0.126751,-0.0133943,106
0.49947,0.126771,-0.0124549,107
0.498995,0.1267,-0.0115015,111
0.498731,0.12666,-0.0105541,114
0.49826,0.12659,-0.00960396,109
0.498068,0.12656,-0.00866015,113
0.498017,0.12655,-0.00771906,115
0.497897,0.126531,-0.00677737,113
0.497361,0.126451,-0.00583186,113
0.497382,0.126452,-0.00489309,117
0.497196,0.126423,-0.0039529,118
0.497149,0.126414,-0.00301408,120
0.496274,0.126286,-0.00207307,122
0.496644,0.126337,-0.00113658,123
0.496186,0.126269,-0.000199427,126
0.496765,0.12635,0.000738877,125
0.495826,0.126212,0.00167233,124
0.495303,0.126135,0.00260499,124
0.495676,0.126187,0.00354323,125
0.495706,0.126189,0.00447937,123
0.493747,0.125904,0.00539153,120
0.494258,0.125975,0.00633098,117
0.494222,0.125968,0.00726371,119
0.494187,0.125961,0.00819637,118
0.494359,0.125983,0.00913301,120
0.493505,0.125858,0.0100483,123
0.493541,0.125861,0.0109813,123
0.493783,0.125894,0.0119196,130
0.493617,0.125868,0.0128479,128
0.491614,0.125576,0.0137224,128
0.49145,0.125551,0.0146462,130
0.491085,0.125496,0.0155629,131
0.490653,0.125431,0.0164761,131
0.491101,0.125494,0.0174198,130
0.490333,0.125381,0.0183187,131
0.489435,0.125249,0.0192095,126
0.487872,0.125021,0.0200691,131
0.48805,0.125045,0.0209996,131
0.487896,0.125021,0.0219156,130
0.486478,0.124814,0.0227709,132
0.485796,0.124713,0.0236574,139
0.485249,0.124632,0.0245485,140
0.484902,0.12458,0.0254484,140
0.485414,0.124652,0.0263946,140
0.483096,0.124315,0.0271812,141
0.482885,0.124282,0.0280835,141
0.482413,0.124212,0.0289695,140
0.481683,0.124105,0.0298375,140
0.480632,0.123951,0.0306823,138
0.48101,0.124003,0.0316183,140
0.480351,0.123906,0.0324851,146
0.479307,0.123754,0.0333225,138
0.479686,0.123806,0.0342588,141
0.478004,0.123561,0.0350442,139
0.477677,0.123512,0.0359263,138
0.478827,0.123676,0.0369224,139
0.475941,0.123257,0.0376014,135
0.474921,0.123108,0.0384219,137
0.474727,0.123078,0.0393078,134
0.474787,0.123085,0.0402148,132
0.475038,0.123119,0.041139,130
0.475354,0.123162,0.0420701,132
0.473834,0.122941,0.0428357,134
0.473016,0.122821,0.0436609,137
0.4722,0.122701,0.0444836,135
0.472578,0.122754,0.0454187,138
0.471328,0.122571,0.0461952,138
0.471581,0.122606,0.0471182,140
0.471272,0.122559,0.0479849,140
0.470716,0.122477,0.0488249,136
0.470285,0.122413,0.0496765,137
0.469422,0.122286,0.05048,135
0.468439,0.122142,0.0512674,132
0.468508,0.12215,0.052169,127
0.468207,0.122105,0.0530291,124
0.467785,0.122042,0.0538743,126
0.468225,0.122103,0.0548195,122
0.467435,0.121987,0.0556199,121
0.468123,0.122084,0.0565968,120
0.468011,0.122066,0.0574782,120
0.468147,0.122084,0.0583904,124
0.467298,0.121959,0.0591785,119
0.467928,0.122048,0.0601542,124
0.467511,0.121986,0.0609959,124
0.468513,0.122129,0.0620244,127
0.468344,0.122102,0.0628996,122
0.468794,0.122165,0.063859,122
0.468626,0.122139,0.064735,122
0.469637,0.122282,0.0657759,120
0.469595,0.122274,0.0666714,127
0.469118,0.122203,0.0675047,125
0.469698,0.122285,0.0684907,125
0.470094,0.12234,0.0694519,126
0.469805,0.122296,0.0703127,122
0.469953,0.122315,0.071239,123
0.470601,0.122407,0.072243,121
0.471502,0.122535,0.0732893,122
0.471653,0.122554,0.0742214,121
0.470803,0.12243,0.0749951,120
0.470956,0.12245,0.0759275,123
0.471925,0.122587,0.0769941,122
0.472836,0.122716,0.0780552,128
0.47255,0.122673,0.0789207,125
0.473213,0.122767,0.0799454,121
0.473055,0.122742,0.0808332,126
0.473277,0.122772,0.0817863,124
0.473754,0.122838,0.0827853,120
0.473534,0.122805,0.0836637,123
0.474395,0.122926,0.0847342,124
0.473922,0.122856,0.0855683,125
0.474022,0.122869,0.0865054,126
0.475014,0.123009,0.0876077,126
0.4755,0.123077,0.0886199,124
0.47618,0.123173,0.0896711,121
0.475004,0.123002,0.090373,119
0.476197,0.123171,0.0915252,124
0.476367,0.123194,0.0924844,122
0.476795,0.123253,0.0934953,117
0.477548,0.12336,0.0945725,115
0.478045,0.123429,0.0956021,117
0.478026,0.123424,0.0965301,120
0.478655,0.123513,0.0975905,116
0.479613,0.123649,0.0987213,114
0.479335,0.123606,0.0996004,117
0.481543,0.123922,0.100999,117
0.481528,0.123918,0.101937,117
0.481777,0.123952,0.102932,115
0.482092,0.123995,0.103943,122
0.482673,0.124076,0.105013,119
0.484785,0.124378,0.106421,120
0.484042,0.124269,0.107208,118
0.484032,0.124266,0.108155,120
0.484355,0.12431,0.109178,123
0.485347,0.124451,0.110355,120
0.486009,0.124544,0.11146,121
0.485131,0.124415,0.112213,120
0.485996,0.124537,0.113369,119
0.486595,0.124621,0.114467,116
0.486792,0.124648,0.115473,122
0.486788,0.124645,0.116432,125
0.487257,0.12471,0.117505,127
0.486782,0.12464,0.118352,130
0.487051,0.124676,0.119379,131
0.485905,0.124509,0.12006,128
0.486106,0.124536,0.121072,130
0.48705,0.124669,0.12227,123
0.487051,0.124667,0.123236,124
0.486379,0.124568,0.12403,126
0.485977,0.124508,0.124893,120
0.485644,0.124458,0.125772,119
0.48585,0.124486,0.12679,117
0.485989,0.124504,0.127792,113
0.485456,0.124425,0.128619,117
0.485126,0.124375,0.129498,114
0.484664,0.124306,0.13034,118
0.484537,0.124286,0.131273,121
0.48441,0.124265,0.132205,125
0.483683,0.124159,0.132973,131
0.483092,0.124071,0.133777,130
0.483234,0.12409,0.134783,132
0.481981,0.123907,0.135399,130
0.482523,0.123983,0.136517,125
0.481737,0.123868,0.137262,129
0.481815,0.123877,0.13825,125
0.482825,0.12402,0.139508,124
0.480846,0.123733,0.139905,127
0.479738,0.123571,0.140549,130
0.480015,0.123609,0.141595,122
0.477994,0.123316,0.141965,114
0.478074,0.123325,0.142952,118
0.478285,0.123354,0.14398,115
0.477516,0.123241,0.144713,117
0.476489,0.123091,0.145366,119
0.475531,0.122951,0.146037,126
0.476262,0.123054,0.147224,116
0.474724,0.12283,0.147712,116
0.474871,0.122849,0.14872,115
0.47302,0.122581,0.149104,117
0.472974,0.122572,0.150049,120
0.472288,0.122471,0.150792,114
0.472949,0.122564,0.151964,115
0.472007,0.122427,0.152624,116
0.472347,0.122473,0.153695,112
0.471792,0.122391,0.154477,111
0.471174,0.1223,0.155237,117
0.471579,0.122356,0.156333,111
0.470899,0.122256,0.157071,107
0.471689,0.122368,0.158297,107
0.471137,0.122286,0.159078,107
0.471416,0.122324,0.160137,109
0.472853,0.122529,0.161591,109
0.471787,0.122373,0.162197,97
0.471364,0.12231,0.163021,96
0.471454,0.122321,0.164021,97
0.472895,0.122526,0.165492,94
0.472086,0.122407,0.166183,98
0.47205,0.1224,0.167143,96
0.472079,0.122402,0.168127,93
0.473269,0.122571,0.169524,95
0.472718,0.122489,0.170305,89
0.47262,0.122473,0.171247,88
0.472457,0.122447,0.172167,87
0.472941,0.122514,0.173321,86
0.474466,0.122731,0.174859,94
0.474434,0.122724,0.175832,90
0.474468,0.122727,0.17683,89
0.473333,0.122562,0.177394,84
0.472979,0.122509,0.178247,76
0.473988,0.122651,0.179611,68
0.475198,0.122823,0.181057,69
0.474191,0.122676,0.181665,67
0.474424,0.122707,0.182744,72
0.475115,0.122804,0.184001,81
0.475481,0.122855,0.185136,75
0.474931,0.122773,0.185918,73
0.474906,0.122767,0.186904,71
0.475536,0.122856,0.188147,70
0.475774,0.122888,0.189239,74
0.476474,0.122986,0.190517,71
0.476385,0.122971,0.191483,70
0.476758,0.123022,0.192636,64
0.477265,0.123092,0.193845,65
0.479372,0.123393,0.195705,59
0.478351,0.123244,0.196301,58
0.478397,0.123248,0.19733,57
0.478511,0.123262,0.198389,57
0.478959,0.123324,0.199587,54
0.479609,0.123415,0.200872,61
0.47939,0.123381,0.201798,64
0.478837,0.1233,0.202584,65
0.478954,0.123314,0.20365,59
0.481088,0.123618,0.205573,60
0.481207,0.123633,0.206649,57
0.479174,0.123339,0.206804,60
0.479897,0.12344,0.208137,50
0.48218,0.123765,0.210149,57
0.481421,0.123654,0.210849,61
0.480935,0.123582,0.211667,64
0.481329,0.123636,0.21287,56
0.480573,0.123525,0.213568,55
0.481035,0.123589,0.214804,57
0.481024,0.123585,0.215833,58
0.480337,0.123484,0.21656,55
0.478644,0.123239,0.216833,55
0.478634,0.123235,0.21786,120
0.477954,0.123136,0.218584,55
0.478817,0.123257,0.220009,63
0.47928,0.123321,0.221256,58
0.126676,0.0741145,-0.0681829,9
0.092431,0.068858,-0.0534511,11
0.459644,0.125252,-0.223595,10
1.69155,0.31448,-0.811932,8
1.80202,0.33144,-0.860975,10
0.895324,0.192164,-0.426777,10
0.467857,0.126505,-0.223452,9
0.478857,0.128192,-0.227579,13
0.495878,0.130803,-0.234466,8
0.472127,0.127153,-0.222389,10
0.46566,0.126158,-0.218387,10
0.481054,0.12852,-0.224446,11
0.236159,0.0909131,-0.112336,7
0.268266,0.0958415,-0.126139,12
0.470603,0.126908,-0.216606,11
0.477989,0.128039,-0.218921,11
0.465903,0.126181,-0.212475,11
0.463182,0.125761,-0.210261,10
0.475114,0.127591,-0.214566,12
0.482292,0.128691,-0.216722,10
0.471437,0.127022,-0.210913,10
0.469428,0.126711,-0.209026,10
0.47504,0.12757,-0.210468,14
0.473723,0.127366,-0.208883,14
0.47504,0.127566,-0.208441,12
0.47796,0.128012,-0.208684,10
0.47997,0.128318,-0.208526,13
0.476231,0.127742,-0.205915,13
0.479567,0.128251,-0.206316,14
0.476036,0.127707,-0.203811,15
0.470871,0.126912,-0.200637,15
0.472043,0.12709,-0.200128,12
0.478502,0.128079,-0.201809,13
0.479241,0.12819,-0.201102,13
0.481396,0.128518,-0.200976,15
0.477249,0.127879,-0.198265,8
0.483436,0.128826,-0.199775,16
0.486176,0.129245,-0.199866,14
0.476339,0.127733,-0.194883,13
0.489506,0.129751,-0.199155,15
0.479543,0.12822,-0.194156,15
0.496866,0.130875,-0.200018,12
0.483058,0.128755,-0.193531,9
0.481376,0.128494,-0.191859,13
0.482598,0.128679,-0.191328,13
0.487801,0.129475,-0.192339,18
0.490587,0.1299,-0.192396,18
0.484047,0.128895,-0.18886,14
0.490461,0.129876,-0.190301,16
0.487833,0.129471,-0.188281,12
0.487429,0.129406,-0.187112,18
0.490906,0.129938,-0.187406,15
0.487587,0.129426,-0.185145,20
0.493099,0.130269,-0.186182,20
0.494238,0.130442,-0.185581,19
0.492207,0.130128,-0.18381,16
0.491588,0.130031,-0.182564,19
0.492441,0.130159,-0.181857,19
0.49379,0.130363,-0.181327,15
0.490094,0.129795,-0.178978,20
0.496367,0.130754,-0.18021,17
0.495173,0.130569,-0.178762,19
0.495471,0.130612,-0.177848,18
0.494142,0.130406,-0.176361,19
0.497494,0.130917,-0.176516,20
0.497224,0.130874,-0.1754,24
0.49384,0.130353,-0.17321,22
0.49435,0.130429,-0.172372,19
0.498132,0.131006,-0.17265,21
0.496724,0.130788,-0.171152,20
0.50469,0.132006,-0.172824,23
0.504488,0.131973,-0.171725,17
0.503483,0.131817,-0.170359,20
0.503867,0.131873,-0.169459,21
0.500043,0.131285,-0.167171,19
0.497416,0.13088,-0.165292,24
0.500808,0.131397,-0.165383,22
0.502568,0.131665,-0.164933,19
0.506914,0.132328,-0.165309,20
0.507232,0.132375,-0.164381,20
0.505047,0.132038,-0.162657,25
0.505439,0.132095,-0.161757,20
0.50812,0.132504,-0.161573,22
0.508517,0.132562,-0.160668,20
0.506325,0.132224,-0.158961,22
0.505618,0.132114,-0.157719,23
0.512111,0.133106,-0.158682,23
0.505895,0.132151,-0.155761,26
0.507693,0.132424,-0.155283,29
0.510174,0.132802,-0.155003,24
0.510503,0.13285,-0.154073,26
0.513238,0.133267,-0.153854,26
0.514631,0.133478,-0.153232,28
0.511721,0.13303,-0.151349,26
0.512431,0.133136,-0.150527,31
0.514882,0.133509,-0.150204,25
0.515372,0.133582,-0.149312,29
0.516092,0.13369,-0.148483,28
0.51651,0.133752,-0.147568,31
0.519695,0.134237,-0.147426,28
0.516508,0.133747,-0.145501,29
0.517463,0.13389,-0.144733,35
0.517196,0.133847,-0.143627,29
0.515863,0.133641,-0.142233,28
0.519118,0.134137,-0.142083,33
0.520239,0.134306,-0.14135,34
0.520978,0.134417,-0.140511,33
0.525319,0.135079,-0.140621,31
0.522307,0.134616,-0.138788,30
0.526749,0.135293,-0.138906,32
0.526319,0.135225,-0.13775,33
0.523614,0.134809,-0.136012,30
0.52148,0.13448,-0.134432,31
0.525908,0.135155,-0.134516,30
0.52509,0.135028,-0.13327,36
0.523026,0.134709,-0.131719,33
0.52653,0.135243,-0.131548,34
0.526818,0.135285,-0.130579,33
0.528377,0.135521,-0.129917,33
0.529147,0.135637,-0.129059,33
0.528246,0.135496,-0.127801,37
0.528937,0.1356,-0.126924,40
0.52693,0.13529,-0.125411,44
0.529448,0.135673,-0.12496,37
0.530785,0.135876,-0.124228,42
0.527895,0.135431,-0.122523,38
0.529944,0.135742,-0.121951,39
0.531767,0.136019,-0.121321,41
0.533118,0.136223,-0.120579,40
0.531008,0.135898,-0.119067,41
0.531392,0.135954,-0.118111,44
0.532422,0.136109,-0.117294,45
0.530721,0.135847,-0.115885,41
0.530707,0.135842,-0.114844,43
0.530535,0.135813,-0.11377,44
0.531163,0.135907,-0.112865,45
0.533646,0.136285,-0.112344,49
0.534121,0.136355,-0.1114,41
0.534112,0.136351,-0.110357,43
0.532489,0.136101,-0.108988,45
0.532885,0.136159,-0.108029,43
0.535062,0.136489,-0.107423,45
0.535707,0.136586,-0.106508,46
0.535865,0.136607,-0.105497,46
0.53815,0.136955,-0.104895,45
0.534965,0.136465,-0.103243,49
0.534801,0.136438,-0.102173,51
0.534882,0.136448,-0.10115,51
0.534882,0.136445,-0.100112,55
0.535695,0.136567,-0.0992239,51
0.537083,0.136777,-0.0984367,56
0.534728,0.136415,-0.0969752,51
0.536276,0.136649,-0.0962137,51
0.535874,0.136585,-0.0951058,53
0.536206,0.136634,-0.0941268,48
0.535158,0.136471,-0.0929109,50
0.535329,0.136495,-0.0919057,56
0.535583,0.136531,-0.0909142,53
0.536162,0.136617,-0.0899762,52
0.537315,0.136791,-0.0891302,54
0.535457,0.136505,-0.0877936,56
0.537098,0.136753,-0.0870234,47
0.535811,0.136554,-0.0857854,49
0.53534,0.13648,-0.0846801,53
0.536576,0.136666,-0.0838397,56
0.532877,0.136099,-0.0822448,54
0.5337,0.136222,-0.0813433,56
0.533641,0.136211,-0.0803083,54
0.531978,0.135954,-0.0790394,57
0.532802,0.136078,-0.0781363,57
0.532025,0.135957,-0.0770025,57
0.53221,0.135983,-0.0760072,62
0.531278,0.135838,-0.0748567,66
0.530668,0.135742,-0.0737543,60
0.532612,0.136037,-0.0729989,66
0.529853,0.135613,-0.0716112,64
0.530518,0.135713,-0.0706832,69
0.529361,0.135533,-0.0695177,68
0.529235,0.135512,-0.0684882,71
0.529585,0.135563,-0.0675193,70
0.527885,0.135301,-0.0662961,77
0.527842,0.135292,-0.0652813,81
0.527722,0.135271,-0.0642578,78
0.528231,0.135347,-0.0633092,88
0.527328,0.135207,-0.0621953,84
0.526663,0.135103,-0.0611124,84
0.525845,0.134975,-0.0600151,93
0.525419,0.134908,-0.0589646,87
0.524763,0.134806,-0.0578909,83
0.525507,0.134917,-0.0569691,74
0.524309,0.134732,-0.0558418,81
0.52335,0.134583,-0.0547438,77
0.522396,0.134435,-0.0536503,79
0.521983,0.134369,-0.0526141,77
0.521189,0.134246,-0.0515429,85
0.520933,0.134205,-0.0505261,85
0.519916,0.134047,-0.0494396,89
0.519435,0.133971,-0.0484062,88
0.519564,0.133989,-0.0474294,80
0.519162,0.133925,-0.0464059,81
0.519141,0.13392,-0.0454168,85
0.518667,0.133845,-0.04439,86
0.517741,0.133701,-0.0433283,91
0.516669,0.133535,-0.0422586,93
0.516577,0.133519,-0.0412698,91
0.515662,0.133377,-0.0402188,92
0.515648,0.133373,-0.0392384,89
0.515635,0.133369,-0.0382584,90
0.513833,0.133091,-0.0371524,90
0.514641,0.133212,-0.0362326,91
0.513071,0.13297,-0.0351512,91
0.513136,0.132978,-0.034182,88
0.512906,0.132941,-0.0331941,91
0.51253,0.132881,-0.0321983,93
0.511418,0.132709,-0.0311605,97
0.511413,0.132706,-0.0301906,92
0.510602,0.13258,-0.0291761,97
0.509794,0.132455,-0.0281651,100
0.511112,0.132654,-0.0272671,104
0.5095,0.132405,-0.0262183,105
0.508044,0.132181,-0.0251832,107
0.507611,0.132113,-0.0242009,101
0.507107,0.132034,-0.0232171,103
0.506821,0.131988,-0.0222447,104
0.506754,0.131975,-0.0212822,108
0.506471,0.13193,-0.0203118,102
0.505398,0.131764,-0.0193135,108
0.50519,0.13173,-0.0183496,104
0.504553,0.131631,-0.0173724,107
0.504062,0.131554,-0.0164021,105
0.502861,0.131368,-0.0154132,104
0.502447,0.131303,-0.0144502,106
0.502317,0.131281,-0.0134961,107
0.50134,0.13113,-0.0125227,107
0.501637,0.131173,-0.0115805,108
0.500946,0.131065,-0.0106178,110
0.500751,0.131033,-0.00966655,108
0.500134,0.130937,-0.00870936,104
0.501422,0.131131,-0.00778142,106
0.500947,0.131057,-0.00682709,108
0.49984,0.130886,-0.00586803,111
0.499721,0.130865,-0.00492153,111
0.498902,0.130738,-0.00397087,112
0.499977,0.1309,-0.00303227,116
0.498529,0.130677,-0.00208242,118
0.498205,0.130626,-0.00113912,119
0.498301,0.130638,-0.000196659,121
0.498118,0.130608,0.0007454,119
0.497588,0.130525,0.00168518,122
0.497269,0.130474,0.00262435,125
0.496812,0.130402,0.0035612,123
0.496495,0.130352,0.00449781,117
0.497221,0.13046,0.00544592,117
0.496351,0.130326,0.00637442,116
0.496384,0.130329,0.00731405,119
0.495519,0.130194,0.0082379,123
0.495485,0.130187,0.00917488,123
0.496143,0.130285,0.0101267,121
0.494661,0.130057,0.011031,124
0.494561,0.13004,0.0119647,121
0.494256,0.129991,0.0128925,128
0.49313,0.129817,0.0137955,124
0.49317,0.129821,0.0147304,129
0.493074,0.129805,0.015661,130
0.493321,0.12984,0.0166033,124
0.492135,0.129657,0.0174942,134
0.491023,0.129486,0.0183836,134
0.491339,0.129532,0.0193265,136
0.489962,0.12932,0.0201993,137
0.488996,0.12917,0.0210852,135
0.488237,0.129052,0.0219771,140
0.488217,0.129047,0.0229016,138
0.487528,0.12894,0.0237929,140
0.487711,0.128966,0.0247267,139
0.487426,0.12892,0.0256364,142
0.48528,0.128591,0.0264422,140
0.485066,0.128557,0.0273506,142
0.48439,0.128451,0.028231,139
0.484046,0.128397,0.0291294,137
0.483046,0.128243,0.0299854,137
0.4831,0.128249,0.030906,137
0.481844,0.128055,0.0317398,141
0.481899,0.128061,0.0326588,137
0.48261,0.128168,0.0336243,136
0.480317,0.127816,0.0343758,135
0.479985,0.127764,0.0352641,136
0.479007,0.127612,0.0361023,135
0.478807,0.12758,0.0369976,135
0.477642,0.1274,0.0378155,133
0.477702,0.127407,0.0387292,134
0.476736,0.127258,0.0395576,136
0.47603,0.127149,0.0404048,137
0.476091,0.127156,0.0413167,134
0.475261,0.127027,0.0421494,128
0.475452,0.127054,0.0430723,132
0.475261,0.127023,0.0439607,135
0.474626,0.126924,0.0448065,136
0.473677,0.126778,0.0456198,134
0.47406,0.126834,0.046561,136
0.472988,0.126669,0.0473579,138
0.472111,0.126533,0.0481708,137
0.470799,0.126331,0.0489355,137
0.470805,0.12633,0.0498353,134
0.470436,0.126272,0.050695,130
0.470255,0.126242,0.0515743,127
0.469578,0.126137,0.0523976,120
0.470022,0.126203,0.0533462,124
0.469471,0.126117,0.0541817,123
0.469294,0.126088,0.0550595,120
0.468746,0.126002,0.0558926,122
0.469254,0.126078,0.056852,118
0.468707,0.125992,0.0576838,120
0.469465,0.126106,0.058677,123
0.468299,0.125926,0.0594291,121
0.468561,0.125964,0.0603613,120
0.468452,0.125945,0.0612462,118
0.468468,0.125946,0.0621476,117
0.468981,0.126022,0.0631163,119
0.469995,0.126174,0.0641558,122
0.469763,0.126137,0.0650271,124
0.469782,0.126137,0.0659331,122
0.470802,0.126291,0.0669819,125
0.469823,0.12614,0.0677467,122
0.470845,0.126293,0.0688005,121
0.470554,0.126247,0.0696643,122
0.470577,0.126248,0.0705745,123
0.470851,0.126288,0.0715234,122
0.471378,0.126366,0.0725124,122
0.471781,0.126425,0.0734847,121
0.47206,0.126465,0.0744393,120
0.471646,0.1264,0.075285,120
0.471925,0.126441,0.0762414,119
0.472522,0.12653,0.0772512,120
0.472678,0.126551,0.0781908,122
0.473342,0.12665,0.0792164,121
0.474774,0.126866,0.0803746,124
0.473723,0.126704,0.0811146,124
0.473756,0.126707,0.0820383,121
0.473981,0.126739,0.0829961,121
0.475292,0.126936,0.0841472,123
0.475456,0.126959,0.0850988,123
0.474981,0.126885,0.0859362,124
0.475466,0.126956,0.0869475,124
0.475696,0.126989,0.0879142,119
0.476314,0.127081,0.0889543,118
0.476805,0.127154,0.0899735,118
0.477621,0.127276,0.091057,118
0.476951,0.127172,0.0918588,120
0.477381,0.127235,0.0928718,118
0.477231,0.12721,0.0937732,117
0.477987,0.127323,0.094854,114
0.479268,0.127516,0.0960431,113
0.480033,0.12763,0.0971336,112
0.479884,0.127605,0.0980414,108
0.480785,0.12774,0.0991649,110
0.481228,0.127805,0.100198,112
0.481937,0.127911,0.101288,113
0.482253,0.127956,0.102299,109
0.483166,0.128093,0.103439,114
0.483951,0.12821,0.104556,120
0.484405,0.128277,0.105604,121
0.48426,0.128253,0.106524,120
0.484984,0.128361,0.107635,122
0.484907,0.128347,0.108572,116
0.485636,0.128455,0.109689,118
0.486098,0.128524,0.11075,115
0.485888,0.12849,0.11166,117
0.486353,0.128558,0.112724,120
0.486886,0.128637,0.113808,121
0.487084,0.128665,0.114815,120
0.487215,0.128682,0.115808,124
0.487143,0.128669,0.116754,124
0.487005,0.128646,0.117684,125
0.487342,0.128695,0.118729,122
0.487205,0.128672,0.11966,124
0.48734,0.12869,0.120659,129
0.487679,0.12874,0.121709,120
0.487612,0.128727,0.12266,122
0.4868,0.128602,0.123423,125
0.48687,0.12861,0.124408,124
0.488163,0.128804,0.125707,124
0.486674,0.128576,0.126294,126
0.486949,0.128615,0.127334,125
0.486277,0.128511,0.128128,125
0.485405,0.128377,0.128867,119
0.485479,0.128386,0.129855,123
0.485823,0.128436,0.130917,124
0.484753,0.128271,0.131599,123
0.485704,0.128413,0.132827,125
0.485511,0.128382,0.133745,123
0.484241,0.128186,0.134367,121
0.483715,0.128104,0.135191,122
0.483591,0.128083,0.136127,126
0.482399,0.1279,0.136761,122
0.482277,0.127879,0.137696,127
0.482356,0.127889,0.138687,127
0.48277,0.12795,0.139777,125
0.481982,0.127828,0.14052,124
0.480336,0.127576,0.141011,125
0.480152,0.127545,0.141925,122
0.479968,0.127515,0.14284,118
0.479125,0.127385,0.143558,121
0.479405,0.127425,0.14461,119
0.477907,0.127196,0.145128,117
0.477924,0.127196,0.1461,119
0.477089,0.127067,0.146813,122
0.476649,0.126998,0.147645,120
0.476015,0.1269,0.148415,117
0.474538,0.126673,0.148922,121
0.474557,0.126674,0.149892,122
0.475095,0.126754,0.151027,123
0.474207,0.126617,0.151712,123
0.474876,0.126716,0.152892,116
0.473343,0.126481,0.153367,120
0.473106,0.126443,0.154257,118
0.472033,0.126278,0.154873,118
0.472184,0.126298,0.155888,118
0.472592,0.126358,0.156988,114
0.471522,0.126194,0.157601,111
0.471867,0.126244,0.158682,116
0.472148,0.126284,0.159745,113
0.47198,0.126256,0.160657,107
0.472069,0.126268,0.161657,100
0.472095,0.126269,0.162636,103
0.472122,0.126271,0.163617,97
0.472213,0.126283,0.164621,100
0.471983,0.126246,0.165514,99
0.47214,0.126267,0.166543,100
0.472297,0.126289,0.167573,95
0.472327,0.126291,0.16856,95
0.47255,0.126323,0.169616,84
0.472969,0.126384,0.170745,88
0.472806,0.126357,0.171666,89
0.473421,0.126448,0.172869,86
0.474104,0.12655,0.174101,84
0.473877,0.126513,0.175002,82
0.473651,0.126476,0.175904,81
0.474337,0.126578,0.177144,77
0.473589,0.126463,0.177854,71
0.476573,0.126913,0.179958,71
0.474378,0.126578,0.180126,65
0.473958,0.126512,0.180958,69
0.474649,0.126614,0.182211,62
0.474621,0.126608,0.183194,61
0.476632,0.126911,0.184962,63
0.474961,0.126655,0.185314,69
0.475921,0.126798,0.186684,70
0.476358,0.126862,0.187854,71
0.476796,0.126926,0.189027,68
0.477434,0.127021,0.190282,65
