0.43938,-0.115445,0.0614492,165
0.439493,-0.115492,0.0623093,161
0.439965,-0.11568,0.0632251,161
0.439671,-0.115566,0.0640245,163
0.439174,-0.115372,0.0647912,158
0.438933,-0.115279,0.0655969,162
0.439457,-0.115488,0.0665253,160
0.437794,-0.114833,0.0670995,166
0.439794,-0.115625,0.0682722,159
0.438535,-0.11513,0.0689087,155
0.437993,-0.114918,0.0696617,163
0.437857,-0.114866,0.0704826,168
0.438027,-0.114935,0.0713562,162
0.437437,-0.114704,0.0720977,161
0.437556,-0.114754,0.072963,160
0.43717,-0.114603,0.0737387,162
0.437392,-0.114693,0.0746234,165
0.437463,-0.114723,0.0754817,167
0.43794,-0.114913,0.076416,166
0.436847,-0.114483,0.0770585,164
0.436565,-0.114374,0.0778507,162
0.436637,-0.114405,0.07871,162
0.43671,-0.114436,0.0795702,164
0.436179,-0.114228,0.0803128,160
0.435347,-0.113901,0.0809944,165
0.435773,-0.114072,0.0819242,163
0.434994,-0.113766,0.0826132,166
0.434368,-0.113521,0.0833306,171
0.434493,-0.113572,0.0842006,167
0.434718,-0.113663,0.0850924,167
0.434244,-0.113478,0.0858388,168
0.434271,-0.113491,0.0866898,170
0.433848,-0.113326,0.0874453,166
0.434175,-0.113457,0.0883616,167
0.433854,-0.113332,0.0891382,164
0.431697,-0.112482,0.08951,165
0.431973,-0.112593,0.0904139,168
0.431113,-0.112255,0.0910648,167
0.431092,-0.112249,0.0919027,164
0.431368,-0.11236,0.0928087,170
0.43061,-0.112063,0.0934781,168
0.429365,-0.111573,0.0940317,167
0.428859,-0.111375,0.0947539,164
0.428499,-0.111235,0.0955093,158
0.42853,-0.111249,0.096357,156
0.428562,-0.111264,0.0972055,159
0.428058,-0.111067,0.0979247,153
0.427993,-0.111043,0.0987498,157
0.427492,-0.110847,0.0994674,155
0.427914,-0.111015,0.100413,159
0.427753,-0.110954,0.101215,154
0.427835,-0.110989,0.102079,154
0.428357,-0.111197,0.103055,152
0.428197,-0.111136,0.103859,153
0.427989,-0.111056,0.10465,151
0.428123,-0.111111,0.105531,151
0.427381,-0.110819,0.106181,146
0.428294,-0.111182,0.107269,150
0.428185,-0.111141,0.108088,143
0.428223,-0.111158,0.108946,152
0.427725,-0.110964,0.10966,144
0.428008,-0.111077,0.110585,140
0.42795,-0.111056,0.111419,135
0.428038,-0.111093,0.112294,142
0.428372,-0.111227,0.113238,136
0.428363,-0.111226,0.114088,138
0.427965,-0.111071,0.114827,142
0.428642,-0.111341,0.115874,144
0.428832,-0.111417,0.116783,143
0.429415,-0.11165,0.117808,139
0.429016,-0.111495,0.118549,148
0.428079,-0.111126,0.11913,142
0.428858,-0.111436,0.120217,142
0.428854,-0.111437,0.121074,145
0.429096,-0.111534,0.122006,145
0.42924,-0.111593,0.122909,145
0.429434,-0.111672,0.12383,146
0.42884,-0.111439,0.124509,137
0.429182,-0.111577,0.125477,140
0.429526,-0.111715,0.126447,145
0.429574,-0.111736,0.127326,147
0.429178,-0.111581,0.128066,142
0.429276,-0.111622,0.128962,139
0.429572,-0.111741,0.129923,138
0.429128,-0.111568,0.130647,135
0.429128,-0.11157,0.131514,136
0.429673,-0.111788,0.132559,139
0.429328,-0.111654,0.133315,136
0.429924,-0.111891,0.134382,137
0.429481,-0.111718,0.135105,140
0.42983,-0.111858,0.136094,142
0.429983,-0.111921,0.137018,137
0.430036,-0.111944,0.137909,135
0.430488,-0.112125,0.138938,137
0.430941,-0.112306,0.13997,133
0.431096,-0.112369,0.140901,132
0.430553,-0.112157,0.141591,134
0.431408,-0.112497,0.142769,132
0.431565,-0.112561,0.143705,128
0.431572,-0.112566,0.14459,140
0.431028,-0.112353,0.145279,136
0.431136,-0.112398,0.1462,133
0.431896,-0.112701,0.147358,130
0.431805,-0.112667,0.14821,133
0.431763,-0.112653,0.149081,135
0.431572,-0.112579,0.149898,127
0.431782,-0.112664,0.150863,128
0.433004,-0.11315,0.152206,127
0.433015,-0.113156,0.153102,129
0.433432,-0.113323,0.154151,126
0.432027,-0.11277,0.154515,125
0.43214,-0.112816,0.15545,122
0.431899,-0.112724,0.156252,125
0.432822,-0.113091,0.1575,122
0.43243,-0.112938,0.158245,125
0.432444,-0.112945,0.159146,126
0.432457,-0.112953,0.160049,126
0.433691,-0.113443,0.161432,115
0.433146,-0.11323,0.162118,109
0.432248,-0.112877,0.162662,114
0.432668,-0.113045,0.16373,109
0.432786,-0.113094,0.164679,103
0.431637,-0.112641,0.165117,103
0.432057,-0.11281,0.166189,111
0.432328,-0.112919,0.167202,111
0.431737,-0.112688,0.167864,120
0.431046,-0.112417,0.168483,123
0.430862,-0.112346,0.169309,130
0.431384,-0.112555,0.170431,127
0.430595,-0.112245,0.171005,127
0.43011,-0.112055,0.171705,128
0.429575,-0.111846,0.172383,123
0.429443,-0.111796,0.173231,115
0.429512,-0.111825,0.174165,120
0.42918,-0.111696,0.174928,111
0.429249,-0.111726,0.175864,113
0.428268,-0.11134,0.176344,111
0.427739,-0.111133,0.177018,110
0.428158,-0.1113,0.178107,101
0.426735,-0.110739,0.178386,111
0.426804,-0.110769,0.179321,112
0.426675,-0.11072,0.18017,115
0.426398,-0.110613,0.180952,113
0.42637,-0.110604,0.181845,113
0.426044,-0.110477,0.182605,102
0.425521,-0.110272,0.183275,103
0.425789,-0.110381,0.184305,104
0.425514,-0.110274,0.185087,99
0.424993,-0.11007,0.185756,108
0.424276,-0.109789,0.186332,108
0.424347,-0.109819,0.187274,105
0.424419,-0.10985,0.188216,116
0.423459,-0.109472,0.188675,107
0.423384,-0.109444,0.189548,107
0.423848,-0.109631,0.190679,97
0.422989,-0.109293,0.19118,95
0.422181,-0.108975,0.191704,137
0.422107,-0.108948,0.192578,96
0.422082,-0.10894,0.193477,105
0.422154,-0.108971,0.194423,98
0.942651,-0.321113,-0.474925,7
0.417987,-0.109983,-0.203497,13
0.413076,-0.108009,-0.200094,12
0.349699,-0.0825063,-0.167196,10
0.414739,-0.108683,-0.199141,14
0.413343,-0.108123,-0.197544,11
0.411449,-0.107363,-0.195705,12
0.411138,-0.10724,-0.194662,14
0.413987,-0.108389,-0.195184,15
0.420715,-0.111099,-0.197605,13
0.224596,-0.0321663,-0.101459,13
0.406725,-0.105473,-0.188967,18
0.288025,-0.0576992,-0.130745,10
0.416974,-0.109602,-0.192175,13
0.409355,-0.106538,-0.187615,13
0.412451,-0.107786,-0.188221,16
0.414048,-0.108431,-0.188099,19
0.413736,-0.108308,-0.187066,18
0.414826,-0.108748,-0.186697,13
0.412837,-0.10795,-0.184876,18
0.412482,-0.107809,-0.18383,13
0.411023,-0.107224,-0.182273,21
0.413024,-0.108032,-0.182325,16
0.411609,-0.107464,-0.180795,19
0.412363,-0.10777,-0.180267,18
0.415358,-0.108978,-0.180759,17
0.413881,-0.108385,-0.179207,19
0.412786,-0.107946,-0.177835,16
0.415831,-0.109175,-0.178332,20
0.416319,-0.109373,-0.177671,17
0.415867,-0.109193,-0.17659,21
0.41309,-0.108077,-0.174481,20
0.413711,-0.10833,-0.173884,21
0.416532,-0.109467,-0.174251,22
0.412917,-0.108014,-0.171795,27
0.414419,-0.108621,-0.17158,24
0.415839,-0.109195,-0.171323,24
0.414878,-0.10881,-0.170037,24
0.414712,-0.108745,-0.169096,21
0.413758,-0.108363,-0.167821,20
0.415639,-0.109123,-0.167751,20
0.414125,-0.108515,-0.166244,25
0.415401,-0.109031,-0.165913,22
0.41631,-0.109399,-0.165425,25
0.416801,-0.109599,-0.16476,22
0.416729,-0.109572,-0.163861,28
0.414884,-0.108831,-0.162237,25
0.414953,-0.108861,-0.161402,24
0.416141,-0.109342,-0.161021,31
0.414861,-0.108828,-0.15964,26
0.416047,-0.109308,-0.159256,29
0.416585,-0.109527,-0.158608,35
0.416282,-0.109407,-0.157624,27
0.417008,-0.109701,-0.157049,31
0.418584,-0.110338,-0.156806,25
0.416683,-0.109575,-0.155198,29
0.416101,-0.109342,-0.154112,30
0.41814,-0.110166,-0.154042,29
0.416479,-0.109499,-0.152541,26
0.419466,-0.110704,-0.152825,28
0.420393,-0.111079,-0.152314,34
0.419944,-0.110901,-0.15128,30
0.418224,-0.11021,-0.14977,35
0.420377,-0.111079,-0.149716,33
0.418043,-0.110141,-0.147987,29
0.420337,-0.111067,-0.147977,28
0.418899,-0.11049,-0.146588,37
0.42063,-0.111189,-0.146363,35
0.418955,-0.110517,-0.144895,35
0.41922,-0.110626,-0.144134,32
0.41859,-0.110374,-0.143053,34
0.420508,-0.111149,-0.142883,28
0.419686,-0.11082,-0.141734,35
0.4219,-0.111714,-0.141659,36
0.420551,-0.111172,-0.140328,35
0.42025,-0.111053,-0.139368,33
0.422326,-0.111892,-0.139232,38
0.422071,-0.111791,-0.138287,38
0.423347,-0.112307,-0.137867,38
0.421753,-0.111667,-0.136467,45
0.421738,-0.111663,-0.135608,41
0.42177,-0.111678,-0.134765,44
0.423717,-0.112464,-0.13456,42
0.42303,-0.11219,-0.133477,42
0.423447,-0.11236,-0.132759,47
0.425846,-0.113328,-0.132688,43
0.424237,-0.112682,-0.131307,51
0.423983,-0.112582,-0.13037,46
0.423634,-0.112443,-0.129404,42
0.42492,-0.112964,-0.128961,52
0.425294,-0.113116,-0.128225,44
0.425282,-0.113113,-0.127367,47
0.424643,-0.112858,-0.126313,48
0.426227,-0.113498,-0.125952,49
0.425973,-0.113398,-0.12502,51
0.426107,-0.113454,-0.124207,45
0.426388,-0.11357,-0.123439,54
0.426329,-0.113548,-0.122568,53
0.426757,-0.113722,-0.121844,53
0.428749,-0.114527,-0.121583,55
0.427468,-0.114013,-0.120349,59
0.42824,-0.114326,-0.119723,57
0.427841,-0.114167,-0.118752,60
0.427638,-0.114088,-0.117841,59
0.42763,-0.114087,-0.116988,61
0.428404,-0.114401,-0.116357,60
0.428544,-0.114459,-0.115545,55
0.429371,-0.114794,-0.114925,59
0.429709,-0.114933,-0.114167,62
0.429261,-0.114754,-0.11319,56
0.428912,-0.114616,-0.112243,61
0.428907,-0.114616,-0.111392,62
0.428805,-0.114577,-0.110514,65
0.429389,-0.114814,-0.109822,69
0.430172,-0.115132,-0.109181,69
0.429235,-0.114756,-0.108084,67
0.429527,-0.114876,-0.107312,71
0.429623,-0.114916,-0.106489,71
0.430752,-0.115374,-0.105933,64
0.431344,-0.115614,-0.105235,69
0.431046,-0.115496,-0.104309,68
0.431391,-0.115637,-0.103547,77
0.430847,-0.11542,-0.102562,79
0.431489,-0.115681,-0.101874,76
0.431688,-0.115763,-0.101075,72
0.43298,-0.116286,-0.100541,78
0.432136,-0.115948,-0.0994871,78
0.432386,-0.116051,-0.098699,81
0.432438,-0.116074,-0.0978634,78
0.432689,-0.116177,-0.0970749,73
0.432891,-0.116261,-0.0962745,83
0.433194,-0.116385,-0.0954968,89
0.433397,-0.116469,-0.0946958,82
0.433252,-0.116412,-0.0938155,83
0.433855,-0.116658,-0.0931045,79
0.433512,-0.116521,-0.0921805,83
0.433767,-0.116626,-0.0913906,82
0.433424,-0.11649,-0.0904695,79
0.43448,-0.116918,-0.089853,78
0.433788,-0.116641,-0.0888578,80
0.433945,-0.116706,-0.0880464,81
0.433455,-0.116511,-0.0870987,82
0.433564,-0.116557,-0.086278,87
0.433175,-0.116402,-0.0853549,88
0.433832,-0.116669,-0.0846473,89
0.434792,-0.117058,-0.0839987,83
0.433804,-0.116662,-0.0829568,85
0.433666,-0.116608,-0.0820878,94
0.433828,-0.116675,-0.0812785,95
0.433094,-0.116382,-0.0802954,95
0.433803,-0.11667,-0.0795925,103
0.432576,-0.116177,-0.0785195,107
0.432937,-0.116324,-0.0777502,108
0.433199,-0.116432,-0.0769617,98
0.43267,-0.116221,-0.0760268,94
0.432636,-0.116209,-0.0751847,104
0.433395,-0.116517,-0.0744857,95
0.433015,-0.116366,-0.0735815,103
0.432884,-0.116315,-0.072723,104
0.432654,-0.116225,-0.0718483,103
0.432871,-0.116314,-0.0710514,107
0.431705,-0.115846,-0.0700198,104
0.432513,-0.116174,-0.0693239,101
0.431106,-0.115608,-0.0682585,105
0.431078,-0.115599,-0.0674245,109
0.431491,-0.115768,-0.0666624,110
0.430924,-0.115541,-0.0657426,112
0.431093,-0.115611,-0.0649413,110
0.43048,-0.115366,-0.0640181,111
0.430552,-0.115397,-0.0632029,114
0.429357,-0.114917,-0.0621961,110
0.429139,-0.114831,-0.0613402,109
0.42897,-0.114765,-0.0604927,111
0.428898,-0.114738,-0.0596604,111
0.428682,-0.114653,-0.058808,111
0.427406,-0.11414,-0.0578072,114
0.427336,-0.114114,-0.0569798,115
0.427076,-0.114011,-0.0561267,112
0.427151,-0.114043,-0.0553205,121
0.426557,-0.113806,-0.054425,118
0.42506,-0.113204,-0.053414,119
0.425565,-0.113409,-0.0526676,122
0.424882,-0.113136,-0.0517686,125
0.424249,-0.112883,-0.0508788,121
0.423949,-0.112764,-0.0500329,130
0.423509,-0.112588,-0.0491715,128
0.4234,-0.112546,-0.0483514,127
0.422962,-0.112371,-0.0474937,133
0.422807,-0.112311,-0.0466704,130
0.422652,-0.11225,-0.0458482,129
0.421285,-0.111701,-0.0448922,131
0.420576,-0.111417,-0.0440136,132
0.42061,-0.111432,-0.0432177,129
0.420089,-0.111224,-0.0423636,127
0.420449,-0.111371,-0.0416025,130
0.420578,-0.111425,-0.0408168,133
0.420846,-0.111535,-0.0400447,133
0.420512,-0.111403,-0.0392133,132
0.420133,-0.111252,-0.0383792,139
0.419894,-0.111157,-0.0375598,137
0.41961,-0.111044,-0.0367374,134
0.419326,-0.110932,-0.0359165,132
0.418951,-0.110783,-0.035089,135
0.419451,-0.110986,-0.0343374,134
0.419032,-0.110819,-0.0335078,133
0.419579,-0.111042,-0.0327583,135
0.41893,-0.110782,-0.0319124,140
0.419478,-0.111005,-0.0311613,140
0.419474,-0.111005,-0.0303668,142
0.419241,-0.110913,-0.0295558,139
0.419607,-0.111063,-0.0287883,136
0.419559,-0.111045,-0.0279911,143
0.419603,-0.111065,-0.0272003,145
0.419833,-0.111159,-0.0264215,139
0.420017,-0.111236,-0.0256391,143
0.419924,-0.1112,-0.0248393,142
0.420942,-0.111613,-0.0241054,147
0.421268,-0.111746,-0.0233281,145
0.421502,-0.111843,-0.0225447,146
0.421876,-0.111996,-0.0217678,147
0.421599,-0.111886,-0.0209564,148
0.42137,-0.111795,-0.0201485,142
0.421141,-0.111705,-0.0193417,146
0.420589,-0.111484,-0.0185214,143
0.421428,-0.111825,-0.0177631,147
0.421666,-0.111923,-0.0169769,149
0.421765,-0.111964,-0.0161844,147
0.42191,-0.112025,-0.0153934,146
0.422057,-0.112086,-0.0146019,148
0.422017,-0.112072,-0.0138038,145
0.422352,-0.112209,-0.0130174,149
0.423859,-0.112819,-0.0122638,144
0.422976,-0.112465,-0.0114397,148
0.423126,-0.112527,-0.0106451,150
0.424405,-0.113046,-0.00987579,152
0.424086,-0.112919,-0.00906789,148
0.424474,-0.113077,-0.00827476,149
0.424344,-0.113027,-0.0074713,149
0.424686,-0.113167,-0.00667549,146
0.424557,-0.113117,-0.0058722,146
0.424759,-0.1132,-0.0050731,147
0.42482,-0.113227,-0.00427194,145
0.426257,-0.113809,-0.00348024,151
0.425844,-0.113644,-0.00267347,150
0.426907,-0.114075,-0.00187287,149
0.42678,-0.114026,-0.00106677,147
0.426844,-0.114053,-0.000260983,154
0.426289,-0.113831,0.000543253,146
0.427357,-0.114264,0.00135328,148
0.427519,-0.114332,0.00216132,157
0.427059,-0.114148,0.00296448,150
0.427365,-0.114274,0.0037742,146
0.428008,-0.114535,0.00458952,145
0.429088,-0.114973,0.00541395,151
0.428916,-0.114906,0.00622158,146
0.429421,-0.115111,0.00704136,148
0.42925,-0.115044,0.00784909,149
0.429321,-0.115075,0.00866174,151
0.42978,-0.115262,0.00948438,147
0.430095,-0.115392,0.0103051,152
0.430023,-0.115364,0.0111159,150
0.430583,-0.115592,0.011946,152
0.430463,-0.115546,0.0127561,148
0.432444,-0.116348,0.013639,149
0.432471,-0.116361,0.014458,151
0.432794,-0.116493,0.0152886,150
0.43302,-0.116586,0.0161166,152
0.432409,-0.116342,0.0169098,149
0.432881,-0.116534,0.0177493,150
0.433257,-0.116688,0.0185862,150
0.433534,-0.116802,0.01942,152
0.433961,-0.116976,0.0202625,156
0.434936,-0.117372,0.0211359,158
0.435218,-0.117488,0.0219753,156
0.435951,-0.117786,0.0228416,157
0.435635,-0.11766,0.0236493,156
0.43637,-0.117959,0.0245198,161
0.436306,-0.117935,0.0253431,156
0.435942,-0.11779,0.026147,157
0.435979,-0.117807,0.0269763,159
0.436366,-0.117966,0.0278301,156
0.436455,-0.118003,0.0286644,156
0.436594,-0.118061,0.0295029,156
0.4387,-0.118914,0.0304895,149
0.438083,-0.118667,0.0312753,155
0.438833,-0.118972,0.0321667,157
0.438014,-0.118643,0.0329344,157
0.438562,-0.118866,0.0338123,154
0.43896,-0.119029,0.0346799,153
0.438648,-0.118905,0.0354876,150
0.438794,-0.118966,0.0363349,151
0.438382,-0.118802,0.0371324,154
0.438782,-0.118965,0.0380038,152
0.438726,-0.118945,0.0388339,148
0.438976,-0.119048,0.0396935,155
0.440502,-0.119666,0.0406808,151
0.439223,-0.119152,0.0413912,151
0.439628,-0.119317,0.0422701,154
0.440392,-0.119628,0.0431886,154
0.441726,-0.120169,0.0441714,158
0.439777,-0.119384,0.0448019,155
0.439828,-0.119406,0.0456469,156
0.441006,-0.119884,0.0466198,155
0.439269,-0.119185,0.0472623,153
0.440702,-0.119765,0.0482691,156
0.441475,-0.12008,0.0492036,154
0.43948,-0.119276,0.0498061,159
0.439994,-0.119486,0.0507099,163
0.439793,-0.119407,0.0515266,158
0.441079,-0.119928,0.0525318,156
0.440059,-0.119518,0.0532446,153
0.439911,-0.11946,0.0540681,156
0.439764,-0.119403,0.0548914,154
0.439618,-0.119346,0.0557145,154
0.439421,-0.119269,0.0565305,158
0.439838,-0.119439,0.0574314,155
0.439387,-0.119259,0.0582117,157
0.439805,-0.11943,0.0591151,160
0.439866,-0.119457,0.0599687,162
0.441314,-0.120044,0.0610273,162
0.439223,-0.119201,0.0615633,158
0.439439,-0.11929,0.0624405,162
0.439451,-0.119297,0.0632878,157
0.438496,-0.118913,0.0639849,157
0.43912,-0.119167,0.0649275,163
0.43893,-0.119093,0.065743,163
0.438181,-0.118792,0.0664678,160
0.438602,-0.118964,0.0673815,158
0.438668,-0.118993,0.0682385,155
0.437263,-0.118427,0.0688493,157
0.437178,-0.118395,0.0696789,159
0.437296,-0.118445,0.0705434,161
0.439042,-0.119152,0.0716918,160
0.438143,-0.118791,0.0723826,159
0.438671,-0.119007,0.073324,157
0.436509,-0.118135,0.073784,156
0.43673,-0.118226,0.0746693,166
0.436649,-0.118196,0.0755002,163
0.436316,-0.118063,0.0762845,171
0.436388,-0.118094,0.0771438,159
0.436763,-0.118248,0.0780616,167
0.436532,-0.118157,0.078865,168
0.436353,-0.118086,0.0796779,167
0.435922,-0.117914,0.0804411,166
0.435794,-0.117865,0.0812632,165
0.435315,-0.117673,0.0820147,166
0.434487,-0.11734,0.0826942,165
0.433961,-0.11713,0.0834326,167
0.433737,-0.117041,0.0842315,170
0.434012,-0.117155,0.0851341,170
0.433439,-0.116925,0.0858598,165
0.433565,-0.116978,0.0867322,167
0.433592,-0.116991,0.0875844,172
0.43347,-0.116944,0.0884048,169
0.432602,-0.116595,0.089062,167
0.430948,-0.115929,0.0895426,165
0.431075,-0.115982,0.0904139,164
0.430365,-0.115697,0.0910979,161
0.430443,-0.115731,0.0919585,163
0.430178,-0.115625,0.0927411,163
0.429325,-0.115283,0.0933875,160
0.429943,-0.115535,0.0943739,163
0.428068,-0.114779,0.0947767,160
0.428245,-0.114852,0.0956593,151
0.427984,-0.114749,0.0964385,151
0.427772,-0.114665,0.097229,152
0.427512,-0.114562,0.0980074,154
0.429252,-0.115268,0.0992764,152
0.427578,-0.114593,0.0997075,151
0.42766,-0.114628,0.100571,149
0.427208,-0.114447,0.101301,149
0.427436,-0.114542,0.102202,152
0.427762,-0.114676,0.10313,149
0.427311,-0.114495,0.103859,152
0.427493,-0.114571,0.104752,148
0.427626,-0.114627,0.105633,146
0.427809,-0.114703,0.106528,144
0.427554,-0.114602,0.107308,145
0.428323,-0.114915,0.108363,144
0.428166,-0.114853,0.10917,147
0.427863,-0.114733,0.109938,142
0.427317,-0.114514,0.110639,142
0.427795,-0.11471,0.111621,134
0.427884,-0.114747,0.112497,139
0.428413,-0.114964,0.113499,138
0.42816,-0.114864,0.114281,133
0.428496,-0.115001,0.115231,142
0.428244,-0.114901,0.116014,139
0.428482,-0.115,0.116939,143
0.428231,-0.1149,0.117722,146
0.428176,-0.11488,0.118563,139
0.429104,-0.115258,0.119695,147
0.428411,-0.11498,0.120349,145
0.428603,-0.115059,0.121265,142
0.429091,-0.115259,0.122273,147
0.42894,-0.1152,0.123089,147
0.429183,-0.1153,0.124026,140
0.429082,-0.115261,0.124858,137
0.429426,-0.115402,0.125829,145
0.429128,-0.115284,0.126601,143
0.429373,-0.115385,0.127543,141
0.429669,-0.115507,0.128504,144
0.430512,-0.11585,0.12964,144
0.429422,-0.115411,0.13016,141
0.429769,-0.115554,0.131141,135
0.430067,-0.115677,0.132109,136
0.430915,-0.116022,0.133258,134
0.430618,-0.115904,0.134034,140
0.430969,-0.116048,0.135024,135
0.431022,-0.116071,0.135918,131
0.430527,-0.115873,0.136627,132
0.43113,-0.116119,0.137707,138
0.431134,-0.116123,0.138587,138
0.431539,-0.116289,0.139604,137
0.431644,-0.116334,0.140521,135
0.4317,-0.116359,0.141421,142
0.431757,-0.116383,0.142323,138
0.432165,-0.116551,0.14335,135
0.432021,-0.116495,0.144183,141
0.432785,-0.116806,0.14534,141
0.432591,-0.11673,0.146158,136
0.432902,-0.116858,0.147158,140
0.432457,-0.11668,0.147885,135
0.433022,-0.11691,0.14898,134
0.433133,-0.116957,0.149912,126
0.433194,-0.116984,0.150826,126
0.433052,-0.116929,0.151667,122
0.433164,-0.116977,0.152602,122
0.433379,-0.117066,0.153576,129
0.433848,-0.117258,0.154649,131
0.433606,-0.117162,0.155455,124
0.433771,-0.117231,0.156415,123
0.433479,-0.117115,0.157202,119
0.433696,-0.117205,0.158185,116
0.43371,-0.117213,0.15909,113
0.433877,-0.117283,0.160057,114
0.43328,-0.117043,0.160725,116
0.433754,-0.117237,0.161813,115
0.434229,-0.117432,0.162905,113
0.433224,-0.117027,0.16341,115
0.433954,-0.117325,0.164607,105
0.434329,-0.117479,0.165664,116
0.434141,-0.117405,0.166496,125
0.433443,-0.117124,0.16712,125
0.432136,-0.116598,0.167493,116
0.432357,-0.116689,0.168489,126
0.431867,-0.116493,0.169194,124
0.430923,-0.116114,0.169708,131
0.430689,-0.116021,0.170515,121
0.431263,-0.116256,0.171662,121
0.43007,-0.115775,0.172066,116
0.430845,-0.116091,0.173302,115
0.430511,-0.115958,0.174068,115
0.430581,-0.115988,0.175007,123
0.429844,-0.115692,0.175599,112
0.429713,-0.115642,0.176451,116
0.429431,-0.11553,0.177238,122
0.428749,-0.115256,0.177849,124
0.428669,-0.115226,0.178723,121
0.427839,-0.114892,0.179266,116
0.427112,-0.1146,0.179851,112
0.426784,-0.114469,0.180613,110
0.427104,-0.114601,0.181665,106
0.425883,-0.114109,0.182024,106
0.425707,-0.11404,0.182852,104
0.425827,-0.114091,0.183816,106
0.426395,-0.114323,0.184986,101
0.425178,-0.113833,0.185337,104
0.425646,-0.114024,0.186464,101
0.424236,-0.113456,0.186721,107
0.424603,-0.113607,0.187802,107
0.424774,-0.113678,0.188794,106
0.425243,-0.11387,0.189928,106
0.423933,-0.113342,0.190223,108
0.424006,-0.113374,0.19117,101
0.423685,-0.113246,0.191931,102
0.422825,-0.1129,0.192432,142
0.423537,-0.11319,0.193689,96
0.423119,-0.113023,0.194402,97
0.422359,-0.112718,0.194947,112
0.282172,-0.0577226,-0.135331,11
0.411785,-0.111071,-0.20077,11
0.412961,-0.111557,-0.200474,12
0.406537,-0.108916,-0.196317,12
0.410753,-0.110653,-0.197565,16
0.407016,-0.109117,-0.194795,18
0.4146,-0.112241,-0.197711,12
0.507184,-0.150351,-0.243052,9
0.413966,-0.111984,-0.195602,12
0.411278,-0.11088,-0.19338,17
0.411615,-0.111021,-0.192659,17
0.409145,-0.110006,-0.190563,13
0.412895,-0.111552,-0.191509,15
0.412769,-0.111502,-0.19056,19
0.411809,-0.111109,-0.189209,11
0.414994,-0.112423,-0.189856,14
0.408946,-0.109935,-0.186074,13
0.412408,-0.111363,-0.186845,17
0.410211,-0.11046,-0.184922,13
0.412115,-0.111246,-0.184942,15
0.41516,-0.112502,-0.18549,12
0.413632,-0.111875,-0.18389,15
0.410231,-0.110477,-0.181428,17
0.412133,-0.111262,-0.181433,22
0.410907,-0.110759,-0.179992,18
0.411291,-0.11092,-0.179294,19
0.412971,-0.111613,-0.179186,17
0.412525,-0.111432,-0.178107,18
0.418693,-0.113974,-0.180017,20
0.413812,-0.111966,-0.176937,20
0.415511,-0.112668,-0.17682,12
0.414221,-0.112139,-0.175367,20
0.415033,-0.112475,-0.174851,17
0.416129,-0.112929,-0.174458,22
0.416901,-0.113249,-0.173918,24
0.415463,-0.112659,-0.172412,22
0.411774,-0.111142,-0.169938,18
0.413454,-0.111836,-0.169797,21
0.414542,-0.112286,-0.169395,25
0.41601,-0.112893,-0.169151,18
0.412731,-0.111544,-0.166885,19
0.413029,-0.111669,-0.166146,19
0.41416,-0.112137,-0.165757,21
0.417597,-0.113555,-0.166328,21
0.414436,-0.112255,-0.16414,24
0.418254,-0.113829,-0.164854,23
0.416533,-0.113123,-0.163273,25
0.417307,-0.113444,-0.162721,24
0.415316,-0.112626,-0.16104,28
0.414132,-0.11214,-0.159696,25
0.415455,-0.112687,-0.159368,32
0.416132,-0.112968,-0.158776,29
0.416249,-0.113019,-0.157959,26
0.416507,-0.113127,-0.157198,28
0.417799,-0.113661,-0.156844,23
0.418436,-0.113926,-0.156228,21
0.419455,-0.114347,-0.155759,29
0.418722,-0.114047,-0.154608,29
0.417381,-0.113497,-0.153225,30
0.416891,-0.113298,-0.152176,29
0.418091,-0.113794,-0.151774,28
0.417788,-0.113671,-0.150797,28
0.41772,-0.113646,-0.149912,35
0.4185,-0.113969,-0.149344,32
0.418999,-0.114176,-0.14867,36
0.419404,-0.114346,-0.147959,28
0.421668,-0.11528,-0.147932,36
0.418799,-0.1141,-0.146017,29
0.419346,-0.114328,-0.145358,30
0.422039,-0.115439,-0.145474,32
0.421207,-0.115099,-0.144311,35
0.42157,-0.11525,-0.143579,34
0.42022,-0.114696,-0.142238,29
0.420345,-0.11475,-0.141424,36
0.422473,-0.115628,-0.141314,35
0.425108,-0.116716,-0.141373,33
0.421434,-0.115205,-0.139232,36
0.421466,-0.11522,-0.138386,34
0.420357,-0.114765,-0.137149,41
0.422006,-0.115447,-0.136856,36
0.422181,-0.115521,-0.136059,38
0.421451,-0.115222,-0.134957,40
0.421912,-0.115414,-0.134257,42
0.423333,-0.116002,-0.133874,45
0.422935,-0.11584,-0.132886,41
0.423352,-0.116014,-0.132167,44
0.424349,-0.116427,-0.131636,47
0.425156,-0.116761,-0.13104,42
0.423072,-0.115905,-0.129512,43
0.42455,-0.116516,-0.129131,51
0.424007,-0.116294,-0.128103,54
0.424718,-0.116589,-0.127473,46
0.424802,-0.116626,-0.126645,49
0.424984,-0.116703,-0.125847,47
0.425311,-0.11684,-0.125094,49
0.424769,-0.116618,-0.124074,50
0.425048,-0.116736,-0.123307,47
0.425279,-0.116833,-0.122524,51
0.426821,-0.117471,-0.122136,61
0.426617,-0.117389,-0.12122,57
0.426948,-0.117527,-0.120464,56
0.426308,-0.117265,-0.119422,52
0.4263,-0.117264,-0.118568,57
0.426243,-0.117243,-0.1177,53
0.427549,-0.117783,-0.117226,54
0.42652,-0.117361,-0.116079,56
0.427193,-0.117641,-0.11542,60
0.428701,-0.118264,-0.114994,58
0.428156,-0.118042,-0.113989,54
0.42918,-0.118465,-0.113421,60
0.428096,-0.118021,-0.11227,61
0.42814,-0.118041,-0.111432,64
0.428038,-0.118001,-0.110554,63
0.428866,-0.118344,-0.109928,60
0.429746,-0.118709,-0.109312,62
0.429349,-0.118548,-0.108356,63
0.429346,-0.118549,-0.107505,66
0.429688,-0.118691,-0.106745,65
0.430128,-0.118875,-0.106009,67
0.430176,-0.118897,-0.105171,66
0.430668,-0.119102,-0.104447,74
0.43042,-0.119002,-0.103535,82
0.430124,-0.118882,-0.102612,84
0.430814,-0.119168,-0.101935,78
0.430864,-0.119191,-0.101099,79
0.430816,-0.119173,-0.100239,82
0.431262,-0.119359,-0.0994991,80
0.431066,-0.11928,-0.0986041,80
0.432058,-0.119691,-0.097993,87
0.431813,-0.119592,-0.0970866,83
0.432362,-0.119821,-0.0963673,86
0.431968,-0.119661,-0.0954279,86
0.431725,-0.119562,-0.094525,87
0.431927,-0.119648,-0.0937252,84
0.432081,-0.119713,-0.0929141,89
0.431147,-0.11933,-0.0918598,90
0.431647,-0.119539,-0.0911272,89
0.431703,-0.119564,-0.0902957,91
0.431463,-0.119467,-0.0894001,89
0.432858,-0.120044,-0.0888578,81
0.431973,-0.119681,-0.0878244,83
0.43213,-0.119748,-0.087015,85
0.43125,-0.119387,-0.0859886,86
0.431704,-0.119576,-0.0852423,79
0.43201,-0.119705,-0.0844645,88
0.431675,-0.119568,-0.0835556,85
0.431637,-0.119555,-0.0827083,88
0.433433,-0.120297,-0.0822261,91
0.431858,-0.11965,-0.0810739,97
0.432811,-0.120045,-0.0804207,93
0.432774,-0.120032,-0.0795734,97
0.432045,-0.119733,-0.0785947,98
0.433448,-0.120314,-0.0780213,101
0.43247,-0.119913,-0.0769986,100
0.43204,-0.119737,-0.0760814,104
0.43255,-0.11995,-0.0753379,99
0.432467,-0.119918,-0.0744857,107
0.432236,-0.119825,-0.073608,103
0.431563,-0.119549,-0.0726535,102
0.431778,-0.119639,-0.0718569,103
0.431747,-0.119629,-0.0710175,102
0.431568,-0.119557,-0.0701535,97
0.431243,-0.119425,-0.069266,108
0.430821,-0.119253,-0.0683641,111
0.43094,-0.119304,-0.067553,105
0.429933,-0.118891,-0.0665594,102
0.430052,-0.118942,-0.0657504,107
0.430025,-0.118933,-0.0649182,108
0.430048,-0.118944,-0.0640941,109
0.429535,-0.118735,-0.0631879,105
0.429169,-0.118586,-0.0623066,108
0.42929,-0.118638,-0.0614999,112
0.428345,-0.11825,-0.0605356,108
0.427501,-0.117904,-0.0595901,110
0.427816,-0.118036,-0.058815,117
0.426832,-0.117632,-0.0578548,112
0.427002,-0.117704,-0.0570602,119
0.426263,-0.117401,-0.0561399,119
0.42586,-0.117237,-0.0552687,126
0.425936,-0.11727,-0.0544633,124
0.426156,-0.117363,-0.0536768,131
0.425803,-0.117219,-0.0528155,126
0.424075,-0.116508,-0.0517806,127
0.42401,-0.116484,-0.0509618,131
0.424657,-0.116753,-0.0502312,133
0.424167,-0.116552,-0.0493603,130
0.422643,-0.115926,-0.0483682,137
0.422207,-0.115748,-0.0475101,131
0.422239,-0.115763,-0.0467082,132
0.421198,-0.115335,-0.0457847,126
0.420348,-0.114987,-0.044887,130
0.420289,-0.114965,-0.0440794,123
0.420092,-0.114885,-0.0432574,129
0.421149,-0.115323,-0.0425685,125
0.419746,-0.114746,-0.0416216,129
0.419782,-0.114763,-0.0408262,129
0.419588,-0.114685,-0.040008,130
0.419163,-0.114512,-0.0391684,132
0.418556,-0.114263,-0.0383135,129
0.419377,-0.114604,-0.0375941,129
0.419093,-0.114488,-0.036771,127
0.418763,-0.114354,-0.0359452,131
0.418435,-0.114221,-0.035121,126
0.417879,-0.113994,-0.0342789,127
0.418423,-0.11422,-0.0335307,134
0.418143,-0.114106,-0.0327136,131
0.418597,-0.114296,-0.0319559,135
0.417952,-0.114031,-0.0311118,135
0.418131,-0.114107,-0.0303324,131
0.418311,-0.114183,-0.0295524,132
0.418676,-0.114336,-0.0287851,138
0.41872,-0.114356,-0.0279942,137
0.41858,-0.1143,-0.0271911,139
0.419223,-0.114567,-0.0264395,138
0.419452,-0.114664,-0.0256595,135
0.419729,-0.11478,-0.0248815,141
0.420701,-0.115183,-0.0241437,140
0.419315,-0.114613,-0.0232675,139
0.420703,-0.115188,-0.0225498,141
0.420288,-0.115019,-0.0217309,140
0.420986,-0.115309,-0.0209706,142
0.420201,-0.114987,-0.0201349,146
0.4209,-0.115277,-0.0193722,148
0.420625,-0.115166,-0.0185631,143
0.420769,-0.115227,-0.0177731,146
0.421006,-0.115327,-0.0169864,145
0.423112,-0.116198,-0.016272,144
0.421296,-0.11545,-0.0154038,148
0.421629,-0.115589,-0.0146182,146
0.421636,-0.115594,-0.0138207,141
0.422624,-0.116004,-0.0130537,143
0.423618,-0.116416,-0.0122829,146
0.422594,-0.115996,-0.0114537,142
0.423072,-0.116195,-0.0106662,144
0.423457,-0.116356,-0.0098747,144
0.423609,-0.11642,-0.0090768,146
0.423949,-0.116563,-0.00828194,145
0.423537,-0.116395,-0.00747291,145
0.424208,-0.116674,-0.00668188,149
0.424127,-0.116642,-0.00587836,149
0.424045,-0.11661,-0.00507519,147
0.425051,-0.117028,-0.00428222,152
0.426349,-0.117565,-0.0034873,154
0.425887,-0.117377,-0.00267828,152
0.425618,-0.117267,-0.00187171,150
0.426109,-0.117472,-0.00106702,151
0.426126,-0.117481,-0.000260804,152
0.426381,-0.117588,0.000546188,148
0.429088,-0.118708,0.00136632,156
0.427373,-0.118002,0.00216663,149
0.426865,-0.117794,0.00297088,150
0.428324,-0.118398,0.00379466,145
0.426856,-0.117794,0.00458642,145
0.428413,-0.118439,0.00541755,144
0.42882,-0.118609,0.00623547,147
0.42918,-0.11876,0.00705417,143
0.429251,-0.118791,0.00786831,152
0.429564,-0.118922,0.00868837,147
0.429588,-0.118934,0.0095025,145
0.43073,-0.119408,0.010347,148
0.430755,-0.11942,0.0111637,150
0.430147,-0.119171,0.011961,144
0.430757,-0.119425,0.0127961,144
0.431126,-0.119579,0.0136253,142
0.431789,-0.119855,0.014467,147
0.432062,-0.11997,0.0152962,151
0.431943,-0.119923,0.0161106,147
0.432414,-0.120119,0.0169499,149
0.433134,-0.120418,0.0178024,148
0.433609,-0.120616,0.0186465,143
0.432505,-0.120163,0.0194151,146
0.434266,-0.120892,0.0203257,149
0.435294,-0.121318,0.0212045,153
0.435427,-0.121375,0.0220383,155
0.435062,-0.121226,0.0228445,156
0.435395,-0.121366,0.0236905,152
0.43538,-0.121362,0.0245168,155
0.435516,-0.12142,0.0253526,151
0.435802,-0.12154,0.0261989,153
0.4378,-0.122367,0.0271614,148
0.437031,-0.122052,0.0279409,154
0.437977,-0.122445,0.0288395,152
0.437764,-0.122359,0.0296572,151
0.438158,-0.122523,0.0305199,152
0.438198,-0.122542,0.0313571,157
0.43834,-0.122603,0.0322028,150
0.438483,-0.122664,0.0330492,149
0.438577,-0.122704,0.0338923,149
0.438264,-0.122578,0.0347014,149
0.438308,-0.122598,0.0355405,150
0.43891,-0.122848,0.0364299,155
0.43784,-0.122408,0.0371692,149
0.440021,-0.123311,0.0382077,150
0.439352,-0.123037,0.0389838,149
0.439348,-0.123037,0.039822,152
0.440931,-0.123693,0.040818,151
0.439597,-0.123144,0.0415252,153
0.440925,-0.123695,0.0425023,154
0.439848,-0.123252,0.0432316,147
0.441283,-0.123847,0.0442265,158
0.441437,-0.123912,0.0450874,157
0.441179,-0.123808,0.0459034,155
0.441335,-0.123874,0.0467654,156
0.440873,-0.123686,0.0475571,158
0.441132,-0.123795,0.0484318,156
0.441032,-0.123755,0.049265,154
0.440829,-0.123674,0.0500856,155
0.440884,-0.123699,0.0509375,150
0.440324,-0.123469,0.0517126,152
0.439612,-0.123177,0.0524665,154
0.440437,-0.12352,0.053417,152
0.440956,-0.123737,0.054331,161
0.441066,-0.123784,0.0551926,158
0.440765,-0.123662,0.0559991,158
0.439593,-0.12318,0.056685,157
0.43996,-0.123333,0.0575813,153
0.439508,-0.123149,0.0583635,157
0.441109,-0.123812,0.0594394,153
0.440655,-0.123627,0.0602226,155
0.441336,-0.12391,0.0611719,158
0.439702,-0.123237,0.0617775,157
0.439919,-0.123329,0.0626579,160
0.439675,-0.12323,0.0634686,161
0.438666,-0.122815,0.0641594,159
0.438425,-0.122718,0.0649677,159
0.43854,-0.122768,0.0658326,156
0.438963,-0.122944,0.0667481,157
0.438264,-0.122657,0.0674816,158
0.438331,-0.122687,0.0683399,162
0.437178,-0.122213,0.0689938,157
0.437905,-0.122515,0.0699633,161
0.43777,-0.122461,0.0707877,160
0.437027,-0.122156,0.0715059,162
0.436337,-0.121873,0.0722309,162
0.438231,-0.122658,0.0734148,160
0.43587,-0.121684,0.0738385,159
0.435788,-0.121653,0.0746693,158
0.435858,-0.121684,0.0755281,160
0.435778,-0.121653,0.0763596,163
0.436051,-0.121768,0.0772578,166
0.435468,-0.121529,0.0779944,169
0.435591,-0.121582,0.078865,167
0.435815,-0.121676,0.0797564,169
0.435939,-0.12173,0.0806294,169
0.435609,-0.121596,0.0814132,164
0.434929,-0.121316,0.0821256,165
0.435406,-0.121516,0.0830707,163
0.43523,-0.121445,0.0838842,164
0.432954,-0.120506,0.0842624,166
0.432283,-0.120231,0.0849677,164
0.433154,-0.120593,0.0859964,165
0.432335,-0.120257,0.0866686,166
0.432461,-0.120311,0.0875415,163
0.431943,-0.120099,0.0882753,163
0.431327,-0.119846,0.088986,160
0.430565,-0.119533,0.0896625,164
0.429513,-0.1191,0.0902712,161
0.429443,-0.119074,0.0910979,162
0.429374,-0.119047,0.091925,162
0.429354,-0.119041,0.0927637,158
0.429384,-0.119055,0.0936142,160
0.428339,-0.118625,0.0942139,157
0.429249,-0.119004,0.0952714,159
0.4284,-0.118655,0.0959143,157
0.428334,-0.118629,0.0967422,150
0.429002,-0.118907,0.0977481,153
0.42874,-0.118802,0.0985305,152
0.428041,-0.118514,0.0992042,146
0.428074,-0.11853,0.100058,148
0.428303,-0.118627,0.100961,145
0.42746,-0.11828,0.101595,147
0.427397,-0.118256,0.102425,150
0.427675,-0.118374,0.103342,145
0.427224,-0.118189,0.104073,147
0.427893,-0.118468,0.105094,148
0.428859,-0.118869,0.106197,146
0.427479,-0.118301,0.106683,142
0.42737,-0.118258,0.107503,145
0.428825,-0.118862,0.108745,145
0.428619,-0.118778,0.109542,139
0.429051,-0.118959,0.110513,138
0.428403,-0.118693,0.11119,143
0.428003,-0.11853,0.111933,137
0.42819,-0.118609,0.112839,142
0.428476,-0.11873,0.113775,146
0.428566,-0.118769,0.114656,137
0.428167,-0.118606,0.115399,139
0.428111,-0.118585,0.11624,140
0.428398,-0.118706,0.117181,136
0.429081,-0.11899,0.118239,134
0.428436,-0.118726,0.118909,136
0.428726,-0.118848,0.119855,141
0.428623,-0.118807,0.120686,139
0.429309,-0.119093,0.121754,142
0.428911,-0.11893,0.122497,141
0.429599,-0.119217,0.12357,139
0.429102,-0.119014,0.124283,145
0.429792,-0.119301,0.125362,141
0.428999,-0.118975,0.125982,140
0.429244,-0.119079,0.126925,139
0.42954,-0.119203,0.127886,133
0.42954,-0.119205,0.128755,130
0.430185,-0.119474,0.129831,130
0.429738,-0.119292,0.130559,135
0.430186,-0.119479,0.131575,138
0.430686,-0.119688,0.132611,136
0.430488,-0.119608,0.133421,131
0.43079,-0.119735,0.134396,135
0.430792,-0.119738,0.135273,130
0.431195,-0.119907,0.136285,129
0.430649,-0.119683,0.13698,132
0.430603,-0.119667,0.137843,134
0.431208,-0.119919,0.138928,132
0.431564,-0.120068,0.139931,135
0.43167,-0.120114,0.14085,130
0.432078,-0.120285,0.141875,136
0.431632,-0.120103,0.142604,128
0.43199,-0.120253,0.143615,135
0.432502,-0.120467,0.144683,136
0.432611,-0.120514,0.14561,130
0.433075,-0.120708,0.146665,137
0.432425,-0.120442,0.147322,131
0.433194,-0.120762,0.148491,128
0.433407,-0.120852,0.149461,129
0.433417,-0.120859,0.150358,128
0.433936,-0.121076,0.151445,131
0.433438,-0.120872,0.152156,126
0.434367,-0.121258,0.1534,126
0.433665,-0.12097,0.154035,122
0.433983,-0.121104,0.155053,121
0.434098,-0.121154,0.155997,114
0.434264,-0.121225,0.156961,112
0.434892,-0.121487,0.158105,108
0.434855,-0.121474,0.158995,108
0.435024,-0.121546,0.159965,112
0.434782,-0.121448,0.160776,124
0.433824,-0.121054,0.161306,125
0.43471,-0.121422,0.162561,116
0.433446,-0.120902,0.162966,111
0.433462,-0.12091,0.163878,105
0.434297,-0.121258,0.165121,94
0.434314,-0.121268,0.166037,102
0.434024,-0.12115,0.166829,114
0.433376,-0.120884,0.167475,117
0.43319,-0.120809,0.168308,118
0.433003,-0.120734,0.169141,128
0.432512,-0.120533,0.169847,127
0.432021,-0.120332,0.170553,122
0.432855,-0.120679,0.171813,122
0.431246,-0.120016,0.172047,129
0.431621,-0.120173,0.173115,125
0.43164,-0.120183,0.174036,120
0.431051,-0.119941,0.174696,115
0.430009,-0.119513,0.175159,115
0.428922,-0.119065,0.175599,115
0.430201,-0.119596,0.177065,114
0.429717,-0.119398,0.177766,107
0.428782,-0.119013,0.178267,116
0.427801,-0.118609,0.178745,113
0.427372,-0.118434,0.179465,115
0.426994,-0.11828,0.180206,115
0.427814,-0.118622,0.181484,110
0.427435,-0.118467,0.182226,109
0.426311,-0.118004,0.18263,114
0.426333,-0.118015,0.183551,105
0.426007,-0.117883,0.184314,112
0.425731,-0.117771,0.1851,106
0.425605,-0.117721,0.185954,107
0.425479,-0.117671,0.186809,105
0.425106,-0.117518,0.187548,101
0.424684,-0.117346,0.188265,99
0.424312,-0.117194,0.189003,97
0.424483,-0.117267,0.189999,91
0.424804,-0.117402,0.191066,98
0.424779,-0.117394,0.191971,103
0.423667,-0.116936,0.192355,101
0.423347,-0.116806,0.193117,144
0.423421,-0.116839,0.194069,100
0.423052,-0.116688,0.194808,94
0.422635,-0.116518,0.195521,97
0.410612,-0.114178,-0.201518,10
0.24135,-0.0429544,-0.114342,12
0.412632,-0.115033,-0.200761,13
0.409538,-0.113733,-0.198286,11
0.409045,-0.113528,-0.197146,9
0.409976,-0.113922,-0.196727,11
0.413565,-0.115434,-0.19764,15
0.415224,-0.116135,-0.197573,12
0.412513,-0.114996,-0.195323,14
0.412665,-0.115062,-0.194506,14
0.412398,-0.114952,-0.193482,12
0.407269,-0.112796,-0.190073,15
0.407919,-0.113071,-0.189512,13
0.409119,-0.113578,-0.189216,13
0.414555,-0.115868,-0.190968,12
0.414333,-0.115777,-0.189969,19
0.416137,-0.116539,-0.189943,12
0.413472,-0.115419,-0.187776,15
0.411814,-0.114723,-0.186101,15
0.41169,-0.114674,-0.18516,15
0.412261,-0.114916,-0.184547,16
0.419545,-0.117984,-0.187078,17
0.414107,-0.115697,-0.183645,17
0.410741,-0.114282,-0.181199,16
0.411863,-0.114757,-0.180841,17
0.414763,-0.11598,-0.181296,18
0.414967,-0.116068,-0.180506,18
0.414609,-0.115919,-0.17946,19
0.412301,-0.11495,-0.177533,19
0.411351,-0.114552,-0.17623,18
0.415176,-0.116164,-0.177072,22
0.413281,-0.115369,-0.175347,16
0.413253,-0.115359,-0.174459,18
0.417065,-0.116966,-0.175269,17
0.412596,-0.115087,-0.172423,18
0.411832,-0.114768,-0.171217,18
0.415848,-0.11646,-0.172096,20
0.415352,-0.116254,-0.171004,19
0.416309,-0.116659,-0.170541,23
0.414877,-0.116058,-0.169051,18
0.415973,-0.116522,-0.168646,21
0.415198,-0.116197,-0.167443,22
0.414612,-0.115953,-0.166325,24
0.416082,-0.116574,-0.166072,23
0.416526,-0.116763,-0.165385,21
0.414491,-0.115908,-0.163668,28
0.417416,-0.117142,-0.16401,24
0.414861,-0.116068,-0.162087,23
0.416331,-0.11669,-0.161822,26
0.415232,-0.116229,-0.160507,29
0.416846,-0.11691,-0.160294,26
0.414999,-0.116135,-0.158683,26
0.416986,-0.116974,-0.158614,27
0.415886,-0.116513,-0.157309,24
0.418023,-0.117414,-0.15729,26
0.417481,-0.117189,-0.15621,28
0.416848,-0.116924,-0.155096,25
0.417014,-0.116996,-0.154297,29
0.416477,-0.116772,-0.153225,29
0.420471,-0.118456,-0.1539,27
0.419117,-0.117888,-0.152513,25
0.419001,-0.117841,-0.151603,29
0.422176,-0.11918,-0.151939,30
0.419195,-0.117927,-0.149947,28
0.420171,-0.118341,-0.149448,36
0.419961,-0.118254,-0.148505,28
0.416784,-0.116918,-0.146467,34
0.421111,-0.118743,-0.1472,39
0.419901,-0.118235,-0.145893,31
0.419456,-0.11805,-0.144869,33
0.419342,-0.118004,-0.143968,37
0.419892,-0.118238,-0.143307,30
0.41874,-0.117755,-0.142036,39
0.421187,-0.118788,-0.142047,32
0.419413,-0.118042,-0.140561,35
0.420819,-0.118636,-0.140197,37
0.420897,-0.118672,-0.139365,39
0.422169,-0.119209,-0.138947,43
0.420437,-0.118482,-0.13749,39
0.421324,-0.118858,-0.136938,37
0.420975,-0.118713,-0.135962,41
0.423255,-0.119675,-0.135875,39
0.421659,-0.119005,-0.13448,45
0.423417,-0.119748,-0.13421,42
0.423498,-0.119784,-0.133378,41
0.422572,-0.119396,-0.132214,44
0.424047,-0.120019,-0.13184,44
0.42288,-0.11953,-0.130603,42
0.424116,-0.120053,-0.130146,47
0.424103,-0.120049,-0.129285,39
0.424524,-0.120229,-0.128562,40
0.423404,-0.119759,-0.127352,49
0.424114,-0.12006,-0.12672,51
0.424826,-0.120362,-0.126088,47
0.424621,-0.120278,-0.125169,50
0.425142,-0.120499,-0.124474,55
0.4246,-0.120273,-0.123454,54
0.425121,-0.120495,-0.122759,49
0.424339,-0.120168,-0.121669,54
0.426264,-0.120981,-0.121394,52
0.426547,-0.121102,-0.120623,50
0.426586,-0.121121,-0.11978,55
0.426481,-0.121078,-0.118895,57
0.426375,-0.121036,-0.11801,61
0.427049,-0.121322,-0.117352,56
0.427871,-0.12167,-0.116734,49
0.427913,-0.12169,-0.115892,55
0.427027,-0.121319,-0.114787,53
0.427021,-0.121319,-0.113934,54
0.428579,-0.121977,-0.113516,60
0.427693,-0.121606,-0.112418,60
0.427151,-0.12138,-0.111418,56
0.428563,-0.121977,-0.110953,67
0.428363,-0.121894,-0.110046,64
0.428457,-0.121936,-0.109221,69
0.428552,-0.121978,-0.108395,69
0.428892,-0.122123,-0.107634,64
0.429233,-0.122269,-0.106873,62
0.431502,-0.123228,-0.106611,62
0.429967,-0.122583,-0.105361,62
0.429719,-0.12248,-0.104447,68
0.429129,-0.122234,-0.103448,68
0.429619,-0.122443,-0.102723,72
0.42957,-0.122424,-0.101862,74
0.429521,-0.122405,-0.101002,69
0.429916,-0.122574,-0.100251,76
0.430065,-0.122639,-0.0994393,79
0.430658,-0.122891,-0.0987346,82
0.42997,-0.122603,-0.0977223,78
0.430318,-0.122751,-0.0969582,80
0.430715,-0.122921,-0.096205,84
0.431262,-0.123154,-0.0954853,81
0.430772,-0.122949,-0.094525,87
0.430826,-0.122974,-0.0936914,84
0.431325,-0.123187,-0.0929588,88
0.43064,-0.1229,-0.0919591,84
0.430942,-0.123029,-0.091182,87
0.431146,-0.123117,-0.0903825,82
0.43061,-0.122893,-0.0894216,87
0.431259,-0.123169,-0.088719,86
0.431563,-0.123299,-0.0879406,88
0.430979,-0.123055,-0.0869732,84
0.431383,-0.123227,-0.0862158,85
0.431244,-0.123171,-0.0853446,84
0.430663,-0.122928,-0.0843835,88
0.43161,-0.123329,-0.0837363,90
0.432166,-0.123566,-0.0830067,90
0.431929,-0.123468,-0.0821174,89
0.431991,-0.123496,-0.0812882,84
0.431904,-0.123462,-0.0804304,91
0.432611,-0.123762,-0.0797266,98
0.430845,-0.123019,-0.0785477,103
0.43081,-0.123006,-0.0777037,102
0.43112,-0.123139,-0.0769248,106
0.431135,-0.123148,-0.0760905,108
0.431594,-0.123343,-0.0753379,102
0.43097,-0.123082,-0.0743877,105
0.431331,-0.123236,-0.0736168,101
0.431004,-0.1231,-0.072723,106
0.430628,-0.122944,-0.0718226,101
0.430843,-0.123037,-0.071026,103
0.431206,-0.123192,-0.0702542,107
0.430341,-0.122829,-0.0692743,112
0.430263,-0.122798,-0.0684293,107
0.430136,-0.122747,-0.0675771,111
0.429132,-0.122325,-0.0665831,105
0.428813,-0.122193,-0.0657036,107
0.429029,-0.122286,-0.0649105,103
0.428323,-0.121991,-0.0639726,107
0.427621,-0.121696,-0.0630385,105
0.427837,-0.12179,-0.0622476,111
0.427765,-0.121761,-0.0614127,108
0.427162,-0.121509,-0.0604998,102
0.426514,-0.121238,-0.0595831,106
0.426684,-0.121311,-0.0587873,114
0.426806,-0.121365,-0.0579843,114
0.426448,-0.121216,-0.0571139,116
0.425375,-0.120765,-0.0561465,115
0.425164,-0.120678,-0.0553011,121
0.425335,-0.120753,-0.054508,126
0.42446,-0.120385,-0.0535763,116
0.423447,-0.11996,-0.0526308,122
0.423524,-0.119995,-0.0518289,125
0.422377,-0.119513,-0.0508729,123
0.422032,-0.119369,-0.0500213,127
0.421876,-0.119305,-0.0491943,121
0.421626,-0.119202,-0.048357,126
0.420911,-0.118903,-0.0474662,127
0.420386,-0.118683,-0.0466004,130
0.419815,-0.118444,-0.045732,128
0.419895,-0.11848,-0.0449387,124
0.419512,-0.11832,-0.0440946,121
0.4189,-0.118064,-0.0432276,125
0.418751,-0.118003,-0.0424122,123
0.418372,-0.117845,-0.0415739,120
0.41804,-0.117707,-0.0407421,122
0.418214,-0.117783,-0.0399622,128
0.418205,-0.117781,-0.039164,132
0.417326,-0.117412,-0.0382829,131
0.417226,-0.117372,-0.0374784,129
0.417402,-0.117448,-0.0366997,128
0.416938,-0.117254,-0.0358634,127
0.417708,-0.117581,-0.035137,128
0.416971,-0.117272,-0.0342789,133
0.417331,-0.117426,-0.0335154,134
0.416915,-0.117252,-0.0326876,136
0.417733,-0.117599,-0.0319596,135
0.417363,-0.117445,-0.0311365,134
0.417725,-0.1176,-0.0303703,141
0.417402,-0.117465,-0.0295524,142
0.41749,-0.117505,-0.0287655,140
0.418083,-0.117757,-0.0280133,138
0.418311,-0.117855,-0.0272343,141
0.418861,-0.118089,-0.0264755,134
0.418815,-0.118071,-0.025677,139
0.419321,-0.118287,-0.0249126,136
0.419045,-0.118172,-0.0240999,141
0.41923,-0.118252,-0.0233149,140
0.419509,-0.118372,-0.0225344,139
0.418957,-0.118141,-0.0217088,137
0.419882,-0.118533,-0.0209611,146
0.420302,-0.118712,-0.020185,144
0.420213,-0.118677,-0.0193832,145
0.420495,-0.118798,-0.0185986,142
0.420407,-0.118762,-0.0177971,143
0.42069,-0.118884,-0.0170113,144
0.420974,-0.119006,-0.0162244,141
0.421492,-0.119226,-0.0154452,141
0.420847,-0.118956,-0.0146231,140
0.420715,-0.118902,-0.0138207,140
0.42156,-0.119261,-0.0130493,146
0.421895,-0.119404,-0.0122597,145
0.422324,-0.119587,-0.0114714,145
0.42238,-0.119613,-0.0106721,146
0.422484,-0.119658,-0.00987362,145
0.422447,-0.119645,-0.00907185,145
0.422786,-0.11979,-0.00827745,151
0.422938,-0.119856,-0.00747853,146
0.42342,-0.120061,-0.00668402,148
0.423244,-0.119989,-0.00587897,145
0.423917,-0.120275,-0.00508407,144
0.424355,-0.120462,-0.00428437,152
0.424938,-0.12071,-0.00348393,148
0.425095,-0.120778,-0.00267901,147
0.425585,-0.120987,-0.00187448,152
0.425601,-0.120996,-0.00106748,151
0.425475,-0.120944,-0.000260536,153
0.425682,-0.121034,0.000546889,154
0.426033,-0.121184,0.00135587,153
0.426338,-0.121314,0.00216596,149
0.4265,-0.121385,0.00297602,150
0.42628,-0.121294,0.00378257,142
0.427833,-0.121952,0.0046113,147
0.427998,-0.122023,0.00542548,149
0.428212,-0.122116,0.0062412,150
0.428138,-0.122086,0.00705234,151
0.428787,-0.122362,0.00787846,146
0.428955,-0.122435,0.00869616,148
0.430046,-0.122898,0.00953771,152
0.429682,-0.122746,0.0103443,148
0.429561,-0.122697,0.0111566,149
0.430364,-0.123038,0.0119973,145
0.430976,-0.123298,0.0128348,148
0.430758,-0.123208,0.0136459,148
0.431225,-0.123408,0.0144815,149
0.431449,-0.123504,0.0153096,141
0.433646,-0.124433,0.0162199,145
0.43318,-0.124239,0.0170242,147
0.43326,-0.124274,0.0178514,148
0.433488,-0.124373,0.0186861,144
0.434164,-0.12466,0.0195438,151
0.434544,-0.124823,0.0203892,155
0.434427,-0.124775,0.0212098,155
0.434361,-0.124749,0.0220329,150
0.435092,-0.12506,0.0229014,157
0.435326,-0.125161,0.0237437,151
0.436263,-0.125559,0.02463,152
0.437155,-0.125937,0.0255175,155
0.43704,-0.125891,0.026343,152
0.437229,-0.125972,0.0271886,151
0.437671,-0.126161,0.0280527,150
0.437204,-0.125966,0.0288539,150
0.438052,-0.126326,0.0297499,153
0.438193,-0.126388,0.0305962,156
0.43864,-0.126579,0.0314669,156
0.438326,-0.126448,0.0322791,153
0.439334,-0.126876,0.0331981,158
0.4404,-0.127328,0.034126,157
0.440238,-0.127262,0.0349536,157
0.44018,-0.127239,0.0357898,155
0.439662,-0.127022,0.0365847,152
0.440117,-0.127216,0.0374669,148
0.440162,-0.127238,0.0383129,147
0.439953,-0.127151,0.0391349,147
0.439489,-0.126957,0.0399314,151
0.439945,-0.127152,0.040818,148
0.440301,-0.127305,0.0416965,152
0.440248,-0.127284,0.0425342,155
0.440195,-0.127264,0.043372,154
0.440245,-0.127287,0.044221,154
0.440296,-0.127311,0.0450705,150
0.440142,-0.127248,0.0458977,152
0.439835,-0.12712,0.046707,152
0.440195,-0.127274,0.0475927,153
0.441432,-0.127799,0.0485834,157
0.440457,-0.127389,0.0493142,157
0.440408,-0.127371,0.0501544,158
0.440104,-0.127244,0.0509629,158
0.440262,-0.127313,0.0518288,159
0.440679,-0.127491,0.0527286,156
0.44053,-0.12743,0.053557,159
0.440382,-0.12737,0.0543852,156
0.439824,-0.127136,0.0551582,155
0.44019,-0.127293,0.056055,160
0.439276,-0.126909,0.0567767,155
0.440053,-0.127239,0.0577321,159
0.440421,-0.127397,0.058633,155
0.440174,-0.127294,0.0594468,158
0.440441,-0.127409,0.0603353,164
0.440452,-0.127416,0.0611872,160
0.440361,-0.127379,0.0620241,157
0.439807,-0.127148,0.0627906,155
0.439974,-0.12722,0.0636664,163
0.438911,-0.126773,0.0643508,164
0.438363,-0.126544,0.0651129,158
0.438071,-0.126423,0.0659143,157
0.437526,-0.126195,0.0666737,155
0.437338,-0.126117,0.06749,159
0.437201,-0.126061,0.0683145,161
0.437319,-0.126113,0.0691817,158
0.437538,-0.126208,0.0700674,159
0.4372,-0.126067,0.0708578,161
0.437421,-0.126163,0.0717451,159
0.437084,-0.126022,0.0725349,157
0.437712,-0.12629,0.0734967,161
0.437579,-0.126236,0.0743235,162
0.436888,-0.125946,0.0750481,166
0.437416,-0.126171,0.075996,165
0.435564,-0.12539,0.0765009,162
0.435283,-0.125274,0.0772959,164
0.435002,-0.125157,0.0780905,160
0.435276,-0.125275,0.0789914,165
0.435047,-0.12518,0.0797957,165
0.434517,-0.124959,0.0805401,164
0.434591,-0.124992,0.0814032,166
0.434414,-0.124919,0.0822166,164
0.433537,-0.124551,0.0828871,168
0.434464,-0.124944,0.0839255,166
0.432292,-0.124029,0.0843243,166
0.432317,-0.124041,0.0851758,165
0.431747,-0.123803,0.0859018,166
0.431774,-0.123816,0.0867534,165
0.431305,-0.12362,0.0874988,161
0.430345,-0.123216,0.0881354,159
0.431014,-0.123501,0.0891273,161
0.429761,-0.122974,0.0896952,162
0.428857,-0.122594,0.090337,155
0.428299,-0.12236,0.0910537,155
0.428426,-0.122416,0.091925,154
0.428113,-0.122286,0.0926961,151
