ply
format ascii 1.0
comment Created by CloudCompare v2.11 alpha (Anoia)
comment Created 2025/12/9 20:40
obj_info Generated by CloudCompare!
element vertex 1431
property float x
property float y
property float z
property float scalar_Scalar_field
end_header
0.321549 -0.531928 0.199282 109 
0.321717 -0.531969 0.20024 103 
0.321584 -0.531941 0.201073 99 
0.322256 -0.532098 0.202247 97 
0.32157 -0.531942 0.202847 102 
0.321739 -0.531983 0.20381 99 
0.321557 -0.531943 0.204625 102 
0.321728 -0.531984 0.205591 91 
0.322606 -0.532188 0.206866 86 
0.321415 -0.531916 0.207244 84 
0.321939 -0.532039 0.208369 87 
0.322162 -0.532093 0.209364 83 
0.321628 -0.531971 0.210026 85 
0.322053 -0.532072 0.211114 86 
0.321721 -0.531997 0.211866 88 
0.32235 -0.532144 0.213048 87 
0.32212 -0.532093 0.213847 84 
0.32265 -0.532218 0.21499 87 
0.321205 -0.531887 0.215238 90 
0.322088 -0.532092 0.216544 137 
0.32196 -0.532065 0.217391 77 
0.322035 -0.532084 0.218332 81 
0.322313 -0.53215 0.219368 85 
0.667255 -0.603704 -0.348334 9 
0.292512 -0.5212 -0.164208 10 
0.293234 -0.521361 -0.163708 15 
0.306728 -0.524334 -0.16934 9 
0.296375 -0.522056 -0.163515 12 
0.30105 -0.523088 -0.164886 12 
0.301251 -0.523134 -0.164119 16 
0.298767 -0.522589 -0.162086 16 
0.301652 -0.523226 -0.162585 12 
0.297678 -0.522353 -0.159867 16 
0.297069 -0.522221 -0.158732 19 
0.298481 -0.522534 -0.158536 15 
0.303888 -0.523727 -0.160177 18 
0.298474 -0.522536 -0.156831 12 
0.300986 -0.523091 -0.157128 17 
0.301827 -0.523279 -0.156656 19 
0.297727 -0.522377 -0.153946 16 
0.299051 -0.522671 -0.153696 18 
0.300428 -0.522976 -0.153466 17 
0.303836 -0.523729 -0.154136 19 
0.300924 -0.52309 -0.151987 13 
0.306103 -0.524232 -0.153426 16 
0.302014 -0.523333 -0.150768 15 
0.302676 -0.523481 -0.150208 17 
0.301555 -0.523236 -0.148869 27 
0.30217 -0.523374 -0.148288 25 
0.303199 -0.523602 -0.147884 17 
0.304094 -0.523802 -0.147419 22 
0.303381 -0.523646 -0.146264 20 
0.304738 -0.523947 -0.145993 24 
0.302464 -0.523448 -0.144181 24 
0.302853 -0.523536 -0.1435 28 
0.303931 -0.523775 -0.143107 26 
0.305523 -0.524128 -0.142924 18 
0.303152 -0.523608 -0.141093 23 
0.306312 -0.524306 -0.141553 24 
0.304992 -0.524017 -0.140163 26 
0.303224 -0.523629 -0.138596 21 
0.305549 -0.524144 -0.138699 28 
0.306686 -0.524396 -0.138314 26 
0.307549 -0.524588 -0.137814 30 
0.306457 -0.52435 -0.13653 24 
0.306018 -0.524255 -0.135511 28 
0.307111 -0.524498 -0.135101 26 
0.308023 -0.524701 -0.134615 30 
0.307023 -0.524482 -0.133378 28 
0.307002 -0.52448 -0.132528 34 
0.308194 -0.524744 -0.132148 37 
0.307009 -0.524485 -0.130847 31 
0.307268 -0.524544 -0.130106 29 
0.310481 -0.525254 -0.130491 35 
0.309425 -0.525023 -0.129245 36 
0.309264 -0.52499 -0.128341 31 
0.310091 -0.525174 -0.127809 30 
0.310732 -0.525317 -0.127205 32 
0.310524 -0.525273 -0.126284 33 
0.311592 -0.525511 -0.125836 38 
0.313095 -0.525844 -0.125543 38 
0.313362 -0.525905 -0.124794 43 
0.31258 -0.525734 -0.123664 40 
0.312087 -0.525628 -0.122642 37 
0.314839 -0.526236 -0.122788 38 
0.314005 -0.526054 -0.121643 41 
0.313843 -0.526021 -0.120741 38 
0.314112 -0.526082 -0.119992 34 
0.315102 -0.526302 -0.119496 35 
0.314413 -0.526152 -0.118411 38 
0.316369 -0.526586 -0.118246 40 
0.314524 -0.526181 -0.116764 40 
0.317401 -0.526817 -0.116908 40 
0.316657 -0.526655 -0.115808 41 
0.31669 -0.526664 -0.114975 41 
0.318519 -0.527069 -0.114747 43 
0.317191 -0.526778 -0.113455 44 
0.317563 -0.526862 -0.112736 43 
0.318521 -0.527076 -0.112208 44 
0.319777 -0.527354 -0.111776 45 
0.31937 -0.527267 -0.110796 48 
0.319355 -0.527265 -0.109946 44 
0.320862 -0.5276 -0.109588 44 
0.323125 -0.528101 -0.109466 45 
0.321178 -0.527673 -0.107995 48 
0.32245 -0.527956 -0.107551 50 
0.322188 -0.5279 -0.106621 47 
0.323416 -0.528173 -0.106157 49 
0.323552 -0.528205 -0.105351 53 
0.324788 -0.528479 -0.104883 58 
0.323427 -0.528181 -0.103616 58 
0.324262 -0.528367 -0.103023 55 
0.3244 -0.5284 -0.102217 56 
0.324738 -0.528476 -0.101471 56 
0.324277 -0.528376 -0.100486 49 
0.325617 -0.528674 -0.100037 53 
0.325657 -0.528685 -0.0992015 56 
0.327461 -0.529085 -0.0988815 59 
0.326844 -0.528951 -0.0978515 58 
0.326582 -0.528895 -0.0969275 58 
0.32809 -0.529229 -0.0965115 54 
0.326967 -0.528984 -0.0953425 60 
0.327312 -0.529062 -0.0945935 60 
0.327101 -0.529017 -0.0936875 63 
0.328206 -0.529263 -0.0931485 58 
0.327793 -0.529174 -0.0921865 60 
0.329004 -0.529443 -0.0916725 54 
0.327274 -0.529063 -0.0903535 64 
0.32833 -0.529298 -0.0897955 62 
0.327514 -0.52912 -0.0887305 61 
0.329283 -0.529512 -0.0883585 59 
0.328668 -0.529379 -0.0873495 64 
0.32846 -0.529335 -0.0864505 63 
0.328507 -0.529347 -0.0856195 62 
0.328604 -0.52937 -0.0848015 63 
0.328804 -0.529416 -0.0840105 64 
0.328395 -0.529328 -0.0830645 62 
0.328443 -0.529341 -0.0822355 61 
0.328847 -0.529432 -0.0814955 64 
0.328338 -0.529321 -0.0805285 61 
0.328337 -0.529323 -0.0796895 62 
0.328488 -0.529358 -0.0788875 65 
0.32763 -0.529171 -0.0778405 67 
0.328135 -0.529284 -0.0771265 77 
0.327581 -0.529164 -0.0761575 68 
0.326829 -0.529 -0.0751445 75 
0.32638 -0.528903 -0.0742056 73 
0.326482 -0.528927 -0.0733979 76 
0.325736 -0.528764 -0.0723943 68 
0.325142 -0.528635 -0.071429 74 
0.324898 -0.528583 -0.070546 77 
0.324357 -0.528466 -0.0695977 78 
0.323523 -0.528283 -0.0685865 72 
0.322447 -0.528048 -0.0675257 80 
0.322013 -0.527954 -0.0666102 77 
0.321726 -0.527892 -0.065729 82 
0.321392 -0.527821 -0.0648391 79 
0.321108 -0.52776 -0.0639617 80 
0.320339 -0.527592 -0.0629834 84 
0.319864 -0.527489 -0.0620701 83 
0.319777 -0.527471 -0.0612397 80 
0.319111 -0.527326 -0.0602912 80 
0.319218 -0.527352 -0.0595029 80 
0.317741 -0.527027 -0.0583954 89 
0.317896 -0.527063 -0.0576199 88 
0.317765 -0.527036 -0.0567876 88 
0.31816 -0.527126 -0.0560595 88 
0.317647 -0.527014 -0.0551541 86 
0.317756 -0.52704 -0.0543705 86 
0.318345 -0.527172 -0.053678 85 
0.317546 -0.526997 -0.0527229 96 
0.318806 -0.527278 -0.0521542 104 
0.318581 -0.52723 -0.0513078 101 
0.318645 -0.527246 -0.0505152 102 
0.318326 -0.527177 -0.0496538 102 
0.318534 -0.527225 -0.0488881 98 
0.318504 -0.52722 -0.0480798 104 
0.318473 -0.527215 -0.0472721 108 
0.318827 -0.527295 -0.0465311 102 
0.318606 -0.527248 -0.0456912 107 
0.31973 -0.527498 -0.0450793 104 
0.319798 -0.527515 -0.0442873 112 
0.319529 -0.527458 -0.0434401 105 
0.319935 -0.527549 -0.042704 108 
0.320148 -0.527598 -0.041936 109 
0.320653 -0.527712 -0.0412136 108 
0.320385 -0.527654 -0.0403684 113 
0.321181 -0.527832 -0.0396897 119 
0.321059 -0.527807 -0.0388675 113 
0.321131 -0.527824 -0.0380755 117 
0.321688 -0.527949 -0.0373561 115 
0.322588 -0.52815 -0.0366855 120 
0.322077 -0.528039 -0.0358064 117 
0.322443 -0.528122 -0.0350555 121 
0.323104 -0.52827 -0.0343453 121 
0.323766 -0.528418 -0.0336332 125 
0.323352 -0.528328 -0.0327704 122 
0.324164 -0.52851 -0.0320762 129 
0.324093 -0.528496 -0.0312609 127 
0.32422 -0.528526 -0.0304723 132 
0.324298 -0.528545 -0.0296771 131 
0.324573 -0.528607 -0.0289073 141 
0.324702 -0.528638 -0.0281181 141 
0.325175 -0.528744 -0.0273717 137 
0.325256 -0.528764 -0.0265756 140 
0.325682 -0.52886 -0.0258213 141 
0.326556 -0.529055 -0.0251187 138 
0.326738 -0.529097 -0.0243322 142 
0.326622 -0.529073 -0.0235111 141 
0.326954 -0.529149 -0.0227412 143 
0.326839 -0.529125 -0.0219208 148 
0.32762 -0.5293 -0.0211989 147 
0.327357 -0.529243 -0.0203622 144 
0.327492 -0.529275 -0.0195687 143 
0.327529 -0.529285 -0.0187648 146 
0.327068 -0.529185 -0.0179105 143 
0.326858 -0.52914 -0.0170831 145 
0.326995 -0.529173 -0.0162907 148 
0.327481 -0.529282 -0.0155315 147 
0.328069 -0.529414 -0.0147802 150 
0.328358 -0.52948 -0.0139994 150 
0.327551 -0.529303 -0.0131189 142 
0.327293 -0.529248 -0.0122901 145 
0.328082 -0.529424 -0.0115529 146 
0.328074 -0.529424 -0.0107457 144 
0.328266 -0.529468 -0.00995507 148 
0.32781 -0.52937 -0.00911177 151 
0.328503 -0.529525 -0.00836087 151 
0.327948 -0.529404 -0.00751157 147 
0.327893 -0.529393 -0.00670207 149 
0.328487 -0.529527 -0.00594037 148 
0.328384 -0.529506 -0.00512687 149 
0.32838 -0.529507 -0.00432087 150 
0.328977 -0.529641 -0.00355557 152 
0.329226 -0.529697 -0.00276527 151 
0.330531 -0.529988 -0.00204147 148 
0.330631 -0.530012 -0.00123837 152 
0.330983 -0.530092 -0.000450273 153 
0.330781 -0.530049 0.000371127 157 
0.329925 -0.529862 0.00122833 157 
0.331237 -0.530154 0.00196483 156 
0.329928 -0.529866 0.00284303 159 
0.330736 -0.530046 0.00360963 158 
0.331446 -0.530205 0.00438383 161 
0.330893 -0.530085 0.00521943 161 
0.3312 -0.530155 0.00601453 164 
0.331003 -0.530113 0.00683213 161 
0.330654 -0.530038 0.00765503 154 
0.331519 -0.530231 0.00842943 160 
0.331272 -0.530178 0.00924803 155 
0.331684 -0.530271 0.0100426 154 
0.331438 -0.530219 0.0108604 156 
0.331699 -0.530278 0.0116613 160 
0.331708 -0.530282 0.0124707 161 
0.331464 -0.53023 0.0132869 160 
0.332285 -0.530413 0.0140748 161 
0.331332 -0.530204 0.0149079 165 
0.331849 -0.530321 0.0157053 167 
0.332216 -0.530404 0.0165075 162 
0.331416 -0.530229 0.0173322 162 
0.331378 -0.530222 0.0181414 162 
0.33124 -0.530193 0.018952 169 
0.331001 -0.530142 0.0197632 169 
0.331116 -0.53017 0.0205698 162 
0.330929 -0.53013 0.0213793 162 
0.330692 -0.53008 0.0221885 162 
0.330406 -0.530018 0.0229971 161 
0.330674 -0.530079 0.0238029 168 
0.330439 -0.530029 0.0246103 162 
0.330004 -0.529935 0.0254165 162 
0.329922 -0.529919 0.0262222 164 
0.330797 -0.530114 0.027032 166 
0.329759 -0.529886 0.0278326 161 
0.32988 -0.529915 0.028639 162 
0.329348 -0.529799 0.0294392 164 
0.32967 -0.529872 0.0302479 160 
0.32879 -0.529679 0.0310408 159 
0.329313 -0.529797 0.031853 161 
0.327689 -0.529439 0.0326286 159 
0.326967 -0.529281 0.0334161 155 
0.32709 -0.52931 0.0342192 155 
0.327313 -0.529361 0.0350252 157 
0.32704 -0.529303 0.0358194 161 
0.327065 -0.52931 0.0366209 161 
0.326744 -0.529241 0.0374124 156 
0.32687 -0.529271 0.0382167 162 
0.326402 -0.529169 0.0390019 154 
0.326281 -0.529144 0.0397976 155 
0.325077 -0.52888 0.0405529 158 
0.325056 -0.528877 0.0413497 153 
0.324546 -0.528766 0.0421266 151 
0.325262 -0.528926 0.0429539 153 
0.32436 -0.528728 0.043712 154 
0.325717 -0.52903 0.0445715 151 
0.32501 -0.528876 0.0453367 149 
0.324257 -0.528711 0.0460971 154 
0.325615 -0.529014 0.0469646 153 
0.324616 -0.528794 0.0477102 157 
0.324796 -0.528836 0.0485181 154 
0.325076 -0.5289 0.0493325 153 
0.325209 -0.528931 0.0501393 151 
0.325293 -0.528951 0.0509438 153 
0.324739 -0.52883 0.0517083 148 
0.324677 -0.528818 0.052503 151 
0.324959 -0.528883 0.0533208 148 
0.326525 -0.529232 0.0542287 151 
0.326266 -0.529176 0.0550129 155 
0.32591 -0.529099 0.0557893 149 
0.326048 -0.529131 0.0566015 147 
0.325791 -0.529076 0.0573841 149 
0.325535 -0.529022 0.058166 149 
0.325329 -0.528978 0.0589511 149 
0.326062 -0.529142 0.059813 151 
0.32492 -0.528891 0.0605199 152 
0.325899 -0.52911 0.0614055 147 
0.325892 -0.52911 0.0622082 149 
0.326233 -0.529187 0.0630423 146 
0.325634 -0.529056 0.0637916 149 
0.325531 -0.529036 0.0645853 148 
0.325526 -0.529036 0.0653884 148 
0.326165 -0.52918 0.0662545 153 
0.326261 -0.529203 0.0670692 154 
0.326159 -0.529182 0.0678644 149 
0.325219 -0.528976 0.0685728 149 
0.325909 -0.52913 0.0694496 141 
0.325611 -0.529066 0.0702233 147 
0.325462 -0.529035 0.0710125 150 
0.325907 -0.529136 0.0718673 150 
0.325562 -0.529061 0.0726348 147 
0.32586 -0.529129 0.0734751 144 
0.326059 -0.529175 0.0743054 145 
0.326161 -0.529199 0.0751251 143 
0.32656 -0.52929 0.0759814 140 
0.326862 -0.529358 0.0768276 145 
0.326766 -0.529339 0.0776258 143 
0.326423 -0.529265 0.0783926 142 
0.326577 -0.529301 0.0792222 144 
0.326682 -0.529326 0.0800464 144 
0.327186 -0.52944 0.0809239 142 
0.327392 -0.529487 0.0817639 147 
0.327649 -0.529546 0.0826118 146 
0.328158 -0.529661 0.0834958 145 
0.327516 -0.52952 0.0842212 146 
0.329129 -0.52988 0.0852642 150 
0.327584 -0.529539 0.0858599 149 
0.327845 -0.529599 0.0867128 148 
0.328206 -0.529681 0.0875821 145 
0.327666 -0.529563 0.0883184 146 
0.32848 -0.529745 0.089258 143 
0.32769 -0.529572 0.0899551 148 
0.328907 -0.529844 0.0909613 149 
0.327516 -0.529537 0.0915624 151 
0.328181 -0.529687 0.0924858 151 
0.329151 -0.529903 0.0934612 151 
0.329873 -0.530065 0.0944005 150 
0.329636 -0.530015 0.0951847 148 
0.329602 -0.530009 0.0960022 150 
0.330176 -0.530138 0.0969226 148 
0.329991 -0.530099 0.0977161 152 
0.329705 -0.530038 0.0984919 150 
0.329825 -0.530066 0.0993378 151 
0.329541 -0.530005 0.100113 152 
0.330473 -0.530214 0.101105 148 
0.330188 -0.530152 0.101882 148 
0.330361 -0.530193 0.102741 148 
0.330281 -0.530177 0.103555 144 
0.330557 -0.53024 0.104435 146 
0.330529 -0.530236 0.105259 146 
0.330501 -0.530231 0.106084 144 
0.331238 -0.530397 0.107056 149 
0.33162 -0.530483 0.107963 146 
0.331287 -0.530411 0.108731 141 
0.331721 -0.53051 0.109651 143 
0.332826 -0.530756 0.110706 142 
0.33239 -0.530662 0.111455 139 
0.331443 -0.530454 0.1121 147 
0.332136 -0.530609 0.113078 148 
0.332319 -0.530652 0.113953 142 
0.332656 -0.530729 0.114863 141 
0.333046 -0.530817 0.115785 142 
0.333386 -0.530894 0.116698 137 
0.333365 -0.530892 0.117536 138 
0.332932 -0.530797 0.118284 138 
0.333584 -0.530944 0.119269 136 
0.333927 -0.531022 0.120189 142 
0.334583 -0.53117 0.121181 144 
0.334357 -0.531121 0.121977 137 
0.334495 -0.531154 0.122855 141 
0.33573 -0.53143 0.123986 140 
0.3365 -0.531603 0.125015 138 
0.335645 -0.531415 0.125669 136 
0.33563 -0.531413 0.126518 138 
0.335876 -0.53147 0.127428 139 
0.337599 -0.531854 0.128694 136 
0.335691 -0.531433 0.129091 137 
0.336938 -0.531712 0.130249 144 
0.336926 -0.531711 0.131103 146 
0.337177 -0.531769 0.132023 144 
0.337165 -0.531768 0.132878 141 
0.337365 -0.531814 0.133788 140 
0.338308 -0.532026 0.134887 144 
0.339737 -0.532345 0.136114 145 
0.338288 -0.532025 0.136608 142 
0.338545 -0.532084 0.137539 140 
0.33843 -0.532061 0.138374 141 
0.338901 -0.532167 0.139364 138 
0.338574 -0.532097 0.140144 136 
0.339474 -0.532298 0.141251 137 
0.339415 -0.532287 0.142105 142 
0.340213 -0.532466 0.143191 141 
0.33935 -0.532277 0.143828 134 
0.339398 -0.53229 0.144712 143 
0.339555 -0.532326 0.145627 143 
0.339283 -0.532268 0.146424 145 
0.339655 -0.532353 0.147402 152 
0.340673 -0.53258 0.148564 148 
0.340617 -0.53257 0.149425 160 
0.339808 -0.532393 0.150071 149 
0.339914 -0.532418 0.150978 150 
0.339967 -0.532432 0.151871 149 
0.340128 -0.53247 0.152797 146 
0.339537 -0.532341 0.153501 144 
0.339806 -0.532402 0.15446 145 
0.339323 -0.532297 0.155196 143 
0.340455 -0.53255 0.156416 139 
0.33938 -0.532314 0.156973 148 
0.339436 -0.532328 0.157872 152 
0.339708 -0.532391 0.158837 148 
0.339066 -0.53225 0.159522 152 
0.338962 -0.532229 0.160372 155 
0.338751 -0.532184 0.16119 153 
0.338809 -0.532199 0.162091 152 
0.339782 -0.532417 0.163284 150 
0.338176 -0.532063 0.163659 155 
0.338557 -0.532149 0.164665 156 
0.338241 -0.532081 0.165449 150 
0.338141 -0.532061 0.166302 149 
0.33804 -0.532041 0.167156 150 
0.336287 -0.531654 0.167466 150 
0.336401 -0.531681 0.168388 148 
0.335824 -0.531555 0.169081 152 
0.336044 -0.531606 0.170039 145 
0.335575 -0.531504 0.170767 150 
0.334156 -0.531191 0.171171 157 
0.334059 -0.531171 0.172022 159 
0.333542 -0.531058 0.172728 146 
0.333656 -0.531086 0.173651 152 
0.333508 -0.531055 0.174485 152 
0.332783 -0.530896 0.175116 146 
0.333213 -0.530993 0.176152 149 
0.332227 -0.530777 0.17669 150 
0.331455 -0.530607 0.1773 153 
0.330633 -0.530426 0.17789 150 
0.330851 -0.530477 0.178852 145 
0.330707 -0.530447 0.179684 143 
0.330354 -0.530371 0.180441 136 
0.329951 -0.530283 0.181178 134 
0.329912 -0.530276 0.182048 134 
0.329717 -0.530235 0.182862 137 
0.329419 -0.530171 0.183637 136 
0.329898 -0.53028 0.184703 128 
0.327897 -0.529837 0.184837 126 
0.32714 -0.529671 0.185435 123 
0.326539 -0.529539 0.18609 122 
0.326501 -0.529533 0.186959 121 
0.326566 -0.529549 0.187868 121 
0.325559 -0.529328 0.188364 127 
0.325318 -0.529276 0.189154 125 
0.325537 -0.529327 0.190124 129 
0.324686 -0.52914 0.190675 131 
0.324295 -0.529055 0.191405 130 
0.324057 -0.529004 0.192194 128 
0.32392 -0.528976 0.193025 131 
0.323581 -0.528903 0.193774 127 
0.32294 -0.528762 0.194401 122 
0.323259 -0.528835 0.195415 115 
0.323073 -0.528796 0.196226 113 
0.322989 -0.528779 0.197078 111 
0.322451 -0.528662 0.197744 113 
0.322115 -0.528589 0.198492 102 
0.322687 -0.528718 0.199617 103 
0.32392 -0.528995 0.201022 101 
0.322017 -0.528573 0.201115 99 
0.321632 -0.52849 0.201842 95 
0.322205 -0.528619 0.202975 96 
0.322931 -0.528783 0.204177 98 
0.322596 -0.52871 0.204928 101 
0.32206 -0.528593 0.205591 94 
0.322232 -0.528634 0.206559 93 
0.32296 -0.528798 0.207772 95 
0.322323 -0.528658 0.208391 89 
0.323358 -0.52889 0.209743 87 
0.325321 -0.529329 0.21151 88 
0.323147 -0.528848 0.211451 82 
0.323373 -0.5289 0.212454 93 
0.322583 -0.528726 0.213003 85 
0.321795 -0.528553 0.213551 84 
0.322628 -0.528741 0.214829 81 
0.322601 -0.528737 0.215721 80 
0.322422 -0.528699 0.216544 132 
0.323311 -0.528898 0.217858 81 
0.323029 -0.528838 0.218637 82 
0.3228 -0.528789 0.219439 85 
0.299769 -0.519522 -0.16846 12 
0.294838 -0.518479 -0.165212 13 
0.296416 -0.518816 -0.16512 13 
0.302476 -0.520102 -0.16717 9 
0.299744 -0.519525 -0.165 12 
0.301957 -0.519996 -0.165192 15 
0.298466 -0.519258 -0.162677 12 
0.29871 -0.519312 -0.161937 17 
0.300407 -0.519673 -0.161877 10 
0.297801 -0.519123 -0.159804 17 
0.300535 -0.519704 -0.160222 15 
0.301971 -0.520011 -0.16003 14 
0.299664 -0.519524 -0.15811 13 
0.299955 -0.519588 -0.157391 18 
0.302302 -0.520087 -0.157608 15 
0.304954 -0.520651 -0.157955 20 
0.300332 -0.519673 -0.155006 19 
0.298815 -0.519354 -0.153473 16 
0.301329 -0.519889 -0.153751 16 
0.300666 -0.51975 -0.152605 18 
0.299871 -0.519583 -0.151404 19 
0.299937 -0.519599 -0.150586 25 
0.304674 -0.520606 -0.15182 22 
0.301388 -0.519911 -0.149529 23 
0.301091 -0.51985 -0.148553 24 
0.299258 -0.519463 -0.146914 22 
0.306011 -0.520897 -0.14898 22 
0.303121 -0.520286 -0.146887 22 
0.301681 -0.519983 -0.145425 23 
0.304177 -0.520514 -0.14564 24 
0.306098 -0.520923 -0.145603 24 
0.304545 -0.520596 -0.144099 20 
0.305261 -0.52075 -0.143551 22 
0.305562 -0.520816 -0.142828 24 
0.305539 -0.520813 -0.14197 21 
0.304132 -0.520516 -0.140543 23 
0.304524 -0.520602 -0.13986 24 
0.305889 -0.520893 -0.139573 23 
0.305589 -0.520831 -0.138605 27 
0.306401 -0.521006 -0.138089 23 
0.305777 -0.520875 -0.136993 28 
0.306962 -0.521128 -0.136623 28 
0.306012 -0.520929 -0.135401 29 
0.307479 -0.521242 -0.135138 33 
0.309096 -0.521587 -0.134929 33 
0.308277 -0.521415 -0.133762 30 
0.307463 -0.521244 -0.1326 25 
0.308751 -0.52152 -0.132256 34 
0.309294 -0.521637 -0.131621 34 
0.308523 -0.521475 -0.130482 32 
0.309206 -0.521622 -0.129899 32 
0.308858 -0.52155 -0.128925 30 
0.309966 -0.521787 -0.1285 35 
0.309476 -0.521685 -0.127474 31 
0.311391 -0.522093 -0.127346 28 
0.311941 -0.522212 -0.126705 29 
0.312017 -0.52223 -0.125888 37 
0.311571 -0.522137 -0.12488 31 
0.312121 -0.522256 -0.124238 38 
0.312483 -0.522335 -0.123526 39 
0.31199 -0.522232 -0.122506 36 
0.313257 -0.522503 -0.122118 36 
0.314339 -0.522735 -0.12166 37 
0.313794 -0.522621 -0.120622 38 
0.31512 -0.522904 -0.120246 38 
0.314526 -0.52278 -0.119193 39 
0.31403 -0.522677 -0.118178 35 
0.314876 -0.522858 -0.117629 37 
0.315821 -0.523061 -0.117112 43 
0.315035 -0.522896 -0.115999 42 
0.318407 -0.523614 -0.116304 36 
0.316207 -0.523149 -0.114713 35 
0.318277 -0.52359 -0.114566 41 
0.318797 -0.523703 -0.113894 36 
0.31981 -0.52392 -0.113384 38 
0.318815 -0.52371 -0.112208 42 
0.322097 -0.524409 -0.112439 48 
0.318883 -0.523728 -0.110541 47 
0.319161 -0.52379 -0.109788 45 
0.320569 -0.52409 -0.109397 45 
0.32085 -0.524152 -0.108641 48 
0.322021 -0.524403 -0.108168 45 
0.323198 -0.524655 -0.107692 49 
0.323882 -0.524802 -0.107058 46 
0.322872 -0.524589 -0.105893 52 
0.322909 -0.524599 -0.105058 53 
0.324091 -0.524852 -0.104575 55 
0.324729 -0.524989 -0.103922 48 
0.324666 -0.524978 -0.103054 54 
0.325155 -0.525084 -0.102353 58 
0.325746 -0.525211 -0.101682 60 
0.325885 -0.525243 -0.100874 62 
0.326276 -0.525328 -0.100142 58 
0.326871 -0.525456 -0.0994685 58 
0.328431 -0.52579 -0.0990745 57 
0.326799 -0.525445 -0.0977495 60 
0.328461 -0.5258 -0.0973795 60 
0.328045 -0.525713 -0.0964105 59 
0.327985 -0.525703 -0.0955435 59 
0.328992 -0.525918 -0.0949795 64 
0.32741 -0.525584 -0.0936875 60 
0.328416 -0.5258 -0.0931205 59 
0.328459 -0.525811 -0.0922845 63 
0.328299 -0.525779 -0.0913945 69 
0.328495 -0.525823 -0.0906015 67 
0.329099 -0.525953 -0.0899185 61 
0.329857 -0.526116 -0.0892755 71 
0.329189 -0.525976 -0.0882505 66 
0.32954 -0.526053 -0.0874975 65 
0.329994 -0.526151 -0.0867715 64 
0.329378 -0.526022 -0.0857655 66 
0.329679 -0.526088 -0.0849985 72 
0.330135 -0.526187 -0.0842715 73 
0.330592 -0.526286 -0.0835435 65 
0.330333 -0.526233 -0.0826335 63 
0.329464 -0.52605 -0.0815725 63 
0.330023 -0.526171 -0.0808695 68 
0.330072 -0.526183 -0.0800395 68 
0.330531 -0.526282 -0.0793105 64 
0.330173 -0.526208 -0.0783815 64 
0.33002 -0.526178 -0.0775045 66 
0.330735 -0.526332 -0.0768355 70 
0.328752 -0.525912 -0.0755255 72 
0.328652 -0.525893 -0.0746665 70 
0.327998 -0.525756 -0.0736785 73 
0.327246 -0.525598 -0.0726715 76 
0.327299 -0.525611 -0.0718521 74 
0.326451 -0.525433 -0.0708286 76 
0.325706 -0.525276 -0.0698323 79 
0.32661 -0.52547 -0.0692065 73 
0.324921 -0.525113 -0.0680053 73 
0.324531 -0.525032 -0.0670952 71 
0.324191 -0.524962 -0.0661983 72 
0.323705 -0.52486 -0.0652715 66 
0.323269 -0.52477 -0.064358 76 
0.3221 -0.524523 -0.063292 76 
0.322403 -0.524589 -0.0625386 76 
0.321532 -0.524406 -0.0615416 74 
0.321835 -0.524472 -0.060789 79 
0.320871 -0.524269 -0.0597785 81 
0.319961 -0.524078 -0.0587829 81 
0.319972 -0.524082 -0.057975 77 
0.319743 -0.524035 -0.0571199 89 
0.319369 -0.523957 -0.056238 80 
0.320445 -0.524188 -0.0556386 78 
0.319444 -0.523977 -0.0546374 84 
0.319554 -0.524002 -0.0538513 84 
0.319858 -0.524069 -0.0531016 90 
0.319873 -0.524074 -0.0522974 98 
0.319599 -0.524017 -0.0514405 102 
0.319807 -0.524064 -0.0506728 105 
0.320113 -0.524131 -0.0499223 99 
0.319985 -0.524105 -0.0490937 106 
0.320728 -0.524265 -0.0484194 102 
0.321473 -0.524425 -0.0477431 103 
0.321006 -0.524328 -0.0468554 105 
0.321218 -0.524375 -0.0460857 109 
0.321043 -0.52434 -0.0452503 107 
0.320966 -0.524325 -0.0444322 108 
0.320841 -0.5243 -0.0436069 108 
0.321492 -0.524441 -0.0429088 111 
0.321853 -0.524519 -0.0421619 107 
0.322069 -0.524567 -0.041391 110 
0.322188 -0.524594 -0.0406044 114 
0.322454 -0.524653 -0.0398404 118 
0.322721 -0.524711 -0.039076 122 
0.323381 -0.524853 -0.0383701 121 
0.322964 -0.524767 -0.0375016 120 
0.323282 -0.524836 -0.0367431 121 
0.323307 -0.524843 -0.0359412 126 
0.324461 -0.525091 -0.0353015 132 
0.324536 -0.525109 -0.034505 124 
0.324366 -0.525074 -0.0336743 134 
0.324688 -0.525145 -0.0329124 129 
0.32506 -0.525226 -0.0321564 135 
0.324792 -0.525171 -0.0313136 139 
0.324919 -0.525199 -0.0305242 137 
0.325294 -0.525281 -0.0297668 139 
0.325373 -0.525299 -0.0289704 144 
0.326442 -0.525529 -0.0282991 142 
0.32568 -0.525369 -0.0273963 141 
0.326256 -0.525493 -0.0266604 144 
0.326188 -0.525481 -0.0258451 147 
0.32632 -0.52551 -0.025054 150 
0.326303 -0.525509 -0.0242453 145 
0.327828 -0.525835 -0.023614 144 
0.326965 -0.525653 -0.0227075 151 
0.3269 -0.525641 -0.0218932 144 
0.326935 -0.525651 -0.0210903 150 
0.326425 -0.525544 -0.020229 143 
0.326461 -0.525554 -0.0194275 143 
0.32625 -0.52551 -0.0186005 147 
0.325792 -0.525415 -0.0177496 145 
0.325731 -0.525404 -0.0169401 143 
0.325868 -0.525435 -0.0161504 141 
0.326252 -0.525518 -0.0153841 145 
0.326341 -0.525539 -0.0145888 147 
0.325787 -0.525423 -0.0137344 145 
0.326124 -0.525497 -0.0129624 147 
0.326165 -0.525507 -0.0121633 146 
0.326553 -0.525592 -0.0113942 145 
0.326644 -0.525613 -0.0105988 147 
0.326588 -0.525603 -0.00979097 153 
0.326631 -0.525614 -0.00899167 152 
0.326426 -0.525572 -0.00817297 151 
0.327662 -0.525837 -0.00746567 147 
0.327657 -0.525838 -0.00666097 147 
0.327205 -0.525743 -0.00582397 151 
0.327798 -0.525872 -0.00506307 154 
0.328044 -0.525926 -0.00427607 152 
0.328291 -0.52598 -0.00348827 157 
0.328538 -0.526035 -0.00269987 149 
0.328786 -0.526089 -0.00191067 155 
0.328685 -0.52607 -0.00109917 151 
0.328835 -0.526103 -0.000303173 151 
0.329185 -0.52618 0.000481727 154 
0.329286 -0.526203 0.00128163 159 
0.329588 -0.526269 0.00207103 160 
0.329942 -0.526347 0.00285873 160 
0.330498 -0.526467 0.00363743 162 
0.330551 -0.52648 0.00444253 159 
0.330554 -0.526483 0.00524993 160 
0.331063 -0.526593 0.00603473 159 
0.331169 -0.526617 0.00683863 162 
0.331376 -0.526663 0.00763863 162 
0.332041 -0.526807 0.00842153 158 
0.331692 -0.526734 0.00924433 162 
0.3318 -0.526759 0.0100497 159 
0.331706 -0.526741 0.0108621 157 
0.331765 -0.526755 0.0116693 156 
0.331267 -0.526651 0.012493 156 
0.331478 -0.526698 0.0132952 154 
0.33164 -0.526734 0.0140995 160 
0.331346 -0.526674 0.0149151 158 
0.331306 -0.526667 0.0157241 155 
0.331267 -0.526661 0.0165328 157 
0.332192 -0.526859 0.0173239 162 
0.331697 -0.526756 0.0181414 162 
0.332218 -0.526869 0.0189426 160 
0.331825 -0.526787 0.0197569 160 
0.331586 -0.526738 0.0205682 160 
0.3315 -0.526721 0.0213772 160 
0.331212 -0.526662 0.0221872 163 
0.331785 -0.526786 0.022992 164 
0.331447 -0.526716 0.0238016 170 
0.330706 -0.52656 0.0246103 160 
0.330976 -0.526619 0.0254171 162 
0.330541 -0.526528 0.026223 162 
0.330358 -0.526491 0.0270285 156 
0.330478 -0.526519 0.0278352 161 
0.330549 -0.526535 0.028642 158 
0.330368 -0.526499 0.0294465 162 
0.330288 -0.526484 0.0302516 163 
0.329958 -0.526415 0.0310529 158 
0.329779 -0.526379 0.0318554 158 
0.328101 -0.526023 0.0326304 153 
0.328074 -0.526019 0.0334318 156 
0.327401 -0.525878 0.0342192 157 
0.327426 -0.525885 0.0350205 159 
0.327153 -0.525828 0.0358144 157 
0.326682 -0.52573 0.0366019 156 
0.326956 -0.52579 0.0374095 157 
0.326537 -0.525703 0.0381966 154 
0.32696 -0.525795 0.0390101 154 
0.326492 -0.525697 0.0397941 151 
0.326768 -0.525757 0.0406038 152 
0.326499 -0.525702 0.0413936 150 
0.326529 -0.52571 0.0421946 154 
0.326361 -0.525676 0.0429874 154 
0.326539 -0.525716 0.0437951 155 
0.326175 -0.52564 0.0445784 151 
0.326849 -0.525786 0.0454105 159 
0.325744 -0.525552 0.0461562 154 
0.325678 -0.52554 0.0469518 155 
0.326699 -0.525759 0.0478059 157 
0.326584 -0.525737 0.0486006 157 
0.326569 -0.525735 0.0494008 156 
0.326159 -0.52565 0.0501775 152 
0.326639 -0.525754 0.0510076 153 
0.326378 -0.5257 0.0517927 153 
0.326811 -0.525794 0.0526222 155 
0.326898 -0.525815 0.0534303 149 
0.326687 -0.525772 0.0542184 153 
0.327719 -0.525994 0.055094 149 
0.327013 -0.525845 0.055847 154 
0.326754 -0.525792 0.0566311 153 
0.326398 -0.525717 0.0574068 150 
0.326438 -0.525728 0.0582126 149 
0.326429 -0.525728 0.0590147 156 
0.325532 -0.525538 0.0597439 149 
0.326265 -0.525697 0.0606072 152 
0.326704 -0.525792 0.0614482 146 
0.327991 -0.526068 0.0623657 147 
0.326593 -0.525772 0.0630468 146 
0.326538 -0.525762 0.0638461 148 
0.326583 -0.525773 0.0646549 143 
0.326926 -0.525849 0.0654926 149 
0.326873 -0.525839 0.0662932 147 
0.327317 -0.525936 0.0671433 152 
0.327265 -0.525926 0.067945 150 
0.329213 -0.526344 0.0689534 149 
0.327162 -0.525908 0.0695488 149 
0.327111 -0.525899 0.0703508 148 
0.327211 -0.525922 0.0711693 145 
0.327211 -0.525924 0.0719775 148 
0.32831 -0.52616 0.0729098 147 
0.328512 -0.526205 0.0737438 145 
0.327364 -0.525963 0.0744214 146 
0.327716 -0.526039 0.0752726 145 
0.327419 -0.525978 0.0760474 143 
0.327872 -0.526076 0.0769131 145 
0.327876 -0.526079 0.077725 146 
0.329336 -0.526393 0.0787209 148 
0.32919 -0.526363 0.0795171 146 
0.328142 -0.526142 0.0801957 144 
0.32855 -0.52623 0.0810626 146 
0.329714 -0.526481 0.0820328 148 
0.329469 -0.52643 0.0828164 144 
0.329528 -0.526445 0.0836412 145 
0.329789 -0.526502 0.0844948 149 
0.329647 -0.526474 0.0852928 145 
0.3287 -0.526274 0.085975 145 
0.329466 -0.526439 0.0869029 148 
0.329426 -0.526433 0.0877155 147 
0.329589 -0.526469 0.0885586 145 
0.3295 -0.526452 0.0893646 145 
0.329361 -0.526424 0.090163 145 
0.329829 -0.526526 0.0910552 146 
0.329944 -0.526552 0.0918942 147 
0.329907 -0.526547 0.0927101 149 
0.330429 -0.52666 0.0936159 150 
0.330444 -0.526665 0.0944417 148 
0.330511 -0.526681 0.0952765 145 
0.332108 -0.527024 0.0963667 146 
0.330494 -0.526681 0.0969226 146 
0.330461 -0.526676 0.097742 146 
0.330937 -0.52678 0.0986495 147 
0.331516 -0.526905 0.0995773 150 
0.332765 -0.527174 0.100626 149 
0.332836 -0.527191 0.10147 146 
0.332857 -0.527197 0.102305 149 
0.333342 -0.527303 0.103226 148 
0.332182 -0.527057 0.103846 149 
0.331539 -0.526922 0.104558 148 
0.331818 -0.526983 0.105441 145 
0.33297 -0.527231 0.106492 145 
0.332994 -0.527238 0.107332 143 
0.331787 -0.526982 0.107933 139 
0.331966 -0.527022 0.108801 141 
0.33307 -0.52726 0.109854 141 
0.332582 -0.527158 0.110593 142 
0.333227 -0.527297 0.111559 146 
0.333616 -0.527382 0.112476 142 
0.334421 -0.527556 0.113481 139 
0.33497 -0.527675 0.114436 144 
0.333961 -0.527462 0.115068 139 
0.33425 -0.527525 0.115971 141 
0.33428 -0.527534 0.11682 139 
0.334883 -0.527665 0.117793 138 
0.335228 -0.52774 0.118712 140 
0.335156 -0.527727 0.119542 141 
0.335136 -0.527725 0.120385 136 
0.335901 -0.52789 0.121402 136 
0.335622 -0.527832 0.122188 137 
0.335709 -0.527853 0.123057 142 
0.336268 -0.527974 0.124035 141 
0.336724 -0.528073 0.124991 142 
0.336971 -0.528128 0.125902 144 
0.337325 -0.528206 0.126839 140 
0.337152 -0.528171 0.127653 144 
0.337824 -0.528316 0.128669 144 
0.337599 -0.52827 0.129471 148 
0.337903 -0.528337 0.130403 146 
0.33752 -0.528257 0.131167 144 
0.337878 -0.528336 0.132114 146 
0.337654 -0.52829 0.132918 150 
0.338173 -0.528403 0.133908 147 
0.338587 -0.528493 0.134874 145 
0.339644 -0.528721 0.136005 148 
0.339902 -0.528778 0.136937 148 
0.339145 -0.528618 0.137608 144 
0.339457 -0.528687 0.138555 143 
0.339502 -0.528699 0.139434 134 
0.34046 -0.528905 0.140555 141 
0.339648 -0.528734 0.141209 137 
0.339749 -0.528758 0.142105 136 
0.340011 -0.528816 0.143046 141 
0.340436 -0.528908 0.144033 141 
0.340216 -0.528863 0.144845 144 
0.340588 -0.528945 0.145821 145 
0.340692 -0.528969 0.146724 148 
0.340958 -0.529028 0.147674 148 
0.340471 -0.528926 0.148412 147 
0.340846 -0.529008 0.149395 142 
0.340305 -0.528894 0.150117 148 
0.341113 -0.529069 0.151227 148 
0.340842 -0.529013 0.152028 144 
0.340464 -0.528935 0.152797 150 
0.339442 -0.528718 0.153375 149 
0.339818 -0.528801 0.154364 151 
0.339819 -0.528803 0.155244 149 
0.339713 -0.528782 0.156092 150 
0.340253 -0.5289 0.157136 151 
0.339879 -0.528822 0.157904 149 
0.33886 -0.528606 0.158474 152 
0.338703 -0.528574 0.159307 151 
0.338974 -0.528634 0.160272 155 
0.338656 -0.528568 0.161055 154 
0.338232 -0.52848 0.161804 149 
0.338183 -0.528471 0.162671 153 
0.337546 -0.528337 0.163352 150 
0.337926 -0.52842 0.164356 150 
0.337024 -0.52823 0.164949 151 
0.33767 -0.52837 0.166042 154 
0.336451 -0.528111 0.166528 154 
0.337844 -0.528411 0.167869 150 
0.336039 -0.528027 0.168159 158 
0.335463 -0.527906 0.168851 156 
0.335153 -0.527842 0.169631 150 
0.334422 -0.527687 0.170268 153 
0.335434 -0.527906 0.171494 152 
0.334122 -0.527627 0.171932 151 
0.333499 -0.527496 0.172602 151 
0.333561 -0.527511 0.173506 154 
0.33315 -0.527426 0.174247 147 
0.332425 -0.527273 0.174879 156 
0.332331 -0.527254 0.175728 150 
0.331714 -0.527125 0.176394 147 
0.331463 -0.527073 0.177189 145 
0.331474 -0.527077 0.178076 142 
0.331537 -0.527093 0.178983 140 
0.330767 -0.52693 0.17959 138 
0.330674 -0.526912 0.180441 136 
0.330634 -0.526906 0.181311 136 
0.328936 -0.526545 0.181572 130 
0.330087 -0.526793 0.182881 139 
0.329167 -0.526598 0.183425 147 
0.328612 -0.526481 0.184102 144 
0.328522 -0.526464 0.184953 128 
0.327454 -0.526238 0.185435 123 
0.326698 -0.526078 0.186032 120 
0.325894 -0.525908 0.186608 121 
0.325857 -0.525902 0.187476 122 
0.325412 -0.525809 0.188187 128 
0.324917 -0.525705 0.188878 130 
0.323968 -0.525504 0.18939 129 
0.325098 -0.525748 0.190715 130 
0.325012 -0.525732 0.191565 121 
0.324366 -0.525595 0.192194 120 
0.324229 -0.525568 0.193025 127 
0.32389 -0.525498 0.193774 131 
0.323703 -0.52546 0.194584 123 
0.322557 -0.525217 0.195006 116 
0.322624 -0.525233 0.195917 109 
0.322036 -0.525109 0.196562 110 
0.323516 -0.525428 0.198056 105 
0.323483 -0.525423 0.198931 104 
0.323146 -0.525353 0.19968 105 
0.323772 -0.525489 0.200831 101 
0.323182 -0.525365 0.201476 99 
0.323302 -0.525392 0.202418 95 
0.323118 -0.525355 0.203232 90 
0.323036 -0.525339 0.204091 97 
0.323055 -0.525346 0.204993 100 
0.32338 -0.525417 0.206027 91 
0.323146 -0.525369 0.206822 85 
0.32342 -0.52543 0.207838 90 
0.323645 -0.52548 0.208834 88 
0.324227 -0.525607 0.209989 90 
0.324556 -0.525679 0.211036 84 
0.324169 -0.525599 0.211768 90 
0.32358 -0.525474 0.212408 90 
0.324011 -0.525569 0.213504 84 
0.323473 -0.525456 0.214167 80 
0.323853 -0.525539 0.215243 79 
0.32301 -0.525361 0.215767 83 
0.323646 -0.525499 0.216962 140 
0.323058 -0.525375 0.217601 80 
0.323899 -0.525558 0.218895 78 
0.324437 -0.525675 0.220054 78 
0.300187 -0.516342 -0.168548 9 
0.29471 -0.515227 -0.16504 10 
0.296646 -0.515624 -0.16512 17 
0.299371 -0.516181 -0.16557 11 
0.301489 -0.516615 -0.165719 12 
0.300271 -0.516369 -0.164279 12 
0.301248 -0.51657 -0.163881 16 
0.298221 -0.515955 -0.161597 15 
0.298194 -0.515951 -0.160731 16 
0.299434 -0.516206 -0.160456 12 
0.295903 -0.515488 -0.157965 18 
0.303547 -0.517048 -0.160647 19 
0.302274 -0.516791 -0.159201 13 
0.299013 -0.516128 -0.156852 16 
0.306489 -0.517654 -0.159405 12 
0.299596 -0.516251 -0.155417 13 
0.296561 -0.515634 -0.153199 20 
0.30205 -0.516755 -0.15482 16 
0.298529 -0.516039 -0.152394 18 
0.299407 -0.51622 -0.15194 17 
0.300107 -0.516365 -0.151404 14 
0.299947 -0.516334 -0.150487 23 
0.299381 -0.516221 -0.149393 19 
0.303413 -0.517045 -0.150308 19 
0.302883 -0.516939 -0.149227 22 
0.303043 -0.516973 -0.148447 22 
0.302743 -0.516914 -0.14747 23 
0.305673 -0.517513 -0.147876 20 
0.302148 -0.516796 -0.145522 19 
0.303499 -0.517074 -0.14525 24 
0.30366 -0.517109 -0.144471 20 
0.304281 -0.517237 -0.143886 23 
0.306343 -0.51766 -0.1439 24 
0.305113 -0.517411 -0.142539 22 
0.302974 -0.516977 -0.140809 26 
0.30618 -0.517632 -0.141285 25 
0.304307 -0.517252 -0.139672 22 
0.303964 -0.517184 -0.138689 27 
0.305233 -0.517445 -0.138362 28 
0.305627 -0.517527 -0.137677 30 
0.307465 -0.517904 -0.137571 22 
0.307584 -0.51793 -0.136772 25 
0.308123 -0.518042 -0.13614 34 
0.308617 -0.518145 -0.135489 32 
0.307566 -0.517933 -0.13423 34 
0.308668 -0.518159 -0.133817 36 
0.30627 -0.517672 -0.132041 34 
0.308767 -0.518183 -0.132166 31 
0.309216 -0.518277 -0.131494 30 
0.309337 -0.518304 -0.130697 32 
0.310684 -0.51858 -0.130365 35 
0.309063 -0.518251 -0.128907 32 
0.310549 -0.518557 -0.128625 40 
0.309306 -0.518305 -0.127316 32 
0.311267 -0.518707 -0.127205 34 
0.314205 -0.519308 -0.127448 35 
0.310898 -0.518636 -0.125382 31 
0.312349 -0.518934 -0.125072 35 
0.31105 -0.51867 -0.123755 35 
0.313456 -0.519163 -0.123785 33 
0.31296 -0.519064 -0.122762 41 
0.313802 -0.519238 -0.122221 38 
0.315466 -0.519579 -0.121968 40 
0.314966 -0.519479 -0.120945 32 
0.314611 -0.519409 -0.119976 39 
0.315508 -0.519594 -0.119446 42 
0.315828 -0.519661 -0.118712 40 
0.315667 -0.51963 -0.117812 37 
0.315698 -0.519638 -0.116979 42 
0.316212 -0.519745 -0.116312 38 
0.317165 -0.519942 -0.115792 44 
0.317148 -0.51994 -0.114942 37 
0.31869 -0.520257 -0.114615 42 
0.317457 -0.520007 -0.113358 40 
0.318025 -0.520125 -0.112703 41 
0.319474 -0.520423 -0.112337 42 
0.319704 -0.520472 -0.111567 42 
0.319836 -0.5205 -0.110764 45 
0.322289 -0.521003 -0.110712 43 
0.321679 -0.520881 -0.109667 46 
0.321319 -0.520809 -0.108704 45 
0.322542 -0.521061 -0.108247 46 
0.32139 -0.520827 -0.107035 51 
0.323111 -0.521181 -0.10673 55 
0.322352 -0.521028 -0.105646 51 
0.323881 -0.521342 -0.105273 51 
0.32332 -0.521229 -0.104253 52 
0.323906 -0.521351 -0.103586 51 
0.325798 -0.521739 -0.103313 55 
0.325132 -0.521605 -0.102263 55 
0.32477 -0.521533 -0.101306 55 
0.326922 -0.521974 -0.1011 58 
0.326557 -0.521902 -0.100142 61 
0.32695 -0.521984 -0.0994085 58 
0.326535 -0.521901 -0.0984385 59 
0.327739 -0.522149 -0.0979395 55 
0.326566 -0.521911 -0.0967535 56 
0.327061 -0.522014 -0.0960485 58 
0.328624 -0.522336 -0.0956445 63 
0.328869 -0.522388 -0.0948645 63 
0.329217 -0.522461 -0.0941135 63 
0.328496 -0.522315 -0.0930635 61 
0.328997 -0.52242 -0.0923545 61 
0.328228 -0.522264 -0.0912965 58 
0.329391 -0.522504 -0.0907675 65 
0.330304 -0.522692 -0.0901665 62 
0.330759 -0.522787 -0.0894405 63 
0.330753 -0.522788 -0.0885895 60 
0.330388 -0.522716 -0.0876455 66 
0.330434 -0.522727 -0.0868115 65 
0.330379 -0.522718 -0.0859505 64 
0.329761 -0.522593 -0.0849465 66 
0.331705 -0.522992 -0.0845995 66 
0.330521 -0.522752 -0.0834525 66 
0.330825 -0.522816 -0.0826845 73 
0.331284 -0.522912 -0.0819555 74 
0.331282 -0.522914 -0.0811105 72 
0.331127 -0.522884 -0.0802285 70 
0.331434 -0.522949 -0.0794605 77 
0.331176 -0.522898 -0.0785555 75 
0.332668 -0.523205 -0.0780715 76 
0.330512 -0.522766 -0.0767135 69 
0.330359 -0.522737 -0.0758375 73 
0.330514 -0.52277 -0.0750355 80 
0.330822 -0.522835 -0.0742684 79 
0.330161 -0.522702 -0.0732776 75 
0.329148 -0.522497 -0.0722095 76 
0.330218 -0.522718 -0.0716175 78 
0.329054 -0.522482 -0.0705204 77 
0.327847 -0.522237 -0.0694188 74 
0.328659 -0.522405 -0.0687676 79 
0.327104 -0.522089 -0.0675965 77 
0.326359 -0.521939 -0.0666075 78 
0.325767 -0.52182 -0.0656547 75 
0.325228 -0.521711 -0.0647157 76 
0.324343 -0.521532 -0.0637068 79 
0.324253 -0.521516 -0.0628675 86 
0.323571 -0.521378 -0.0619067 75 
0.323729 -0.521412 -0.0611209 84 
0.32256 -0.521175 -0.0600658 80 
0.321837 -0.521029 -0.0591054 88 
0.32136 -0.520934 -0.0581973 79 
0.321324 -0.520928 -0.0573781 84 
0.321141 -0.520893 -0.0565312 79 
0.321203 -0.520907 -0.0557324 82 
0.320585 -0.520783 -0.0548039 88 
0.321522 -0.520976 -0.0541727 94 
0.321634 -0.521001 -0.0533835 93 
0.321065 -0.520886 -0.0524682 98 
0.32108 -0.520891 -0.0516627 95 
0.321047 -0.520886 -0.0508488 102 
0.321112 -0.520902 -0.0500529 100 
0.321615 -0.521006 -0.0493351 102 
0.321924 -0.521071 -0.0485818 99 
0.321795 -0.521047 -0.0477515 105 
0.322008 -0.521092 -0.0469809 104 
0.321589 -0.521008 -0.0461022 105 
0.322632 -0.521224 -0.0454714 104 
0.322212 -0.52114 -0.0445939 110 
0.323798 -0.521466 -0.044048 112 
0.322447 -0.521191 -0.0430195 112 
0.323741 -0.521458 -0.0424209 114 
0.32391 -0.521494 -0.0416393 115 
0.323834 -0.521481 -0.040819 113 
0.324053 -0.521527 -0.0400451 122 
0.323438 -0.521403 -0.0391433 119 
0.323412 -0.5214 -0.0383331 124 
0.323976 -0.521517 -0.0376111 125 
0.324443 -0.521614 -0.0368731 125 
0.324172 -0.521561 -0.0360267 124 
0.324789 -0.521689 -0.0353086 124 
0.325358 -0.521807 -0.0345817 124 
0.325088 -0.521754 -0.0337362 127 
0.324769 -0.52169 -0.0328853 132 
0.325093 -0.521758 -0.0321229 134 
0.32522 -0.521786 -0.0313334 135 
0.325149 -0.521774 -0.0305177 139 
0.32444 -0.521631 -0.0296196 136 
0.324863 -0.521719 -0.0288694 137 
0.325436 -0.521838 -0.0281368 141 
0.324776 -0.521705 -0.0272493 144 
0.324856 -0.521723 -0.026455 142 
0.324888 -0.521731 -0.0256549 147 
0.324379 -0.521629 -0.0247909 141 
0.324412 -0.521638 -0.0239923 141 
0.323807 -0.521516 -0.0231207 142 
0.324037 -0.521565 -0.0223458 141 
0.323826 -0.521524 -0.0215214 141 
0.324057 -0.521573 -0.0207462 141 
0.323749 -0.521511 -0.0199127 141 
0.323883 -0.521541 -0.019127 142 
0.324066 -0.52158 -0.0183462 144 
0.324103 -0.521589 -0.0175501 142 
0.323994 -0.521569 -0.0167396 142 
0.323836 -0.521538 -0.015925 141 
0.325594 -0.5219 -0.0152943 146 
0.325436 -0.521869 -0.0144777 150 
0.324051 -0.521588 -0.0135493 148 
0.324728 -0.521728 -0.0128117 149 
0.32472 -0.521729 -0.0120115 145 
0.324663 -0.521719 -0.0112072 148 
0.325 -0.521789 -0.0104366 142 
0.326077 -0.522012 -0.00972577 142 
0.325577 -0.521911 -0.00888437 141 
0.325719 -0.521942 -0.00809537 146 
0.324926 -0.521782 -0.00723437 142 
0.32566 -0.521934 -0.00649057 146 
0.326248 -0.522056 -0.00573367 146 
0.326344 -0.522077 -0.00493977 152 
0.326737 -0.52216 -0.00416617 153 
0.327578 -0.522334 -0.00342137 150 
0.327079 -0.522233 -0.00258597 145 
0.327575 -0.522337 -0.00181577 154 
0.328072 -0.52244 -0.00104387 153 
0.328271 -0.522483 -0.000252473 154 
0.328271 -0.522485 0.000550927 149 
0.329122 -0.522661 0.00130683 155 
0.328872 -0.522612 0.00212513 152 
0.329175 -0.522676 0.00291363 160 
0.329026 -0.522647 0.00372563 159 
0.329782 -0.522804 0.00449353 161 
0.331147 -0.523085 0.00523583 160 
0.330948 -0.523046 0.00605273 160 
0.330852 -0.523028 0.00686443 160 
0.330252 -0.522907 0.00769613 160 
0.331065 -0.523076 0.00847063 158 
0.33102 -0.523068 0.00927983 156 
0.331787 -0.523227 0.0100603 160 
0.331743 -0.52322 0.0108705 163 
0.331701 -0.523213 0.0116804 160 
0.331963 -0.523269 0.0124811 160 
0.331566 -0.523189 0.0133008 154 
0.331222 -0.523121 0.0141176 156 
0.332144 -0.523312 0.0149031 157 
0.331648 -0.523212 0.015723 154 
0.331507 -0.523185 0.0165338 153 
0.331773 -0.523241 0.0173367 159 
0.332141 -0.523318 0.018139 158 
0.331697 -0.523229 0.0189541 159 
0.331812 -0.523255 0.0197607 157 
0.332284 -0.523353 0.0205639 152 
0.333216 -0.523546 0.021365 156 
0.331959 -0.52329 0.0221841 162 
0.331772 -0.523254 0.0229934 154 
0.331738 -0.523249 0.0238016 157 
0.331198 -0.52314 0.0246101 159 
0.331317 -0.523166 0.0254172 160 
0.332452 -0.523401 0.0262275 156 
0.330597 -0.523022 0.0270282 159 
0.331071 -0.523121 0.0278372 164 
0.330636 -0.523034 0.0286403 161 
0.330808 -0.523071 0.0294481 159 
0.329672 -0.52284 0.0302405 152 
0.3307 -0.523053 0.0310593 157 
0.330571 -0.523028 0.0318634 159 
0.330746 -0.523066 0.0326726 164 
0.330517 -0.523021 0.0334745 160 
0.329786 -0.522873 0.0342647 160 
0.329861 -0.52289 0.0350711 159 
0.328283 -0.522569 0.0358359 158 
0.327811 -0.522474 0.036625 155 
0.327787 -0.522471 0.0374255 155 
0.327515 -0.522417 0.0382183 154 
0.327492 -0.522414 0.0390183 155 
0.327172 -0.52235 0.039808 153 
0.327151 -0.522348 0.0406075 151 
0.326882 -0.522294 0.0413975 152 
0.32711 -0.522343 0.0422067 150 
0.32709 -0.522341 0.0430063 152 
0.326971 -0.522318 0.0438017 151 
0.32735 -0.522398 0.0446196 156 
0.327034 -0.522335 0.0454057 154 
0.327463 -0.522425 0.046228 153 
0.327198 -0.522372 0.047016 150 
0.327281 -0.522391 0.0478219 151 
0.328561 -0.522655 0.0486949 151 
0.327449 -0.522429 0.0494351 152 
0.327782 -0.522499 0.0502572 151 
0.32732 -0.522407 0.051032 154 
0.327456 -0.522436 0.0518429 151 
0.327443 -0.522435 0.0526449 148 
0.32763 -0.522475 0.0534603 149 
0.327767 -0.522505 0.0542732 151 
0.327706 -0.522495 0.0550728 152 
0.327745 -0.522505 0.0558796 155 
0.328234 -0.522607 0.0567203 152 
0.327924 -0.522545 0.057502 152 
0.329216 -0.522812 0.0584082 153 
0.327508 -0.522463 0.0590786 146 
0.328799 -0.52273 0.0599892 149 
0.329343 -0.522843 0.0608422 146 
0.327535 -0.522475 0.0614952 146 
0.328178 -0.522608 0.0623569 145 
0.328422 -0.52266 0.0631855 143 
0.328717 -0.522722 0.06402 146 
0.328412 -0.522662 0.0647996 145 
0.328008 -0.522581 0.0655688 154 
0.328454 -0.522674 0.0664196 146 
0.328702 -0.522727 0.0672525 148 
0.3288 -0.522749 0.0680715 152 
0.328447 -0.522678 0.0688447 153 
0.328346 -0.522659 0.0696432 148 
0.328796 -0.522754 0.0705005 142 
0.329298 -0.522859 0.0713655 141 
0.328495 -0.522696 0.0720882 148 
0.3294 -0.522883 0.0730004 147 
0.329301 -0.522865 0.0738013 148 
0.328199 -0.522641 0.0744854 142 
0.328803 -0.522766 0.0753675 150 
0.32941 -0.522893 0.0762525 151 
0.329716 -0.522957 0.0771034 146 
0.329569 -0.522929 0.0778995 150 
0.329978 -0.523015 0.0787654 148 
0.330034 -0.523028 0.0795881 147 
0.33004 -0.523031 0.0804048 150 
0.329844 -0.522993 0.0811953 149 
0.330307 -0.52309 0.0820733 152 
0.32996 -0.523021 0.0828438 153 
0.330373 -0.523107 0.0837177 153 
0.330129 -0.523059 0.0845019 148 
0.330189 -0.523073 0.0853285 146 
0.330452 -0.523129 0.0861848 150 
0.330463 -0.523133 0.0870057 151 
0.330119 -0.523065 0.087775 146 
0.330435 -0.523131 0.0886416 147 
0.330549 -0.523156 0.0894792 149 
0.331273 -0.523307 0.090411 148 
0.330829 -0.523218 0.0911651 148 
0.331148 -0.523285 0.0920375 149 
0.331366 -0.523332 0.0928955 148 
0.331177 -0.523295 0.0936894 147 
0.330786 -0.523216 0.09445 144 
0.332897 -0.523652 0.0956209 142 
0.332043 -0.523478 0.0963071 147 
0.333189 -0.523715 0.0973271 150 
0.33259 -0.523594 0.098055 146 
0.332866 -0.523653 0.0989314 146 
0.332474 -0.523575 0.0996932 146 
0.333574 -0.523802 0.100716 144 
0.333028 -0.523692 0.101451 143 
0.333461 -0.523783 0.102361 146 
0.333792 -0.523853 0.103254 149 
0.333557 -0.523806 0.104044 146 
0.333838 -0.523866 0.10493 149 
0.333758 -0.523851 0.10575 146 
0.333575 -0.523816 0.106551 147 
0.334013 -0.523908 0.10747 146 
0.334348 -0.523978 0.108372 147 
0.334012 -0.523911 0.109144 147 
0.334245 -0.523961 0.110027 146 
0.334168 -0.523947 0.11085 142 
0.334403 -0.523997 0.111736 139 
0.33443 -0.524005 0.112582 144 
0.334459 -0.524013 0.113428 142 
0.334747 -0.524074 0.114329 139 
0.334725 -0.524071 0.115166 139 
0.335224 -0.524176 0.116113 137 
0.335672 -0.52427 0.117053 140 
0.335704 -0.524278 0.117905 141 
0.335736 -0.524287 0.118758 142 
0.336082 -0.52436 0.11968 147 
0.337271 -0.524606 0.12079 140 
0.337305 -0.524615 0.121648 141 
0.337235 -0.524602 0.122483 135 
0.336849 -0.524525 0.123247 140 
0.337253 -0.52461 0.124191 139 
0.337923 -0.52475 0.125198 141 
0.33934 -0.525043 0.126383 142 
0.337945 -0.524758 0.126913 146 
0.338089 -0.52479 0.127803 146 
0.33967 -0.525116 0.129036 148 
0.33971 -0.525126 0.129906 149 
0.338684 -0.524918 0.130518 146 
0.338672 -0.524917 0.131375 146 
0.338872 -0.52496 0.132284 146 
0.338648 -0.524916 0.133089 150 
0.339703 -0.525135 0.134214 144 
0.339212 -0.525036 0.134954 146 
0.339629 -0.525124 0.135924 141 
0.339566 -0.525113 0.136772 147 
0.340629 -0.525333 0.137912 142 
0.339549 -0.525113 0.138499 140 
0.339434 -0.525092 0.139336 139 
0.33948 -0.525103 0.140215 137 
0.340116 -0.525236 0.141251 140 
0.340432 -0.525303 0.142206 137 
0.339728 -0.52516 0.142886 136 
0.34026 -0.525271 0.143901 142 
0.339986 -0.525217 0.144698 141 
0.34149 -0.525528 0.145985 147 
0.340785 -0.525385 0.146664 139 
0.339974 -0.525221 0.147312 154 
0.341049 -0.525444 0.148488 141 
0.340345 -0.525301 0.149165 148 
0.340667 -0.525369 0.150133 147 
0.340935 -0.525426 0.151087 146 
0.339535 -0.52514 0.151559 157 
0.341151 -0.525475 0.152907 146 
0.341097 -0.525466 0.153771 148 
0.339964 -0.525235 0.154317 152 
0.339642 -0.525171 0.1551 152 
0.339321 -0.525107 0.155882 151 
0.339054 -0.525054 0.156681 148 
0.33954 -0.525156 0.157708 150 
0.338416 -0.524927 0.158245 151 
0.339438 -0.525139 0.159439 154 
0.338689 -0.524987 0.160089 154 
0.338908 -0.525034 0.161039 152 
0.337147 -0.524674 0.161368 150 
0.337471 -0.524743 0.16235 148 
0.337903 -0.524834 0.163369 150 
0.336788 -0.524606 0.163894 154 
0.337007 -0.524653 0.164846 156 
0.337013 -0.524656 0.16573 156 
0.336753 -0.524605 0.166528 147 
0.336493 -0.524554 0.167326 151 
0.336128 -0.524481 0.168089 155 
0.33534 -0.52432 0.16871 157 
0.335188 -0.524291 0.169542 154 
0.33509 -0.524273 0.170392 157 
0.334042 -0.52406 0.170921 157 
0.333525 -0.523955 0.171627 149 
0.332851 -0.523819 0.172278 145 
0.33265 -0.52378 0.17309 146 
0.333341 -0.523924 0.174211 150 
0.332668 -0.523787 0.17486 148 
0.332836 -0.523824 0.175802 142 
0.332217 -0.523699 0.176468 144 
0.332018 -0.52366 0.177281 143 
0.331194 -0.523492 0.177871 144 
0.3311 -0.523475 0.178721 143 
0.330435 -0.52334 0.179364 131 
0.330239 -0.523302 0.180176 132 
0.330198 -0.523296 0.181045 127 
0.330159 -0.52329 0.181915 136 
0.329704 -0.523198 0.182632 143 
0.328837 -0.523022 0.183195 137 
0.328179 -0.522888 0.183833 138 
0.327831 -0.522819 0.184586 125 
0.326716 -0.522591 0.185048 123 
0.327549 -0.522765 0.186246 125 
0.325771 -0.522401 0.186452 125 
0.326807 -0.522616 0.187731 123 
0.325238 -0.522295 0.18801 124 
0.325302 -0.522311 0.188917 130 
0.324452 -0.522138 0.189469 126 
0.324314 -0.522111 0.190297 130 
0.323064 -0.521856 0.190687 132 
