0.395711,-0.154427,-0.177907,19
0.394174,-0.15359,-0.176302,16
0.393334,-0.153134,-0.175037,26
0.395936,-0.154556,-0.175405,25
0.394787,-0.153931,-0.173995,21
0.393731,-0.153357,-0.172636,20
0.395082,-0.154096,-0.172404,21
0.394455,-0.153756,-0.171249,25
0.397244,-0.155281,-0.171675,20
0.395181,-0.154157,-0.16986,24
0.395201,-0.15417,-0.169007,26
0.396691,-0.154986,-0.168824,25
0.396537,-0.154904,-0.16789,22
0.394787,-0.153951,-0.16624,29
0.396577,-0.15493,-0.166184,25
0.394742,-0.153931,-0.164506,29
0.396012,-0.154626,-0.164212,35
0.397421,-0.155397,-0.163974,31
0.39627,-0.154772,-0.162609,33
0.394143,-0.153612,-0.160824,30
0.395193,-0.154188,-0.160428,32
0.396465,-0.154885,-0.160123,34
0.39571,-0.154475,-0.158944,31
0.395647,-0.154442,-0.158064,35
0.396316,-0.15481,-0.157495,35
0.397205,-0.155297,-0.157017,33
0.394858,-0.154018,-0.155178,34
0.397121,-0.155256,-0.155274,31
0.394906,-0.154049,-0.153502,38
0.396046,-0.154674,-0.153126,37
0.396804,-0.155089,-0.152588,37
0.396397,-0.154869,-0.151572,39
0.396896,-0.155144,-0.150927,38
0.397657,-0.155562,-0.150386,35
0.397509,-0.155483,-0.149477,39
0.39897,-0.156283,-0.149211,33
0.397042,-0.155232,-0.147595,40
0.398281,-0.155911,-0.147238,36
0.397397,-0.155431,-0.146043,36
0.397337,-0.1554,-0.145174,41
0.39771,-0.155606,-0.144474,38
0.397997,-0.155765,-0.14374,40
0.397333,-0.155404,-0.142641,40
0.398486,-0.156036,-0.142238,42
0.398601,-0.156101,-0.141437,44
0.399326,-0.156499,-0.140866,41
0.397532,-0.155522,-0.13935,41
0.397561,-0.15554,-0.13852,36
0.398023,-0.155794,-0.137851,46
0.400316,-0.157048,-0.137854,45
0.40039,-0.157091,-0.137037,47
0.398373,-0.155991,-0.13546,45
0.399445,-0.15658,-0.135009,51
0.39952,-0.156622,-0.134195,45
0.39942,-0.15657,-0.133319,52
0.398021,-0.155808,-0.131985,43
0.40005,-0.156918,-0.131863,48
0.400519,-0.157176,-0.131188,48
0.398853,-0.156269,-0.129769,48
0.399536,-0.156644,-0.12917,54
0.399092,-0.156404,-0.128181,54
0.399255,-0.156495,-0.127403,51
0.398682,-0.156184,-0.126374,55
0.400411,-0.157131,-0.126123,54
0.39901,-0.156368,-0.12482,56
0.399609,-0.156697,-0.124187,63
0.40034,-0.157098,-0.123595,63
0.399722,-0.156763,-0.122559,69
0.400019,-0.156927,-0.121824,68
0.401102,-0.157521,-0.121342,58
0.400963,-0.157447,-0.120464,62
0.400345,-0.157112,-0.119435,62
0.400687,-0.157301,-0.118713,63
0.400507,-0.157204,-0.117826,57
0.401111,-0.157537,-0.117184,61
0.400408,-0.157155,-0.116136,64
0.400359,-0.15713,-0.115293,65
0.400007,-0.15694,-0.114358,56
0.400046,-0.156963,-0.113544,61
0.400781,-0.157367,-0.112939,61
0.399735,-0.156798,-0.1118,66
0.399213,-0.156514,-0.110821,66
0.398392,-0.156068,-0.109758,70
0.399424,-0.156634,-0.109239,68
0.39899,-0.156399,-0.108292,73
0.398429,-0.156095,-0.107311,71
0.398214,-0.155979,-0.106431,72
0.397016,-0.155327,-0.105275,67
0.396166,-0.154865,-0.104222,70
0.396676,-0.155145,-0.103553,72
0.396422,-0.155009,-0.102671,73
0.395576,-0.154549,-0.101628,74
0.395578,-0.154552,-0.10082,75
0.394234,-0.15382,-0.0996487,78
0.394279,-0.153846,-0.098856,82
0.393821,-0.153599,-0.0979303,85
0.393324,-0.153329,-0.0969967,89
0.393746,-0.153561,-0.0963055,89
0.392709,-0.152997,-0.0952356,95
0.392299,-0.152775,-0.0943316,95
0.392429,-0.152848,-0.0935672,89
0.392062,-0.15265,-0.0926774,93
0.392068,-0.152655,-0.091883,97
0.391662,-0.152435,-0.0909868,104
0.391792,-0.152509,-0.0902249,101
0.391841,-0.152537,-0.0894428,98
0.391931,-0.152588,-0.0886711,105
0.392022,-0.15264,-0.0878995,105
0.391165,-0.152174,-0.0869034,106
0.391544,-0.152383,-0.0862018,101
0.391265,-0.152233,-0.0853459,102
0.391193,-0.152195,-0.0845392,103
0.390833,-0.152001,-0.0836678,108
0.39109,-0.152143,-0.0829377,105
0.3911,-0.152151,-0.0821519,105
0.390989,-0.152092,-0.0813393,101
0.390918,-0.152055,-0.0805366,108
0.390971,-0.152086,-0.0797616,104
0.390737,-0.151961,-0.0789251,109
0.390791,-0.151992,-0.0781512,111
0.391132,-0.15218,-0.0774381,111
0.390817,-0.15201,-0.0765871,114
0.391077,-0.152154,-0.0758565,119
0.390886,-0.152052,-0.0750332,119
0.390615,-0.151906,-0.0741946,118
0.390466,-0.151827,-0.0733823,121
0.391054,-0.15215,-0.0727169,127
0.390865,-0.152048,-0.0718971,121
0.390513,-0.151858,-0.071047,129
0.391799,-0.152563,-0.0705128,121
0.390669,-0.151947,-0.0695153,131
0.390809,-0.152026,-0.0687611,125
0.390419,-0.151815,-0.0679085,129
0.39109,-0.152183,-0.0672524,126
0.390618,-0.151928,-0.0663868,126
0.391618,-0.152476,-0.065787,124
0.390697,-0.151975,-0.0648434,129
0.391247,-0.152278,-0.0641614,123
0.391595,-0.15247,-0.0634422,127
0.391656,-0.152505,-0.0626732,124
0.391063,-0.152183,-0.0617941,127
0.39133,-0.152331,-0.0610607,126
0.391884,-0.152635,-0.0603736,127
0.391947,-0.152672,-0.0596051,123
0.3916,-0.152484,-0.0587711,127
0.391787,-0.152588,-0.058023,130
0.392015,-0.152715,-0.0572809,133
0.391793,-0.152596,-0.056469,128
0.391858,-0.152633,-0.0557018,129
0.392292,-0.152873,-0.0549898,137
0.392153,-0.152798,-0.0541919,140
0.392096,-0.152769,-0.0534068,143
0.392286,-0.152875,-0.0526574,140
0.392107,-0.152779,-0.0518556,144
0.392297,-0.152885,-0.0511061,142
0.392489,-0.152992,-0.0503561,140
0.392845,-0.153189,-0.0496278,137
0.392461,-0.152981,-0.0488005,142
0.392531,-0.153021,-0.0480339,142
0.392395,-0.152949,-0.0472411,140
0.393041,-0.153304,-0.0465474,142
0.392905,-0.153232,-0.0457546,143
0.393306,-0.153453,-0.0450278,146
0.393749,-0.153697,-0.0443046,150
0.393532,-0.15358,-0.0435023,148
0.393977,-0.153825,-0.0427774,148
0.394174,-0.153935,-0.0420229,148
0.394123,-0.153909,-0.0412402,144
0.394114,-0.153907,-0.0404626,152
0.394936,-0.154358,-0.0397737,147
0.395011,-0.154401,-0.0390036,143
0.395003,-0.154398,-0.0382249,145
0.394788,-0.154283,-0.0374257,147
0.395197,-0.154508,-0.0366888,149
0.395065,-0.154439,-0.0358985,154
0.395059,-0.154437,-0.0351208,150
0.395429,-0.154641,-0.0343776,153
0.395799,-0.154846,-0.0336332,152
0.395335,-0.154594,-0.0328144,156
0.395832,-0.154868,-0.0320798,148
0.395619,-0.154753,-0.0312842,149
0.395908,-0.154913,-0.0305303,156
0.395821,-0.154868,-0.0297457,155
0.39653,-0.155257,-0.0290229,157
0.396863,-0.155442,-0.0282691,160
0.396988,-0.155512,-0.0274988,154
0.397744,-0.155927,-0.0267729,166
0.397954,-0.156044,-0.0260064,157
0.397153,-0.155608,-0.025172,164
0.397616,-0.155864,-0.0244224,161
0.398039,-0.156097,-0.0236685,164
0.39842,-0.156307,-0.0229105,169
0.39821,-0.156194,-0.0221166,170
0.397874,-0.156013,-0.0213168,165
0.398214,-0.156201,-0.0205548,174
0.398006,-0.156089,-0.0197631,167
0.398009,-0.156092,-0.0189829,169
0.397928,-0.15605,-0.0181988,170
0.398059,-0.156124,-0.0174248,168
0.398233,-0.156221,-0.0166521,168
0.39845,-0.156341,-0.0158806,171
0.399474,-0.156903,-0.0151397,170
0.398842,-0.15656,-0.0143335,171
0.397539,-0.155849,-0.0135066,166
0.398052,-0.156132,-0.0127446,170
0.398524,-0.156392,-0.0119794,174
0.39794,-0.156075,-0.0111821,176
0.397653,-0.15592,-0.0103951,168
0.398042,-0.156134,-0.00962581,167
0.397924,-0.156072,-0.00884371,167
0.397892,-0.156056,-0.00806384,171
0.397733,-0.155972,-0.00728188,170
0.398081,-0.156164,-0.00650865,176
0.398304,-0.156288,-0.00573226,170
0.397977,-0.156111,-0.00494855,172
0.397821,-0.156027,-0.00416785,171
0.398002,-0.156128,-0.00339035,177
0.397972,-0.156114,-0.00261096,176
0.397859,-0.156054,-0.00183143,177
0.397873,-0.156064,-0.00105252,175
0.397677,-0.155959,-0.000273745,175
0.397649,-0.155946,0.00050473,173
0.397496,-0.155864,0.00128245,180
0.397891,-0.156082,0.00206355,174
0.398118,-0.156208,0.00284476,177
0.397671,-0.155965,0.00361918,175
0.397603,-0.155931,0.00439693,174
0.397284,-0.155758,0.00517048,171
0.397428,-0.155839,0.00595098,171
0.397278,-0.155759,0.00672628,177
0.397003,-0.15561,0.00749822,172
0.397106,-0.155669,0.00827821,179
0.397126,-0.155681,0.0090565,178
0.396936,-0.15558,0.009829,176
0.397083,-0.155662,0.010611,179
0.396936,-0.155583,0.0113842,176
0.397252,-0.155758,0.0121728,177
0.397064,-0.155657,0.0129443,176
0.396876,-0.155557,0.0137152,175
0.396396,-0.155296,0.0144733,179
0.396461,-0.155334,0.015253,177
0.396108,-0.155143,0.0160142,178
0.396425,-0.155318,0.0168058,177
0.396366,-0.155288,0.0175801,172
0.394724,-0.154391,0.0182728,174
0.395873,-0.155022,0.0191084,180
0.395315,-0.154719,0.0198537,182
0.394428,-0.154235,0.0205778,179
0.394455,-0.154252,0.0213531,185
0.394647,-0.154359,0.022139,183
0.394675,-0.154376,0.0229152,184
0.394247,-0.154144,0.0236614,179
0.393243,-0.153597,0.0243666,180
0.391591,-0.152695,0.0250219,181
0.391905,-0.152869,0.0258134,182
0.391567,-0.152686,0.0265575,182
0.391555,-0.152681,0.0273254,181
0.39134,-0.152566,0.0280775,178
0.391004,-0.152384,0.0288189,179
0.38998,-0.151825,0.0295019,176
0.391066,-0.152421,0.0303607,177
0.390528,-0.152129,0.0310824,172
0.389225,-0.151418,0.0317335,175
0.388895,-0.151239,0.0324684,170
0.389976,-0.151833,0.0333345,176
0.390171,-0.151941,0.0341203,172
0.388992,-0.151299,0.0347726,170
0.389066,-0.151341,0.0355455,172
0.389382,-0.151516,0.0363437,170
0.389215,-0.151426,0.0370931,173
0.389129,-0.151381,0.0378506,168
0.389527,-0.151601,0.0386605,172
0.389401,-0.151534,0.0394144,174
0.391019,-0.152422,0.0403648,172
0.390284,-0.152021,0.0410516,172
0.389713,-0.151711,0.0417549,172
0.390806,-0.152311,0.0426544,171
0.391007,-0.152423,0.0434505,171
0.391005,-0.152424,0.0442227,171
0.390068,-0.151913,0.0448777,167
0.391083,-0.152471,0.0457784,164
0.390879,-0.152361,0.0465252,166
0.391327,-0.152608,0.0473577,170
0.390756,-0.152297,0.0480556,168
0.391205,-0.152545,0.0488903,169
0.391083,-0.152481,0.0496483,167
0.391166,-0.152528,0.0504348,169
0.391168,-0.152531,0.0512104,165
0.391252,-0.152579,0.0519982,164
0.391254,-0.152582,0.0527747,162
0.39138,-0.152653,0.0535698,165
0.391711,-0.152836,0.0543969,168
0.391633,-0.152795,0.055163,167
0.391719,-0.152845,0.0559546,167
0.391478,-0.152715,0.0566954,164
0.391688,-0.152831,0.0575075,167
0.391448,-0.152702,0.0582479,169
0.391494,-0.152729,0.0590348,165
0.392322,-0.153185,0.0599519,164
0.392411,-0.153235,0.0607487,166
0.392213,-0.153129,0.0614972,167
0.393211,-0.153677,0.0624517,164
0.394132,-0.154184,0.0633975,165
0.39385,-0.154031,0.0641347,169
0.393901,-0.154061,0.0649306,160
0.393786,-0.154,0.0656971,160
0.393962,-0.154099,0.066517,160
0.394222,-0.154243,0.0673535,161
0.394358,-0.15432,0.0681683,166
0.394245,-0.154259,0.0689366,165
0.394298,-0.154291,0.0697369,165
0.394728,-0.154528,0.0706109,165
0.395201,-0.154789,0.0714958,164
0.396434,-0.155466,0.0725339,162
0.395858,-0.155153,0.0732147,160
0.395915,-0.155186,0.0740218,161
0.396689,-0.155612,0.0749767,160
0.394936,-0.154654,0.0754119,157
0.396678,-0.15561,0.0765713,156
0.395429,-0.154928,0.0771063,155
0.396119,-0.155308,0.0780506,154
0.396304,-0.155412,0.0788895,156
0.396999,-0.155794,0.0798405,156
0.396805,-0.15569,0.0805994,156
0.397035,-0.155818,0.0814523,157
0.397394,-0.156016,0.0823354,154
0.397668,-0.156169,0.0832015,159
0.398542,-0.156649,0.0842064,155
0.397921,-0.156311,0.0848704,155
0.398455,-0.156606,0.0858013,152
0.399636,-0.157254,0.0868873,151
0.399485,-0.157174,0.0876628,153
0.399551,-0.157212,0.0884898,151
0.399574,-0.157227,0.0893073,148
0.399769,-0.157336,0.0901677,152
0.399966,-0.157446,0.0910295,153
0.400033,-0.157485,0.0918607,145
0.400188,-0.157571,0.0927145,145
0.400776,-0.157896,0.0936793,148
0.401979,-0.158556,0.0948038,151
0.401002,-0.158024,0.0953735,150
0.401814,-0.15847,0.0964033,145
0.402235,-0.158703,0.0973352,152
0.402394,-0.158792,0.0982003,155
0.402554,-0.158882,0.0990669,152
0.402627,-0.158924,0.0999113,153
0.402656,-0.158942,0.100745,151
0.40295,-0.159105,0.101651,145
0.402892,-0.159076,0.102463,154
0.403187,-0.159239,0.103372,155
0.403174,-0.159234,0.104198,150
0.405157,-0.160323,0.105586,148
0.404655,-0.16005,0.106278,145
0.404377,-0.1599,0.107033,147
0.405212,-0.160359,0.108107,145
0.404889,-0.160184,0.10885,143
0.404878,-0.160181,0.109683,145
0.405404,-0.160471,0.110675,144
0.405082,-0.160297,0.111418,150
0.405341,-0.160441,0.112335,146
0.40444,-0.159949,0.112903,147
0.405682,-0.160632,0.114118,149
0.405137,-0.160335,0.114794,151
0.404728,-0.160113,0.115509,145
0.404453,-0.159965,0.116264,146
0.404535,-0.160012,0.117131,148
0.405109,-0.160329,0.118154,148
0.404255,-0.159863,0.118726,153
0.404205,-0.159838,0.119553,149
0.404511,-0.160008,0.120494,146
0.404596,-0.160056,0.121366,141
0.404904,-0.160227,0.122312,145
0.40414,-0.159811,0.122908,145
0.404717,-0.160129,0.123944,143
0.40449,-0.160007,0.124715,147
0.404531,-0.160032,0.125577,140
0.405111,-0.160351,0.126621,142
0.404258,-0.159886,0.127181,148
0.404703,-0.160132,0.128183,149
0.404343,-0.159938,0.12891,150
0.404029,-0.159768,0.129651,146
0.403671,-0.159574,0.130377,144
0.404072,-0.159795,0.131368,143
0.404564,-0.160067,0.132394,147
0.403536,-0.159506,0.132883,146
0.403848,-0.159679,0.133847,149
0.404028,-0.15978,0.134765,149
0.403895,-0.159709,0.135571,151
0.403985,-0.159761,0.13646,149
0.403451,-0.15947,0.13712,154
0.403007,-0.159229,0.137812,147
0.40292,-0.159184,0.138635,150
0.402922,-0.159187,0.139492,156
0.402213,-0.158801,0.140082,155
0.401994,-0.158683,0.140855,152
0.40311,-0.159297,0.142135,154
0.402445,-0.158935,0.14274,152
0.401916,-0.158647,0.143395,150
0.402009,-0.1587,0.144289,151
0.401481,-0.158413,0.144942,152
0.401441,-0.158394,0.145785,154
0.400871,-0.158083,0.14642,151
0.400479,-0.157871,0.147123,150
0.399736,-0.157466,0.147685,148
0.399478,-0.157326,0.148439,149
0.399703,-0.157452,0.149388,144
0.399621,-0.157409,0.150213,139
0.398925,-0.15703,0.150789,140
0.398668,-0.156892,0.151543,139
0.398107,-0.156586,0.15217,141
0.397852,-0.156448,0.152923,137
0.397989,-0.156526,0.153839,146
0.396952,-0.15596,0.154264,135
0.397133,-0.156061,0.155198,134
0.396706,-0.155829,0.155876,127
0.396021,-0.155456,0.156443,128
0.395812,-0.155344,0.157212,131
0.395561,-0.155208,0.157962,131
0.394408,-0.154578,0.158322,133
0.394244,-0.154491,0.159108,143
0.394123,-0.154427,0.159912,137
0.393789,-0.154246,0.160623,143
0.393455,-0.154065,0.161333,133
0.393549,-0.154119,0.162232,130
0.394072,-0.154408,0.163325,122
0.393012,-0.153829,0.163709,124
0.393192,-0.15393,0.16465,120
0.393159,-0.153914,0.165495,117
0.392998,-0.153828,0.166283,118
0.393136,-0.153906,0.167207,118
0.393917,-0.154336,0.16843,112
0.393071,-0.153875,0.168904,117
0.393811,-0.154282,0.170112,109
0.39365,-0.154197,0.170903,115
0.393147,-0.153923,0.171534,110
0.393202,-0.153955,0.172427,117
0.393729,-0.154246,0.173545,116
0.393612,-0.154185,0.174359,108
0.39281,-0.153747,0.174845,105
0.393208,-0.153968,0.175906,107
0.393996,-0.154402,0.177158,100
0.394614,-0.154743,0.178333,106
0.393937,-0.154374,0.178878,98
0.393606,-0.154195,0.179592,96
0.393965,-0.154394,0.180644,96
0.393678,-0.154239,0.181379,106
0.393564,-0.154178,0.1822,92
0.393665,-0.154236,0.183129,96
0.393551,-0.154176,0.183951,100
0.393523,-0.154163,0.184817,100
0.393798,-0.154316,0.185837,148
0.394421,-0.154659,0.187037,96
0.39409,-0.154481,0.187752,97
0.393545,-0.154184,0.188356,93
0.39205,-0.148652,-0.198207,16
0.285726,-0.091722,-0.140477,10
0.259284,-0.0775639,-0.125895,8
0.3929,-0.149114,-0.196019,11
0.388962,-0.147007,-0.193052,16
0.385811,-0.145322,-0.190521,12
0.38686,-0.145886,-0.19021,10
0.394806,-0.150144,-0.193499,12
0.396648,-0.151132,-0.193576,12
0.391909,-0.148597,-0.190237,8
0.395235,-0.15038,-0.191079,11
0.386896,-0.145916,-0.18592,14
0.39157,-0.148422,-0.187448,13
0.3915,-0.148386,-0.186543,10
0.335804,-0.118562,-0.157543,11
0.388917,-0.147008,-0.183507,12
0.393423,-0.149423,-0.184905,12
0.391647,-0.148474,-0.183148,13
0.392599,-0.148986,-0.182756,16
0.393085,-0.149249,-0.182129,18
0.393872,-0.149673,-0.18165,18
0.390277,-0.147749,-0.179021,19
0.392282,-0.148825,-0.17914,13
0.392725,-0.149065,-0.178492,17
0.395144,-0.150362,-0.178796,22
0.393571,-0.149522,-0.177173,16
0.394317,-0.149924,-0.176666,21
0.392455,-0.148929,-0.174917,16
0.39699,-0.15136,-0.176204,20
0.39296,-0.149204,-0.173437,19
0.394175,-0.149857,-0.173148,18
0.395829,-0.150745,-0.173058,21
0.39628,-0.150989,-0.172404,18
0.394018,-0.149779,-0.170496,17
0.392292,-0.148857,-0.168845,20
0.397683,-0.151747,-0.170456,21
0.395881,-0.150784,-0.168772,21
0.396766,-0.15126,-0.168312,20
0.39592,-0.150809,-0.16707,21
0.396286,-0.151008,-0.166376,23
0.393732,-0.149642,-0.16438,25
0.395079,-0.150365,-0.164124,27
0.396305,-0.151024,-0.163811,28
0.395508,-0.150599,-0.162605,29
0.394843,-0.150246,-0.161461,35
0.39568,-0.150696,-0.160973,28
0.396435,-0.151103,-0.160446,28
0.396759,-0.151279,-0.159732,29
0.397171,-0.151501,-0.159055,28
0.398977,-0.152471,-0.158968,29
0.398302,-0.152112,-0.157826,30
0.395774,-0.15076,-0.155909,35
0.396357,-0.151074,-0.155304,29
0.396769,-0.151297,-0.154626,31
0.3987,-0.152334,-0.154576,31
0.397508,-0.151697,-0.153233,33
0.399578,-0.152809,-0.15323,36
0.398338,-0.152146,-0.151872,38
0.399103,-0.152558,-0.151332,43
0.398562,-0.152271,-0.150263,35
0.397331,-0.151613,-0.148922,39
0.399005,-0.152512,-0.148742,40
0.397383,-0.151645,-0.147253,40
0.398492,-0.152242,-0.146844,42
0.401273,-0.153734,-0.147086,40
0.400465,-0.153303,-0.14592,34
0.398356,-0.152175,-0.144256,44
0.397561,-0.151752,-0.143108,40
0.399977,-0.153049,-0.143189,43
0.399177,-0.152622,-0.14204,41
0.401349,-0.153788,-0.142016,36
0.39815,-0.152076,-0.139969,37
0.398265,-0.15214,-0.139172,41
0.400645,-0.153417,-0.139214,42
0.398238,-0.152129,-0.137484,40
0.39983,-0.152985,-0.137229,47
0.398644,-0.152351,-0.135957,45
0.399672,-0.152905,-0.135492,39
0.399442,-0.152783,-0.13457,42
0.399343,-0.152732,-0.133697,44
0.399331,-0.152728,-0.132855,45
0.400014,-0.153096,-0.13226,45
0.40009,-0.153139,-0.13145,52
0.400908,-0.15358,-0.130898,54
0.398982,-0.15255,-0.129394,54
0.400493,-0.153361,-0.12908,53
0.400177,-0.153194,-0.128137,52
0.400603,-0.153425,-0.127447,52
0.399463,-0.152816,-0.126228,59
0.400889,-0.153582,-0.125874,59
0.399661,-0.152926,-0.124632,57
0.4,-0.15311,-0.123913,60
0.399298,-0.152736,-0.122852,56
0.399593,-0.152896,-0.12212,60
0.399846,-0.153034,-0.121373,67
0.399709,-0.152962,-0.120501,56
0.39901,-0.15259,-0.11945,55
0.399999,-0.153122,-0.118938,54
0.399819,-0.153028,-0.118055,62
0.399944,-0.153097,-0.117267,67
0.399895,-0.153073,-0.116426,63
0.399587,-0.15291,-0.115507,69
0.400753,-0.153537,-0.11504,61
0.399708,-0.152979,-0.113896,58
0.399531,-0.152886,-0.11302,63
0.399268,-0.152747,-0.11212,68
0.399826,-0.153049,-0.111465,72
0.398703,-0.152449,-0.110312,68
0.400037,-0.153166,-0.109884,70
0.398141,-0.152152,-0.108513,66
0.39767,-0.151901,-0.107561,66
0.397797,-0.151971,-0.106783,66
0.397412,-0.151767,-0.105859,68
0.39652,-0.151291,-0.104795,72
0.396012,-0.151021,-0.103843,70
0.395886,-0.150955,-0.102999,72
0.394877,-0.150416,-0.101914,76
0.394376,-0.150149,-0.100972,75
0.394378,-0.150153,-0.100169,77
0.393254,-0.149552,-0.0990641,74
0.393174,-0.149512,-0.0982428,85
0.392266,-0.149027,-0.0972035,86
0.392767,-0.149297,-0.096538,89
0.391779,-0.14877,-0.095484,89
0.391578,-0.148664,-0.0946374,96
0.392491,-0.149156,-0.0940771,87
0.391754,-0.148762,-0.093095,91
0.391554,-0.148657,-0.0922516,93
0.39152,-0.148641,-0.0914507,96
0.390993,-0.14836,-0.090529,101
0.391246,-0.148498,-0.0898009,105
0.391213,-0.148482,-0.0890027,102
0.391057,-0.1484,-0.0881755,105
0.390901,-0.148319,-0.0873497,109
0.391279,-0.148524,-0.0866509,104
0.391042,-0.148399,-0.0858071,100
0.39101,-0.148384,-0.0850124,105
0.390897,-0.148325,-0.0841997,102
0.390703,-0.148223,-0.0833693,104
0.391163,-0.148472,-0.0826878,102
0.391297,-0.148546,-0.0819318,103
0.391596,-0.148708,-0.0812121,106
0.390911,-0.148343,-0.0802763,116
0.391332,-0.14857,-0.0795836,112
0.39065,-0.148206,-0.0786527,114
0.391194,-0.1485,-0.0779857,110
0.39088,-0.148334,-0.0771364,114
0.391057,-0.148431,-0.076391,117
0.391398,-0.148616,-0.075679,118
0.391248,-0.148538,-0.074866,115
0.391345,-0.148591,-0.0741037,118
0.391319,-0.148579,-0.0733169,125
0.39113,-0.14848,-0.0724984,121
0.390697,-0.14825,-0.0716335,120
0.391121,-0.148479,-0.0709364,117
0.391138,-0.14849,-0.07016,122
0.391277,-0.148567,-0.0694071,123
0.391458,-0.148666,-0.0686617,124
0.391272,-0.148568,-0.0678481,121
0.391904,-0.148909,-0.067185,121
0.391145,-0.148504,-0.0662688,127
0.391859,-0.148889,-0.0656186,122
0.39102,-0.148441,-0.0646924,126
0.391612,-0.14876,-0.0640188,128
0.392246,-0.149103,-0.0633504,129
0.391775,-0.148852,-0.0624921,123
0.39151,-0.148712,-0.0616707,126
0.391449,-0.148681,-0.0608846,123
0.391348,-0.148629,-0.0600925,128
0.391779,-0.148862,-0.0593867,125
0.391883,-0.14892,-0.0586276,133
0.391906,-0.148934,-0.0578556,132
0.392832,-0.149433,-0.0572235,140
0.392732,-0.149381,-0.0564313,132
0.393086,-0.149573,-0.055708,136
0.392945,-0.1495,-0.0549103,136
0.392806,-0.149427,-0.0541136,141
0.392913,-0.149487,-0.0533534,139
0.393021,-0.149546,-0.052593,141
0.392924,-0.149496,-0.0518038,142
0.39291,-0.14949,-0.0510267,139
0.392731,-0.149397,-0.0502277,137
0.39317,-0.149634,-0.0495121,141
0.393362,-0.149739,-0.0487626,141
0.393638,-0.149889,-0.0480232,139
0.393254,-0.149685,-0.0471992,142
0.393696,-0.149924,-0.0464802,142
0.393601,-0.149875,-0.0456937,135
0.394292,-0.150248,-0.0450028,140
0.394612,-0.150422,-0.0442652,144
0.394395,-0.150307,-0.0434637,143
0.39426,-0.150237,-0.0426729,139
0.394458,-0.150345,-0.0419202,144
0.394946,-0.150609,-0.041199,141
0.394978,-0.150628,-0.0404266,142
0.395011,-0.150648,-0.0396544,145
0.394796,-0.150534,-0.0388564,148
0.39483,-0.150554,-0.0380849,148
0.39503,-0.150664,-0.0373301,152
0.396106,-0.151243,-0.0366602,148
0.395516,-0.150928,-0.0358268,150
0.395801,-0.151084,-0.0350778,147
0.395837,-0.151105,-0.0343051,149
0.39671,-0.151575,-0.033607,153
0.396496,-0.151462,-0.0328108,154
0.396408,-0.151417,-0.0320264,151
0.396822,-0.151641,-0.0312842,153
0.396651,-0.151552,-0.030493,156
0.396774,-0.151619,-0.0297259,160
0.396855,-0.151665,-0.0289553,160
0.397273,-0.151891,-0.0282095,161
0.397103,-0.151802,-0.0274196,155
0.397228,-0.151871,-0.0266512,162
0.397395,-0.151963,-0.0258854,156
0.397731,-0.152145,-0.0251302,158
0.397647,-0.152102,-0.0243467,165
0.39921,-0.152943,-0.0236659,170
0.39748,-0.152016,-0.0227815,168
0.398155,-0.152381,-0.0220433,166
0.3974,-0.151977,-0.0212228,158
0.397318,-0.151935,-0.0204417,162
0.397027,-0.151781,-0.0196503,163
0.397955,-0.152281,-0.0189203,167
0.397202,-0.151879,-0.0181072,163
0.397542,-0.152064,-0.0173466,168
0.398896,-0.152792,-0.0166284,163
0.398732,-0.152706,-0.0158423,163
0.398696,-0.152689,-0.015062,164
0.398617,-0.152649,-0.0142804,162
0.398581,-0.152631,-0.0135007,165
0.398842,-0.152773,-0.0127308,162
0.398765,-0.152734,-0.0119496,169
0.39873,-0.152717,-0.01117,165
0.398696,-0.152701,-0.0103907,165
0.398494,-0.152594,-0.00960739,168
0.398124,-0.152398,-0.0088213,168
0.398893,-0.152813,-0.00805961,168
0.398692,-0.152707,-0.00727733,173
0.398914,-0.152828,-0.00650263,170
0.398841,-0.15279,-0.00572296,171
0.398725,-0.152731,-0.00494315,173
0.399076,-0.152921,-0.00416826,171
0.398919,-0.152839,-0.00338815,175
0.398678,-0.152711,-0.00260826,175
0.398819,-0.152789,-0.00183061,175
0.398748,-0.152753,-0.00105214,174
0.398466,-0.152604,-0.000274159,172
0.39827,-0.1525,0.000502911,171
0.398075,-0.152397,0.00127918,167
0.398048,-0.152385,0.00205587,173
0.398402,-0.152577,0.00283604,169
0.397955,-0.152339,0.00360853,168
0.398478,-0.152621,0.00439235,167
0.397568,-0.152135,0.00515596,171
0.397923,-0.152328,0.00593825,167
0.398068,-0.152407,0.0067179,171
0.398086,-0.152419,0.00749545,177
0.398401,-0.15259,0.00828024,173
0.397201,-0.151948,0.0090268,179
0.397515,-0.152118,0.00981117,176
0.397998,-0.15238,0.0106021,171
0.397935,-0.152348,0.0113773,173
0.396739,-0.151708,0.0121133,177
0.396761,-0.151722,0.0128889,177
0.396199,-0.151422,0.0136421,176
0.396305,-0.151481,0.0144203,177
0.396036,-0.151338,0.0151829,184
0.395726,-0.151174,0.0159427,170
0.39521,-0.150899,0.0166916,174
0.395483,-0.151048,0.0174772,177
0.395675,-0.151152,0.0182599,180
0.395451,-0.151034,0.0190214,181
0.395393,-0.151005,0.0197912,180
0.395253,-0.150932,0.0205562,183
0.39375,-0.150126,0.0212393,177
0.394768,-0.150675,0.0220722,178
0.393104,-0.149784,0.022738,180
0.39305,-0.149757,0.0235032,181
0.393324,-0.149906,0.0242907,182
0.392942,-0.149703,0.0250334,180
0.392602,-0.149522,0.0257778,180
0.392426,-0.14943,0.0265331,178
0.3903,-0.14829,0.0271385,177
0.39037,-0.148329,0.0279079,179
0.389956,-0.148109,0.0286386,171
0.389784,-0.148019,0.0293879,166
0.389492,-0.147864,0.0301264,167
0.389846,-0.148056,0.03092,168
0.389958,-0.148118,0.0316938,169
0.389063,-0.147639,0.0323764,167
0.38978,-0.148026,0.0332059,167
0.38949,-0.147872,0.0339425,168
0.389846,-0.148065,0.0347411,165
0.389758,-0.14802,0.0354972,167
0.389832,-0.148062,0.0362696,168
0.389705,-0.147996,0.0370217,168
0.390103,-0.148212,0.0378291,165
0.390139,-0.148232,0.0385992,172
0.390377,-0.148362,0.039392,170
0.390251,-0.148297,0.0401452,170
0.390247,-0.148297,0.0409121,170
0.38996,-0.148145,0.0416462,170
0.39016,-0.148253,0.042437,168
0.390157,-0.148254,0.0432046,168
0.38967,-0.147994,0.0439128,163
0.389991,-0.148169,0.0447203,166
0.390111,-0.148235,0.0455039,169
0.390272,-0.148324,0.0462935,171
0.390555,-0.148478,0.0471002,164
0.391043,-0.148742,0.0479357,164
0.391777,-0.149138,0.048807,162
0.392064,-0.149294,0.0496201,163
0.391493,-0.14899,0.0503146,165
0.392067,-0.1493,0.0511696,165
0.392028,-0.149281,0.0519391,159
0.392195,-0.149372,0.0527387,162
0.392403,-0.149486,0.0535455,165
0.392406,-0.14949,0.0543226,163
0.392739,-0.149671,0.0551504,163
0.392455,-0.14952,0.0558846,165
0.392542,-0.149569,0.056676,161
0.392301,-0.149441,0.0574159,162
0.392019,-0.149292,0.0581486,160
0.392271,-0.149429,0.0589676,160
0.3924,-0.149501,0.0597678,162
0.39286,-0.14975,0.0606242,160
0.394855,-0.150824,0.0617437,164
0.392916,-0.149784,0.0621956,162
0.392841,-0.149746,0.0629642,160
0.393221,-0.149952,0.0638129,160
0.394515,-0.150649,0.0648266,158
0.394733,-0.150768,0.065652,157
0.393994,-0.150373,0.0663041,159
0.394962,-0.150895,0.0672686,159
0.39514,-0.150993,0.0680901,160
0.395444,-0.151158,0.0689366,163
0.395205,-0.151032,0.0696809,160
0.395301,-0.151085,0.0704894,160
0.395523,-0.151207,0.0713234,164
0.395243,-0.151058,0.0720595,159
0.396053,-0.151496,0.0730127,160
0.397587,-0.152322,0.0741158,161
0.396756,-0.151877,0.0747433,159
0.397702,-0.152388,0.0757343,155
0.397803,-0.152444,0.0765536,155
0.397691,-0.152386,0.0773291,157
0.398176,-0.152648,0.0782312,157
0.398108,-0.152614,0.0790173,154
0.397318,-0.152192,0.0796469,151
0.397973,-0.152546,0.0805901,155
0.397991,-0.152558,0.0813957,152
0.398052,-0.152593,0.0822115,154
0.398797,-0.152995,0.0831822,155
0.39976,-0.153514,0.0842064,154
0.400168,-0.153736,0.0851076,151
0.400448,-0.153888,0.0859813,153
0.400469,-0.153902,0.0867961,149
0.400405,-0.153869,0.0875912,148
0.401033,-0.154209,0.0885518,150
0.400666,-0.154014,0.0892761,149
0.400949,-0.154168,0.0901571,149
0.401017,-0.154206,0.090987,146
0.401345,-0.154385,0.0918822,148
0.401935,-0.154704,0.0928449,151
0.401525,-0.154486,0.0935587,146
0.40203,-0.154759,0.0945037,149
0.403326,-0.155458,0.095654,148
0.402564,-0.15505,0.0962788,146
0.40281,-0.155185,0.0971635,146
0.403585,-0.155603,0.0981888,147
0.403701,-0.155668,0.0990435,147
0.403995,-0.155828,0.0999467,148
0.404024,-0.155846,0.100781,149
0.404054,-0.155864,0.101615,148
0.403996,-0.155835,0.102426,146
0.404027,-0.155854,0.103263,149
0.404634,-0.156182,0.104259,145
0.405021,-0.156392,0.105198,145
0.406571,-0.157228,0.106468,151
0.405041,-0.156407,0.106868,145
0.407087,-0.157509,0.108287,151
0.406987,-0.157458,0.109096,142
0.405856,-0.156852,0.109605,137
0.406383,-0.157137,0.110596,147
0.406643,-0.157279,0.111511,139
0.406678,-0.1573,0.112361,140
0.405863,-0.156864,0.112956,141
0.406482,-0.157199,0.113982,144
0.406698,-0.157318,0.114889,147
0.406287,-0.157098,0.115605,148
0.406864,-0.157411,0.116625,146
0.406767,-0.157361,0.117438,146
0.406446,-0.157191,0.118182,148
0.40671,-0.157335,0.119109,152
0.407065,-0.157528,0.120067,152
0.406384,-0.157164,0.120696,148
0.406875,-0.15743,0.121699,147
0.406735,-0.157357,0.122502,148
0.405562,-0.156728,0.122966,152
0.405827,-0.156873,0.123899,151
0.405644,-0.156777,0.124686,147
0.405731,-0.156826,0.125562,143
0.405818,-0.156875,0.126439,148
0.405905,-0.156924,0.127318,146
0.405724,-0.156828,0.128106,146
0.405363,-0.156636,0.128833,144
0.405361,-0.156638,0.129682,148
0.40563,-0.156784,0.130626,150
0.404822,-0.156352,0.131196,142
0.405045,-0.156474,0.132126,141
0.404955,-0.156428,0.132946,142
0.404508,-0.15619,0.13364,145
0.404911,-0.156409,0.134636,142
0.404957,-0.156436,0.135507,147
0.405093,-0.156511,0.136411,147
0.405095,-0.156514,0.137267,149
0.405007,-0.156469,0.138092,154
0.40465,-0.156279,0.138817,148
0.404697,-0.156307,0.139691,152
0.404252,-0.15607,0.140383,155
0.403763,-0.155809,0.141056,158
0.403588,-0.155717,0.141847,157
0.403458,-0.155649,0.142655,158
0.403016,-0.155414,0.143344,155
0.403109,-0.155466,0.144237,153
0.402446,-0.155112,0.144839,149
0.402051,-0.154901,0.145543,147
0.402589,-0.155193,0.146611,149
0.401529,-0.154625,0.147053,154
0.401225,-0.154464,0.14779,144
0.401098,-0.154397,0.148598,142
0.401059,-0.154379,0.149441,143
0.400624,-0.154147,0.150124,134
0.40041,-0.154034,0.150896,138
0.400152,-0.153897,0.15165,137
0.400291,-0.153974,0.152567,140
0.399594,-0.153602,0.15314,137
0.398812,-0.153184,0.153675,134
0.398732,-0.153142,0.1545,130
0.398739,-0.153149,0.155363,124
0.39783,-0.152662,0.155839,121
0.397316,-0.152388,0.15648,131
0.396803,-0.152114,0.15712,126
0.396162,-0.151771,0.157703,129
0.395911,-0.151638,0.158452,131
0.395488,-0.151413,0.159126,141
0.395238,-0.151281,0.159875,135
0.395634,-0.151496,0.160905,134
0.395341,-0.15134,0.161635,130
0.395049,-0.151185,0.162365,125
0.394499,-0.150892,0.162981,126
0.394037,-0.150645,0.163633,122
0.394046,-0.150653,0.164496,126
0.394742,-0.151029,0.165669,120
0.395312,-0.151338,0.16679,110
0.394934,-0.151137,0.167482,109
0.394601,-0.15096,0.168193,110
0.394225,-0.15076,0.168884,111
0.395269,-0.151324,0.170232,109
0.395108,-0.151239,0.171024,112
0.394473,-0.1509,0.171595,113
0.394012,-0.150654,0.172245,115
0.394885,-0.151126,0.173524,112
0.395546,-0.151484,0.174708,108
0.394781,-0.151074,0.175215,99
0.395096,-0.151246,0.176237,100
0.39498,-0.151186,0.177054,101
0.394907,-0.151149,0.177892,102
0.395441,-0.151438,0.179026,104
0.395585,-0.151518,0.179973,101
0.395166,-0.151295,0.180644,97
0.394704,-0.151049,0.181294,95
0.394935,-0.151176,0.182286,96
0.395124,-0.151279,0.183258,96
0.39449,-0.15094,0.18382,91
0.394808,-0.151114,0.18486,87
0.394738,-0.151078,0.185705,138
0.394191,-0.150786,0.186309,92
0.39464,-0.15103,0.18742,95
0.394051,-0.150715,0.188001,97
0.392133,-0.145005,-0.197631,12
0.389137,-0.143433,-0.195151,9
0.387978,-0.142826,-0.193664,13
0.392214,-0.145054,-0.195041,12
0.392783,-0.145355,-0.194465,14
0.393053,-0.145499,-0.193731,15
0.393452,-0.145711,-0.193063,12
0.396758,-0.147451,-0.193908,9
0.388275,-0.142995,-0.188629,12
0.395348,-0.146714,-0.191415,13
0.391502,-0.144696,-0.188562,9
0.390713,-0.144283,-0.187291,18
0.392169,-0.145051,-0.187166,17
0.39523,-0.146661,-0.187848,11
0.389582,-0.143695,-0.184127,9
0.39341,-0.145709,-0.185187,21
0.390876,-0.14438,-0.183054,18
0.391569,-0.144746,-0.182536,13
0.39522,-0.146667,-0.183479,13
0.393602,-0.145819,-0.181813,17
0.393021,-0.145516,-0.180663,16
0.392442,-0.145214,-0.179517,17
0.391696,-0.144824,-0.178294,19
0.39201,-0.144991,-0.177587,21
0.392198,-0.145092,-0.176819,15
0.393193,-0.145617,-0.176436,19
0.3916,-0.144782,-0.174819,22
0.391408,-0.144683,-0.173872,24
0.394101,-0.146101,-0.174288,21
0.391657,-0.144819,-0.172282,16
0.393328,-0.145699,-0.172209,19
0.393433,-0.145756,-0.171402,17
0.392349,-0.145189,-0.170046,23
0.394197,-0.146162,-0.170043,23
0.391967,-0.144992,-0.168167,24
0.392409,-0.145227,-0.167519,20
0.395585,-0.146898,-0.168107,19
0.393936,-0.146034,-0.166507,24
0.392641,-0.145356,-0.165075,31
0.394063,-0.146105,-0.164861,26
0.395581,-0.146905,-0.164684,20
0.39466,-0.146423,-0.163424,26
0.395281,-0.146752,-0.162846,27
0.394618,-0.146406,-0.161705,28
0.394002,-0.146084,-0.160588,28
0.396119,-0.147199,-0.160657,30
0.394132,-0.146157,-0.158952,29
0.394368,-0.146283,-0.158207,30
0.395715,-0.146993,-0.157934,35
0.393947,-0.146066,-0.156339,27
0.395035,-0.14664,-0.155953,32
0.397594,-0.147987,-0.15618,32
0.397921,-0.148161,-0.155466,28
0.396306,-0.147314,-0.153948,34
0.397623,-0.148009,-0.153644,35
0.397043,-0.147706,-0.152559,35
0.397111,-0.147744,-0.151741,39
0.398346,-0.148396,-0.151396,36
0.397118,-0.147752,-0.150055,34
0.396242,-0.147294,-0.14886,34
0.399118,-0.148808,-0.149164,34
0.398709,-0.148595,-0.148156,33
0.396793,-0.14759,-0.146557,35
0.397207,-0.147809,-0.145878,38
0.397578,-0.148007,-0.145183,38
0.397433,-0.147933,-0.144286,37
0.398021,-0.148244,-0.143673,35
0.397661,-0.148057,-0.142695,39
0.397302,-0.14787,-0.14172,44
0.397459,-0.147955,-0.140942,35
0.39835,-0.148426,-0.14044,39
0.399202,-0.148875,-0.13992,38
0.399187,-0.14887,-0.139075,45
0.397662,-0.14807,-0.137674,35
0.39942,-0.148997,-0.137484,37
0.398973,-0.148764,-0.136484,43
0.400089,-0.149353,-0.136052,45
0.398775,-0.148664,-0.134741,48
0.398202,-0.148365,-0.133701,45
0.399573,-0.149088,-0.133357,51
0.400213,-0.149427,-0.132748,52
0.400593,-0.149629,-0.132046,49
0.399193,-0.148894,-0.130721,50
0.399658,-0.149141,-0.130051,58
0.399344,-0.148978,-0.12911,54
0.400942,-0.14982,-0.128826,55
0.399584,-0.149109,-0.12753,53
0.400616,-0.149654,-0.127049,54
0.399825,-0.14924,-0.125951,60
0.399686,-0.149169,-0.125075,50
0.398814,-0.148712,-0.123958,58
0.39941,-0.149028,-0.123328,62
0.400485,-0.149595,-0.122852,56
0.399871,-0.149274,-0.121824,57
0.399129,-0.148886,-0.120759,61
0.39977,-0.149225,-0.12014,66
0.399504,-0.149088,-0.11923,67
0.398852,-0.148747,-0.1182,60
0.399406,-0.14904,-0.117552,62
0.399401,-0.14904,-0.116728,61
0.398923,-0.14879,-0.115758,67
0.399262,-0.148971,-0.115042,64
0.398613,-0.148632,-0.114024,63
0.398695,-0.148677,-0.11323,64
0.39925,-0.148971,-0.112579,63
0.398775,-0.148723,-0.111618,59
0.397959,-0.148296,-0.11056,64
0.396977,-0.147781,-0.109457,67
0.396933,-0.14776,-0.108632,65
0.397825,-0.148232,-0.108079,62
0.396296,-0.147429,-0.106827,63
0.396888,-0.147743,-0.106187,61
0.395621,-0.147078,-0.105019,68
0.394991,-0.146749,-0.104036,70
0.394197,-0.146333,-0.10301,77
0.393989,-0.146226,-0.102151,75
0.393866,-0.146164,-0.101316,74
0.394328,-0.146408,-0.100641,80
0.393414,-0.14593,-0.099594,81
0.393002,-0.145715,-0.0986856,78
0.39189,-0.145132,-0.0975937,84
0.391278,-0.144812,-0.0966386,86
0.391652,-0.145011,-0.0959441,81
0.391205,-0.144778,-0.0950361,84
0.391006,-0.144675,-0.0941939,92
0.391134,-0.144745,-0.0934366,91
0.391468,-0.144922,-0.0927311,91
0.390411,-0.144368,-0.0916765,96
0.390949,-0.144653,-0.0910226,97
0.391079,-0.144723,-0.0902666,96
0.391004,-0.144686,-0.0894607,95
0.390563,-0.144456,-0.0885669,93
0.390123,-0.144227,-0.0876759,105
0.390702,-0.144533,-0.087029,101
0.391365,-0.144884,-0.0863998,101
0.39068,-0.144525,-0.0854541,103
0.390812,-0.144597,-0.0847005,107
0.3907,-0.14454,-0.0838908,106
0.390588,-0.144483,-0.0830823,103
0.390721,-0.144555,-0.0823295,105
0.390528,-0.144456,-0.0815043,104
0.390621,-0.144507,-0.0807432,103
0.390511,-0.144451,-0.0799379,106
0.39138,-0.14491,-0.0793447,107
0.391066,-0.144746,-0.0784955,115
0.39116,-0.144798,-0.0777345,119
0.390847,-0.144636,-0.0768882,121
0.39078,-0.144602,-0.0760944,113
0.39112,-0.144783,-0.075385,113
0.390849,-0.144642,-0.0745506,121
0.39119,-0.144824,-0.0738406,124
0.391124,-0.144791,-0.0730486,123
0.391139,-0.144801,-0.0722733,118
0.391196,-0.144833,-0.0715064,122
0.391294,-0.144886,-0.0707476,123
0.391351,-0.144919,-0.0699811,117
0.391409,-0.144951,-0.0692147,124
0.391305,-0.144898,-0.0684182,119
0.391812,-0.145167,-0.0677352,121
0.391667,-0.145093,-0.0669317,121
0.391482,-0.144997,-0.066122,123
0.391501,-0.145009,-0.0653497,123
0.391724,-0.145129,-0.0646135,127
0.391989,-0.14527,-0.0638839,129
0.391724,-0.145132,-0.0630628,131
0.391826,-0.145188,-0.0623053,123
0.391724,-0.145137,-0.0615137,133
0.392113,-0.145344,-0.0608036,125
0.392463,-0.145529,-0.0600858,131
0.392076,-0.145328,-0.0592487,129
0.392713,-0.145665,-0.0585756,132
0.392326,-0.145463,-0.0577403,128
0.392554,-0.145585,-0.0570017,129
0.392619,-0.145621,-0.0562376,133
0.393382,-0.146025,-0.0555782,137
0.393571,-0.146127,-0.0548311,135
0.393185,-0.145925,-0.0539996,139
0.393663,-0.146179,-0.0532941,143
0.393483,-0.146086,-0.0524939,144
0.39355,-0.146124,-0.0517291,140
0.393783,-0.146248,-0.0509871,147
0.393975,-0.146351,-0.0502388,145
0.393755,-0.146237,-0.0494352,144
0.393454,-0.146081,-0.0486222,141
0.393729,-0.146228,-0.0478849,147
0.39417,-0.146462,-0.0471678,146
0.395068,-0.146936,-0.046506,147
0.395721,-0.147282,-0.0458106,149
0.394135,-0.146449,-0.0448432,148
0.394827,-0.146815,-0.0441522,148
0.394279,-0.146529,-0.0433144,147
0.394393,-0.146591,-0.0425547,147
0.394012,-0.146392,-0.0417394,146
0.394953,-0.14689,-0.0410711,139
0.39482,-0.146822,-0.0402833,152
0.395434,-0.147147,-0.0395752,143
0.395633,-0.147254,-0.0388219,145
0.395501,-0.147186,-0.0380343,149
0.395452,-0.147162,-0.0372557,149
0.395986,-0.147445,-0.0365342,152
0.395897,-0.1474,-0.0357513,152
0.396057,-0.147487,-0.0349923,153
0.39601,-0.147464,-0.0342139,156
0.397426,-0.148211,-0.033566,155
0.397463,-0.148233,-0.0327926,157
0.396956,-0.147968,-0.0319731,154
0.396368,-0.14766,-0.0311492,153
0.397493,-0.148255,-0.030466,151
0.397365,-0.148189,-0.0296798,152
0.397656,-0.148344,-0.0289264,161
0.397906,-0.148478,-0.0281688,163
0.397946,-0.148501,-0.0273953,160
0.397819,-0.148436,-0.0266099,160
0.397944,-0.148504,-0.0258424,157
0.397902,-0.148484,-0.0250635,163
0.397902,-0.148486,-0.0242876,164
0.397945,-0.14851,-0.0235145,163
0.398114,-0.148602,-0.0227488,168
0.397906,-0.148494,-0.0219608,164
0.397656,-0.148364,-0.0211715,161
0.398078,-0.148588,-0.0204193,165
0.397913,-0.148503,-0.0196352,158
0.398253,-0.148684,-0.0188768,160
0.39792,-0.148511,-0.0180854,157
0.398303,-0.148715,-0.0173276,161
0.398308,-0.148719,-0.0165522,159
0.398271,-0.148702,-0.0157751,154
0.398613,-0.148884,-0.0150129,157
0.398072,-0.148601,-0.014217,164
0.398837,-0.149006,-0.0134685,165
0.398296,-0.148723,-0.0126746,161
0.39864,-0.148906,-0.0119098,162
0.398437,-0.148801,-0.0111282,166
0.398867,-0.14903,-0.0103641,163
0.399341,-0.149281,-0.00959923,166
0.398548,-0.148866,-0.00880458,166
0.3986,-0.148895,-0.00803011,169
0.399117,-0.149169,-0.00726375,168
0.399508,-0.149377,-0.00649328,172
0.399519,-0.149385,-0.00571602,171
0.39818,-0.148682,-0.00492313,175
0.399289,-0.149268,-0.00415902,169
0.399006,-0.14912,-0.00338002,168
0.398765,-0.148996,-0.00260244,171
0.398947,-0.149094,-0.00182722,174
0.398497,-0.148859,-0.00105054,166
0.399187,-0.149224,-0.000274613,173
0.397685,-0.148435,0.000497489,171
0.39791,-0.148555,0.00127223,169
0.397548,-0.148367,0.00204368,173
0.398194,-0.148709,0.00282304,174
0.397539,-0.148366,0.00359027,168
0.398438,-0.148842,0.0043758,170
0.39854,-0.148897,0.00515268,170
0.398053,-0.148642,0.00591961,164
0.398492,-0.148876,0.00670287,171
0.398343,-0.148799,0.00747515,168
0.397019,-0.148104,0.00821875,165
0.397751,-0.148491,0.00901038,174
0.397143,-0.148173,0.00976745,176
0.397624,-0.148428,0.010555,178
0.397477,-0.148353,0.0113243,176
0.396997,-0.148102,0.0120816,176
0.39706,-0.148137,0.0128568,177
0.396832,-0.148019,0.0136211,170
0.396437,-0.147813,0.0143778,174
0.396377,-0.147783,0.0151472,174
0.395735,-0.147447,0.0158904,172
0.396175,-0.14768,0.0166818,171
0.395285,-0.147214,0.01741,176
0.395269,-0.147207,0.0181791,174
0.396249,-0.147726,0.0190014,180
0.396275,-0.147741,0.0197751,179
0.394312,-0.146709,0.0204349,184
0.394297,-0.146703,0.0212025,180
0.394324,-0.146719,0.0219727,186
0.393857,-0.146475,0.0227118,183
0.394008,-0.146556,0.0234896,180
0.393543,-0.146313,0.0242265,178
0.391529,-0.145254,0.0248533,177
0.39172,-0.145357,0.0256305,180
0.391181,-0.145074,0.0263546,176
0.39121,-0.145092,0.02712,177
0.391401,-0.145195,0.0278983,170
0.390904,-0.144935,0.0286223,171
0.390692,-0.144825,0.0293678,170
0.390723,-0.144843,0.0301332,169
0.390471,-0.144712,0.0308744,168
0.390341,-0.144645,0.0316256,170
0.390736,-0.144856,0.0324242,175
0.391133,-0.145067,0.0332248,177
0.390761,-0.144873,0.033954,168
0.390511,-0.144743,0.0346939,170
0.39103,-0.145019,0.0355093,163
0.391024,-0.145017,0.0362737,167
0.390653,-0.144824,0.0370007,169
0.39089,-0.144951,0.0377906,169
0.390966,-0.144993,0.0385642,172
0.390637,-0.144821,0.039294,167
0.390876,-0.144949,0.0400862,166
0.390872,-0.144949,0.0408519,171
0.39099,-0.145013,0.0416321,167
0.390947,-0.144992,0.0423938,165
0.391187,-0.145121,0.0431899,167
0.391348,-0.145207,0.0439774,170
0.391264,-0.145166,0.0447355,169
0.392364,-0.145747,0.0456433,166
0.391221,-0.145147,0.0462674,168
0.391018,-0.145041,0.0470097,168
0.391709,-0.145408,0.0478705,165
0.392813,-0.145992,0.0487904,170
0.391547,-0.145326,0.0493898,169
0.391466,-0.145286,0.0501495,171
0.391753,-0.145439,0.0509611,167
0.392286,-0.145722,0.0518095,162
0.393109,-0.146157,0.0527027,161
0.393194,-0.146204,0.0534907,163
0.39365,-0.146447,0.054335,166
0.393283,-0.146255,0.0550564,163
0.393535,-0.14639,0.0558719,163
0.393498,-0.146373,0.0566438,164
0.393503,-0.146377,0.0574224,164
0.39285,-0.146035,0.0580958,166
0.393886,-0.146583,0.0590415,171
0.39381,-0.146545,0.0598086,165
0.393817,-0.14655,0.0605897,163
0.394238,-0.146774,0.0614411,170
0.394246,-0.14678,0.0622239,162
0.394254,-0.146787,0.0630073,161
0.394304,-0.146815,0.0637983,159
0.39423,-0.146778,0.064568,159
0.39482,-0.147091,0.0654571,161
0.395413,-0.147406,0.0663496,159
0.395842,-0.147634,0.0672147,165
0.395602,-0.147509,0.0679576,159
0.396199,-0.147826,0.0688576,166
0.396968,-0.148234,0.069793,164
0.396812,-0.148153,0.0705542,164
0.396614,-0.148051,0.071307,166
0.396838,-0.148171,0.0721423,164
0.396893,-0.148203,0.0729455,162
0.396823,-0.148168,0.0737241,162
0.396964,-0.148244,0.0745458,160
0.397063,-0.148298,0.0753599,159
0.398179,-0.148889,0.0763858,158
0.398706,-0.149168,0.0772934,158
0.397745,-0.148664,0.0778887,157
0.398952,-0.149302,0.0789442,156
0.399013,-0.149336,0.0797574,154
0.398349,-0.148988,0.0804133,153
0.398665,-0.149157,0.0812828,150
0.399281,-0.149484,0.082221,150
0.399858,-0.14979,0.0831533,154
0.401126,-0.150461,0.0842456,154
0.400457,-0.15011,0.0849,152
0.401082,-0.150442,0.0858512,157
0.401883,-0.150866,0.0868468,154
0.401775,-0.150811,0.0876321,156
0.402014,-0.15094,0.0885002,153
0.402081,-0.150977,0.0893282,155
0.402191,-0.151037,0.0901677,149
0.402215,-0.151052,0.090987,150
0.402283,-0.15109,0.0918178,147
0.402613,-0.151266,0.0927145,147
0.402945,-0.151443,0.0936135,148
0.402795,-0.151366,0.094393,150
0.404446,-0.152239,0.0956315,149
0.404827,-0.152442,0.0965509,149
0.40459,-0.152319,0.0973122,149
0.404485,-0.152266,0.0981078,146
0.404956,-0.152516,0.0990552,146
0.405029,-0.152557,0.0998995,148
0.405103,-0.152598,0.100745,149
0.405222,-0.152663,0.101603,145
0.405296,-0.152704,0.102451,148
0.405505,-0.152816,0.103336,147
0.405625,-0.152882,0.104198,142
0.406728,-0.153466,0.105335,142
0.407254,-0.153745,0.106316,140
0.407018,-0.153623,0.107083,140
0.406559,-0.153383,0.107787,144
0.407265,-0.153757,0.108824,144
0.407524,-0.153896,0.109736,143
0.407649,-0.153964,0.110609,138
0.407865,-0.15408,0.111511,138
0.407631,-0.153959,0.112281,144
0.408028,-0.154171,0.113239,141
0.407929,-0.154121,0.11405,146
0.407922,-0.154119,0.114889,145
0.407733,-0.154022,0.115674,145
0.407501,-0.153901,0.116444,145
0.407584,-0.153947,0.117312,149
0.406947,-0.153613,0.117957,151
0.408386,-0.154374,0.119251,155
0.40698,-0.153635,0.119652,155
0.406975,-0.153634,0.120494,157
0.40679,-0.153539,0.121279,155
0.40719,-0.153752,0.122253,154
0.408181,-0.154277,0.123422,150
0.407318,-0.153824,0.123988,150
0.407495,-0.153919,0.124894,151
0.407492,-0.15392,0.125742,149
0.40835,-0.154375,0.126878,147
0.408348,-0.154376,0.127729,145
0.407259,-0.153804,0.128213,147
0.407167,-0.153757,0.129033,152
0.407346,-0.153854,0.129946,147
0.406803,-0.15357,0.130611,154
0.406712,-0.153524,0.131431,147
0.406848,-0.153597,0.132331,151
0.406532,-0.153433,0.133073,147
0.406217,-0.153269,0.133815,143
0.406533,-0.153438,0.134781,139
0.406353,-0.153345,0.135571,144
0.40658,-0.153467,0.136509,147
0.406131,-0.153232,0.137202,145
0.405953,-0.153141,0.137993,146
0.406496,-0.15343,0.139049,154
0.405238,-0.152768,0.139442,154
0.405196,-0.152748,0.140282,154
0.404975,-0.152633,0.141056,155
0.405832,-0.153088,0.142237,159
0.404623,-0.152452,0.142638,156
0.40409,-0.152173,0.143293,152
0.404094,-0.152177,0.144151,155
0.40392,-0.152087,0.144942,151
0.404148,-0.15221,0.145889,150
0.404108,-0.152191,0.146733,147
0.402998,-0.151608,0.147158,151
0.403003,-0.151613,0.148018,147
0.402431,-0.151313,0.148651,147
0.402348,-0.151271,0.149476,142
0.40231,-0.151253,0.15032,142
0.40205,-0.151118,0.151075,135
0.401481,-0.15082,0.151704,132
0.401046,-0.150593,0.152386,141
0.400788,-0.150459,0.15314,140
0.400839,-0.150488,0.15402,136
0.400362,-0.150238,0.154683,136
0.39971,-0.149896,0.155271,130
0.39985,-0.149972,0.156189,123
0.399244,-0.149654,0.156794,124
0.398901,-0.149476,0.157508,130
0.397863,-0.14893,0.157925,136
0.397567,-0.148776,0.158657,132
0.397228,-0.148599,0.159369,138
0.396587,-0.148263,0.159949,148
0.396509,-0.148224,0.160773,142
0.396517,-0.148231,0.161635,134
0.395577,-0.147737,0.162081,130
0.3955,-0.147698,0.162904,123
0.396372,-0.14816,0.164151,126
0.395863,-0.147894,0.164785,116
0.396175,-0.148061,0.165786,114
0.395926,-0.147932,0.166536,112
0.396066,-0.148008,0.167462,113
0.395817,-0.147879,0.168213,108
0.395742,-0.147841,0.169042,119
0.396142,-0.148055,0.170092,118
0.395419,-0.147675,0.170623,120
0.395689,-0.14782,0.171615,116
0.395615,-0.147783,0.172447,118
0.395454,-0.1477,0.173239,112
0.395466,-0.147709,0.174113,115
0.395955,-0.147969,0.175215,113
0.395319,-0.147635,0.175782,105
0.39659,-0.148309,0.177263,106
0.396038,-0.14802,0.177871,101
0.395792,-0.147892,0.178626,100
0.39624,-0.148131,0.179719,96
0.39582,-0.147911,0.180389,100
0.397098,-0.148589,0.181894,100
0.396024,-0.148023,0.182243,100
0.395778,-0.147896,0.182999,98
0.395837,-0.147929,0.183907,93
0.395983,-0.148009,0.18486,92
0.396086,-0.148065,0.185793,145
0.396146,-0.148099,0.186705,95
0.395945,-0.147995,0.187486,99
0.396005,-0.148029,0.188401,102
0.393132,-0.141855,-0.197562,14
0.392587,-0.141576,-0.196394,11
0.391281,-0.140905,-0.194826,10
0.391889,-0.141221,-0.194275,15
0.393225,-0.141912,-0.194104,10
0.315159,-0.101676,-0.152512,11
0.395016,-0.142839,-0.193288,14
0.396679,-0.143699,-0.193273,11
0.393238,-0.141927,-0.190617,17
0.396531,-0.143627,-0.191437,9
0.392925,-0.14177,-0.188715,11
0.391664,-0.141123,-0.187204,12
0.395014,-0.142851,-0.188036,15
0.392885,-0.141756,-0.186091,17
0.394613,-0.142649,-0.186092,16
0.393428,-0.142041,-0.18463,19
0.394945,-0.142825,-0.184519,20
0.394402,-0.142547,-0.183382,15
0.392583,-0.141611,-0.181619,14
0.390867,-0.140729,-0.179917,15
0.393895,-0.142292,-0.180537,16
0.389604,-0.140082,-0.177591,15
0.391047,-0.140828,-0.177437,20
0.393137,-0.141908,-0.177587,19
0.394178,-0.142447,-0.177227,22
0.394924,-0.142834,-0.176722,17
0.392513,-0.141593,-0.174718,22
0.390847,-0.140736,-0.173078,19
0.391496,-0.141073,-0.172532,23
0.394313,-0.142528,-0.172997,25
0.391073,-0.140859,-0.170635,19
0.394779,-0.142772,-0.171501,24
0.391576,-0.141123,-0.169171,25
0.395418,-0.143106,-0.170082,22
0.393985,-0.142369,-0.168573,22
0.396189,-0.143508,-0.16872,22
0.393431,-0.142088,-0.166621,24
0.392438,-0.141578,-0.165326,31
0.393347,-0.142049,-0.164886,24
0.393707,-0.142237,-0.164199,19
0.391536,-0.141119,-0.162393,24
0.393116,-0.141936,-0.162245,31
0.393815,-0.142299,-0.161707,30
0.394518,-0.142663,-0.161167,27
0.394966,-0.142897,-0.160515,32
0.396058,-0.143462,-0.160138,30
0.393652,-0.142224,-0.15826,33
0.393253,-0.14202,-0.157248,32
0.39425,-0.142536,-0.15683,33
0.394572,-0.142704,-0.156124,26
0.394723,-0.142784,-0.155345,30
0.394705,-0.142777,-0.154496,30
0.395667,-0.143275,-0.154054,30
0.394372,-0.14261,-0.152679,32
0.394567,-0.142712,-0.15192,30
0.394042,-0.142443,-0.150868,35
0.394576,-0.142721,-0.150248,37
0.393967,-0.142409,-0.149166,37
0.393866,-0.142359,-0.148291,36
0.39799,-0.144488,-0.149101,35
0.396127,-0.14353,-0.14752,38
0.396154,-0.143546,-0.146693,35
0.398372,-0.144692,-0.146726,35
