ply
format ascii 1.0
comment Created by CloudCompare v2.11 alpha (Anoia)
comment Created 2025/12/9 20:41
obj_info Generated by CloudCompare!
element vertex 1385
property float x
property float y
property float z
property float scalar_Scalar_field
end_header
0.424423 -0.0437649 -0.193157 166 
0.424911 -0.0438734 -0.192313 174 
0.425003 -0.0438955 -0.191501 166 
0.424997 -0.0438959 -0.190697 165 
0.424644 -0.0438206 -0.189924 165 
0.424688 -0.0438321 -0.189115 161 
0.425179 -0.0439415 -0.188265 160 
0.424828 -0.0438664 -0.187492 166 
0.424576 -0.0438133 -0.186712 169 
0.426314 -0.0441954 -0.185733 171 
0.426761 -0.0442952 -0.184879 166 
0.42596 -0.0441217 -0.184152 170 
0.426608 -0.0442654 -0.183276 174 
0.428013 -0.0445748 -0.182315 169 
0.425758 -0.0440832 -0.181748 164 
0.426258 -0.0441943 -0.180883 168 
0.42736 -0.0444376 -0.179949 166 
0.428066 -0.044594 -0.179055 172 
0.427817 -0.0445413 -0.17827 166 
0.427668 -0.0445107 -0.177473 167 
0.427672 -0.0445133 -0.176659 164 
0.428432 -0.0446816 -0.175752 166 
0.428335 -0.0446623 -0.174947 159 
0.428744 -0.0447538 -0.174079 169 
0.430121 -0.0450571 -0.173086 167 
0.428858 -0.0447824 -0.17243 172 
0.428561 -0.0447193 -0.171651 168 
0.428517 -0.0447117 -0.170839 171 
0.42893 -0.0448039 -0.169964 166 
0.429802 -0.0449967 -0.169025 169 
0.42976 -0.0449895 -0.168209 166 
0.430075 -0.0450604 -0.167343 173 
0.431005 -0.0452659 -0.166387 169 
0.430863 -0.0452366 -0.165583 164 
0.430925 -0.0452523 -0.164749 164 
0.431296 -0.0453354 -0.163868 161 
0.431206 -0.0453176 -0.163055 162 
0.431836 -0.0454574 -0.162132 162 
0.432262 -0.0455526 -0.161238 160 
0.43171 -0.0454337 -0.160495 162 
0.43255 -0.0456195 -0.159533 160 
0.433083 -0.0457382 -0.158616 162 
0.434085 -0.0459597 -0.157621 162 
0.434415 -0.0460338 -0.156732 163 
0.434746 -0.0461082 -0.155841 164 
0.434921 -0.0461485 -0.154975 162 
0.43494 -0.0461547 -0.154134 162 
0.435221 -0.0462182 -0.153248 162 
0.437505 -0.0467204 -0.152011 157 
0.43605 -0.0464036 -0.151424 162 
0.43665 -0.0465371 -0.150475 166 
0.436778 -0.0465671 -0.14961 166 
0.437224 -0.0466667 -0.148685 166 
0.437671 -0.0467666 -0.147757 164 
0.438599 -0.0469717 -0.146739 159 
0.43905 -0.0470727 -0.145805 160 
0.4402 -0.0473265 -0.144737 159 
0.439905 -0.0472639 -0.143941 156 
0.439825 -0.0472483 -0.143104 157 
0.441413 -0.0475981 -0.14194 160 
0.44155 -0.0476301 -0.141057 157 
0.441309 -0.0475795 -0.140248 158 
0.441772 -0.0476828 -0.139297 156 
0.442344 -0.0478102 -0.138322 154 
0.442593 -0.0478667 -0.137411 156 
0.443933 -0.0481624 -0.136271 157 
0.443584 -0.0480879 -0.13548 154 
0.444603 -0.0483131 -0.134401 153 
0.444254 -0.0482386 -0.133609 154 
0.444673 -0.0483325 -0.132652 152 
0.445093 -0.0484266 -0.131693 146 
0.446123 -0.0486542 -0.130598 150 
0.44616 -0.0486645 -0.129718 156 
0.446586 -0.0487598 -0.12875 150 
0.446569 -0.0487582 -0.12788 150 
0.446942 -0.0488418 -0.126922 153 
0.448263 -0.0491335 -0.125743 151 
0.447523 -0.0489734 -0.125036 152 
0.449186 -0.04934 -0.12377 146 
0.448277 -0.0491426 -0.123103 149 
0.448152 -0.0491173 -0.122252 145 
0.44898 -0.0493008 -0.121173 144 
0.44953 -0.0494234 -0.120157 146 
0.449688 -0.0494601 -0.119234 144 
0.450128 -0.0495587 -0.118241 149 
0.450232 -0.0495834 -0.117328 151 
0.450958 -0.0497447 -0.11626 153 
0.451403 -0.0498444 -0.115258 151 
0.451396 -0.0498447 -0.114368 149 
0.451331 -0.0498327 -0.113493 150 
0.451666 -0.0499081 -0.112514 151 
0.45223 -0.0500338 -0.111475 149 
0.451483 -0.0498722 -0.110774 145 
0.453077 -0.0502238 -0.10946 145 
0.452729 -0.0501496 -0.108654 141 
0.453529 -0.0503269 -0.107542 141 
0.453296 -0.050278 -0.106704 140 
0.453179 -0.0502543 -0.105835 139 
0.45289 -0.0501931 -0.105013 143 
0.452545 -0.0501195 -0.104206 147 
0.452773 -0.0501716 -0.103242 151 
0.453577 -0.05035 -0.102115 150 
0.453577 -0.0503521 -0.10121 146 
0.45329 -0.0502913 -0.100386 152 
0.454156 -0.0504833 -0.0992336 156 
0.453006 -0.0502332 -0.0986556 151 
0.452664 -0.0501602 -0.0978486 150 
0.453069 -0.0502512 -0.0968236 150 
0.453015 -0.0502414 -0.0959316 144 
0.452789 -0.0501939 -0.0950906 144 
0.453196 -0.0502853 -0.0940606 148 
0.451995 -0.0500239 -0.0935096 144 
0.452919 -0.0502287 -0.0923236 143 
0.45281 -0.0502069 -0.0914456 142 
0.451897 -0.0500089 -0.0908126 148 
0.451904 -0.0500125 -0.0898996 146 
0.451396 -0.0499031 -0.0891456 149 
0.451118 -0.0498441 -0.0883216 155 
0.449928 -0.0495853 -0.0877826 154 
0.45005 -0.0496142 -0.0868356 152 
0.449093 -0.0494064 -0.0862286 154 
0.448989 -0.0493855 -0.0853526 151 
0.448432 -0.0492655 -0.0846216 155 
0.448329 -0.0492449 -0.0837466 156 
0.448169 -0.049212 -0.0828886 156 
0.447841 -0.0491421 -0.0820856 148 
0.447007 -0.0489611 -0.0814506 152 
0.446568 -0.048867 -0.0806866 151 
0.446243 -0.0487977 -0.0798856 153 
0.446255 -0.0488024 -0.0789726 151 
0.445595 -0.0486596 -0.0782846 158 
0.444713 -0.0484684 -0.0776746 153 
0.445228 -0.0485835 -0.0765906 146 
0.444572 -0.0484415 -0.0759056 149 
0.444864 -0.0485078 -0.0748946 154 
0.44499 -0.0485375 -0.0739406 156 
0.443501 -0.0482127 -0.0735486 151 
0.44346 -0.0482058 -0.0726536 149 
0.444253 -0.0483821 -0.0714626 155 
0.442769 -0.0480583 -0.0710776 147 
0.44201 -0.0478939 -0.0704386 139 
0.441805 -0.047851 -0.0696026 133 
0.441104 -0.0476994 -0.0689456 133 
0.442113 -0.047923 -0.0676686 130 
0.440149 -0.0474938 -0.0674756 134 
0.440385 -0.0475477 -0.0664796 134 
0.440676 -0.0476138 -0.0654606 132 
0.438996 -0.047247 -0.0651746 131 
0.438904 -0.047229 -0.0642996 135 
0.438758 -0.0471991 -0.0634446 128 
0.438613 -0.0471692 -0.0625886 122 
0.438522 -0.0471515 -0.0617126 115 
0.437507 -0.0469308 -0.0611896 116 
0.436497 -0.046711 -0.0606676 119 
0.437274 -0.0468837 -0.0594576 127 
0.436265 -0.0466643 -0.0589386 127 
0.435529 -0.0465048 -0.0583166 122 
0.434903 -0.0463695 -0.0576526 127 
0.434333 -0.0462463 -0.0569696 120 
0.434353 -0.0462528 -0.0560526 110 
0.434749 -0.0463418 -0.0549846 110 
0.434447 -0.0462777 -0.0541946 99 
0.434253 -0.0462373 -0.0533616 106 
0.435243 -0.0464567 -0.0520476 98 
0.435805 -0.0465822 -0.0509036 103 
0.435936 -0.0466131 -0.0499336 102 
0.435364 -0.0464897 -0.0492506 112 
0.43555 -0.0465326 -0.0482566 98 
0.436115 -0.0466588 -0.0471016 102 
0.435219 -0.0464643 -0.0465556 94 
0.435839 -0.0466025 -0.0453756 100 
0.435647 -0.0465625 -0.0445336 104 
0.435564 -0.0465464 -0.0436466 110 
0.435103 -0.0464472 -0.0429196 108 
0.436104 -0.0466693 -0.0415666 107 
0.436077 -0.0466654 -0.0406526 101 
0.436975 -0.0468649 -0.0393356 99 
0.437276 -0.0469332 -0.0382746 95 
0.435833 -0.0466182 -0.0379746 94 
0.435155 -0.0464715 -0.0373426 86 
0.435944 -0.0466469 -0.0360656 90 
0.43679 -0.046835 -0.0347586 88 
0.436547 -0.0467837 -0.0339326 92 
0.436741 -0.0468285 -0.0329116 95 
0.437045 -0.0468974 -0.0318386 98 
0.436037 -0.0466782 -0.0313566 96 
0.436724 -0.0468312 -0.0301076 97 
0.436591 -0.0468042 -0.0292296 126 
0.436842 -0.0468615 -0.0281746 87 
0.437973 -0.0471123 -0.0267126 98 
0.437676 -0.0470492 -0.0259056 102 
0.338151 -0.0216614 -0.392345 9 
0.425501 -0.0399483 -0.433792 13 
0.423746 -0.039583 -0.432025 11 
0.427242 -0.0403169 -0.432785 9 
0.273885 -0.00821369 -0.359 9 
0.428573 -0.0405999 -0.431573 16 
0.432038 -0.0413274 -0.432289 10 
0.255376 -0.00434239 -0.348634 9 
0.420532 -0.0389228 -0.425032 17 
0.426877 -0.0402532 -0.42709 14 
0.424704 -0.0398004 -0.425163 11 
0.422811 -0.0394061 -0.423376 15 
0.425296 -0.0399285 -0.423614 13 
0.421152 -0.0390631 -0.420804 13 
0.423053 -0.0394631 -0.42077 11 
0.424247 -0.0397153 -0.420408 10 
0.419777 -0.0387813 -0.417483 12 
0.423656 -0.0395958 -0.418332 14 
0.421678 -0.0391836 -0.416544 14 
0.42353 -0.0395735 -0.416471 14 
0.419234 -0.0386757 -0.413665 20 
0.416706 -0.0381484 -0.411659 11 
0.421282 -0.0391089 -0.412784 19 
0.422466 -0.039359 -0.412408 20 
0.421821 -0.039226 -0.411232 20 
0.422957 -0.0394659 -0.410831 15 
0.424099 -0.039707 -0.410428 16 
0.423961 -0.0396803 -0.409473 18 
0.424183 -0.0397289 -0.408673 21 
0.423995 -0.0396916 -0.407699 21 
0.423144 -0.0395154 -0.406446 21 
0.423877 -0.0396709 -0.405863 21 
0.422621 -0.0394098 -0.404446 24 
0.423046 -0.039501 -0.403735 21 
0.421241 -0.0391249 -0.4021 20 
0.42283 -0.0394598 -0.401871 19 
0.421836 -0.0392536 -0.400578 19 
0.420898 -0.0390591 -0.399312 19 
0.424828 -0.0398845 -0.400026 22 
0.425721 -0.0400737 -0.399499 24 
0.422525 -0.0394062 -0.397327 26 
0.423664 -0.0396467 -0.3969 21 
0.422416 -0.0393874 -0.395521 21 
0.420474 -0.0389825 -0.393874 23 
0.424289 -0.0397838 -0.394499 25 
0.422888 -0.0394922 -0.393069 29 
0.421799 -0.0392661 -0.391768 31 
0.422579 -0.0394317 -0.391194 26 
0.422754 -0.0394704 -0.390386 29 
0.42425 -0.0397858 -0.390083 28 
0.42407 -0.0397501 -0.389136 30 
0.422928 -0.0395127 -0.387827 27 
0.42422 -0.0397857 -0.38744 29 
0.423382 -0.039612 -0.38625 31 
0.422649 -0.0394604 -0.385104 34 
0.422624 -0.0394572 -0.384224 30 
0.423307 -0.0396024 -0.383606 31 
0.424094 -0.0397692 -0.383023 31 
0.423917 -0.0397342 -0.382087 30 
0.423589 -0.0396675 -0.381098 35 
0.423414 -0.0396328 -0.380166 34 
0.425678 -0.0401093 -0.380108 37 
0.424382 -0.0398396 -0.378775 34 
0.425631 -0.0401036 -0.378349 31 
0.424388 -0.0398449 -0.37704 35 
0.425433 -0.0400661 -0.376539 32 
0.425666 -0.040117 -0.375752 35 
0.423464 -0.0396571 -0.374122 34 
0.424607 -0.0398988 -0.373652 35 
0.426164 -0.0402273 -0.37332 37 
0.426552 -0.0403107 -0.372584 36 
0.425308 -0.0400518 -0.371297 33 
0.428 -0.0406182 -0.371337 30 
0.427568 -0.0405297 -0.370324 39 
0.425759 -0.0401523 -0.368856 42 
0.427324 -0.0404825 -0.36851 41 
0.425671 -0.0401379 -0.367103 42 
0.426469 -0.0403071 -0.366501 47 
0.4264 -0.0402947 -0.365617 50 
0.426944 -0.0404109 -0.36493 42 
0.428055 -0.0406458 -0.364424 46 
0.429378 -0.0409252 -0.363981 49 
0.428536 -0.0407505 -0.362849 42 
0.4278 -0.0405982 -0.361756 47 
0.428658 -0.0407801 -0.361162 53 
0.429415 -0.040941 -0.360535 46 
0.430539 -0.0411787 -0.360018 46 
0.431095 -0.0412973 -0.359324 44 
0.429887 -0.0410459 -0.358092 47 
0.430442 -0.0411644 -0.357398 56 
0.428776 -0.0408169 -0.356036 54 
0.430259 -0.0411299 -0.355619 56 
0.430557 -0.0411944 -0.354847 54 
0.429923 -0.0410634 -0.3538 50 
0.430273 -0.0411388 -0.353044 54 
0.431714 -0.0414431 -0.352603 52 
0.431027 -0.0413009 -0.351544 56 
0.430756 -0.0412461 -0.350608 62 
0.432201 -0.0415512 -0.35016 63 
0.432504 -0.0416166 -0.349385 60 
0.432546 -0.0416274 -0.348537 63 
0.433006 -0.041726 -0.347806 61 
0.432631 -0.0416493 -0.346842 66 
0.433302 -0.041792 -0.346168 62 
0.433398 -0.0418141 -0.345335 67 
0.433023 -0.0417375 -0.344375 67 
0.433591 -0.0418587 -0.34367 63 
0.434108 -0.0419692 -0.34295 64 
0.435101 -0.0421795 -0.342353 68 
0.434989 -0.0421579 -0.341464 63 
0.434509 -0.0420592 -0.340481 68 
0.435135 -0.0421925 -0.339785 73 
0.43513 -0.0421934 -0.338926 66 
0.435388 -0.0422497 -0.338134 69 
0.435806 -0.0423394 -0.337382 70 
0.436808 -0.0425517 -0.336775 71 
0.436964 -0.0425863 -0.335955 84 
0.436801 -0.0425542 -0.335056 75 
0.436958 -0.042589 -0.334236 78 
0.437593 -0.0427243 -0.333533 76 
0.437804 -0.0427706 -0.332725 79 
0.437324 -0.0426718 -0.331753 77 
0.438175 -0.0428523 -0.331097 87 
0.437855 -0.0427871 -0.330164 80 
0.438174 -0.0428562 -0.329382 80 
0.437962 -0.0428135 -0.328476 82 
0.438656 -0.0429613 -0.327779 85 
0.439621 -0.0431658 -0.327141 89 
0.439408 -0.0431231 -0.326235 90 
0.439464 -0.0431368 -0.325391 80 
0.439414 -0.0431282 -0.324523 87 
0.439042 -0.0430522 -0.323586 93 
0.440279 -0.0433139 -0.322999 93 
0.440445 -0.0433506 -0.322178 88 
0.441582 -0.0435913 -0.321564 84 
0.440455 -0.0433567 -0.320468 84 
0.440676 -0.0434051 -0.319659 95 
0.441383 -0.0435555 -0.31895 83 
0.441444 -0.0435703 -0.318106 87 
0.442859 -0.0438694 -0.317538 90 
0.442541 -0.0438046 -0.316615 93 
0.442333 -0.0437628 -0.315717 95 
0.442396 -0.0437781 -0.314873 92 
0.443819 -0.0440788 -0.314295 96 
0.443828 -0.0440828 -0.313439 98 
0.443132 -0.0439384 -0.312448 85 
0.443632 -0.0440455 -0.311687 95 
0.443263 -0.04397 -0.310761 97 
0.443221 -0.0439631 -0.309898 96 
0.443234 -0.0439678 -0.309045 89 
0.443628 -0.0440525 -0.308263 93 
0.443968 -0.044126 -0.307469 92 
0.443928 -0.0441196 -0.306607 83 
0.445254 -0.0444001 -0.305986 74 
0.445051 -0.0443593 -0.305094 83 
0.44452 -0.0442499 -0.304147 91 
0.446016 -0.044566 -0.303548 88 
0.4445 -0.0442495 -0.302436 92 
0.445448 -0.0444505 -0.30174 93 
0.445083 -0.0443759 -0.300825 93 
0.446749 -0.0447279 -0.300242 88 
0.445834 -0.0445376 -0.299239 96 
0.446458 -0.0446708 -0.298483 100 
0.445382 -0.0444466 -0.297459 91 
0.446281 -0.0446374 -0.296746 93 
0.446633 -0.0447133 -0.295946 88 
0.446766 -0.0447432 -0.295111 90 
0.446129 -0.0446115 -0.294162 90 
0.445331 -0.0444458 -0.293192 100 
0.445465 -0.0444759 -0.29236 97 
0.446532 -0.0447021 -0.291663 95 
0.446009 -0.0445941 -0.290736 89 
0.44642 -0.0446823 -0.289942 98 
0.446556 -0.044713 -0.28911 99 
0.446419 -0.0446861 -0.288239 102 
0.446283 -0.0446594 -0.28737 98 
0.447246 -0.0448639 -0.286647 102 
0.446341 -0.0446756 -0.285677 107 
0.446097 -0.0446262 -0.284796 118 
0.446896 -0.0447962 -0.284048 115 
0.446049 -0.0446201 -0.283093 120 
0.446081 -0.0446288 -0.282248 123 
0.446223 -0.0446606 -0.281418 118 
0.446476 -0.0447157 -0.280599 123 
0.445797 -0.044575 -0.279672 123 
0.445231 -0.0444579 -0.27876 121 
0.445375 -0.0444902 -0.277931 127 
0.445411 -0.0444996 -0.27709 123 
0.44512 -0.0444404 -0.276213 126 
0.445429 -0.0445074 -0.275402 127 
0.444486 -0.0443112 -0.274458 133 
0.44409 -0.0442298 -0.273575 125 
0.443425 -0.0440919 -0.272666 130 
0.44341 -0.0440907 -0.271824 126 
0.443126 -0.0440329 -0.270957 134 
0.443274 -0.044066 -0.270132 129 
0.4417 -0.0437371 -0.269145 138 
0.44142 -0.0436802 -0.268284 137 
0.441623 -0.0437247 -0.267467 137 
0.441131 -0.0436231 -0.266589 138 
0.44064 -0.0435218 -0.265712 145 
0.440737 -0.0435442 -0.264888 139 
0.43961 -0.0433092 -0.263962 138 
0.439337 -0.0432537 -0.263109 137 
0.439489 -0.0432875 -0.262291 139 
0.438265 -0.0430321 -0.261368 149 
0.438101 -0.0429995 -0.260528 140 
0.437044 -0.0427791 -0.259624 140 
0.437091 -0.042791 -0.258802 144 
0.43693 -0.042759 -0.257967 142 
0.435672 -0.0424964 -0.257058 148 
0.4364 -0.0426513 -0.256284 149 
0.436973 -0.0427738 -0.255497 151 
0.436815 -0.0427423 -0.254664 154 
0.435456 -0.0424585 -0.253759 148 
0.434573 -0.0422747 -0.252888 157 
0.434366 -0.042233 -0.252057 158 
0.433901 -0.0421372 -0.251214 154 
0.433026 -0.0419551 -0.250351 154 
0.432926 -0.0419357 -0.24953 151 
0.431698 -0.0416794 -0.248656 158 
0.431089 -0.0415531 -0.247815 162 
0.431042 -0.0415451 -0.247001 164 
0.43069 -0.0414729 -0.246175 157 
0.430288 -0.0413903 -0.245348 160 
0.43004 -0.04134 -0.244529 159 
0.430097 -0.0413538 -0.243722 161 
0.429648 -0.0412612 -0.242897 158 
0.429453 -0.0412221 -0.242082 156 
0.427849 -0.0408865 -0.241224 155 
0.427907 -0.0409007 -0.240421 158 
0.427565 -0.0408306 -0.239607 162 
0.427375 -0.0407923 -0.238798 161 
0.426486 -0.0406071 -0.237974 153 
0.426347 -0.0405797 -0.237169 155 
0.42591 -0.0404897 -0.236358 149 
0.425872 -0.0404836 -0.235557 158 
0.424103 -0.0401131 -0.234728 159 
0.423968 -0.0400866 -0.233929 163 
0.424178 -0.0401327 -0.233134 157 
0.423651 -0.0400235 -0.232332 157 
0.42288 -0.0398631 -0.231529 157 
0.425112 -0.0403346 -0.230749 162 
0.422763 -0.0398423 -0.229939 158 
0.422388 -0.0397652 -0.229143 158 
0.422747 -0.0398426 -0.228349 160 
0.422716 -0.0398377 -0.227555 160 
0.422538 -0.0398021 -0.226761 160 
0.422556 -0.0398078 -0.225967 161 
0.422673 -0.0398342 -0.225172 155 
0.422741 -0.0398504 -0.224377 158 
0.422712 -0.0398462 -0.223582 162 
0.42239 -0.0397802 -0.222792 164 
0.424179 -0.0401585 -0.221972 153 
0.422922 -0.0398959 -0.221195 156 
0.422602 -0.0398303 -0.220406 155 
0.422575 -0.0398266 -0.219611 158 
0.422942 -0.0399055 -0.218809 162 
0.423015 -0.0399227 -0.218012 158 
0.422354 -0.0397853 -0.217233 161 
0.422966 -0.0399161 -0.216422 165 
0.422404 -0.0397996 -0.215643 160 
0.422871 -0.0398997 -0.214834 165 
0.423191 -0.0399691 -0.214028 166 
0.423907 -0.0401216 -0.213206 163 
0.42433 -0.0402124 -0.212393 158 
0.423373 -0.0400128 -0.211632 159 
0.423796 -0.0401036 -0.210818 159 
0.422794 -0.0398945 -0.210062 163 
0.422334 -0.0397995 -0.209287 163 
0.422707 -0.0398799 -0.208474 159 
0.423179 -0.0399812 -0.207655 167 
0.42326 -0.0400001 -0.206854 166 
0.423982 -0.0401538 -0.206019 168 
0.4253 -0.0404334 -0.205149 170 
0.424938 -0.0403588 -0.204368 169 
0.424823 -0.0403366 -0.203574 170 
0.424166 -0.0402 -0.202812 170 
0.424498 -0.0402717 -0.201992 160 
0.424731 -0.0403228 -0.201176 167 
0.424471 -0.0402698 -0.200392 163 
0.425102 -0.0404046 -0.199549 169 
0.425537 -0.040498 -0.198717 173 
0.425476 -0.040487 -0.197918 167 
0.425714 -0.0405389 -0.197097 168 
0.425256 -0.0404444 -0.196328 165 
0.425644 -0.040528 -0.195495 160 
0.425635 -0.0405279 -0.194691 168 
0.425427 -0.040486 -0.193903 166 
0.425569 -0.0405176 -0.193088 163 
0.426558 -0.0407279 -0.1922 171 
0.427051 -0.0408337 -0.19135 162 
0.427045 -0.0408342 -0.190543 164 
0.42614 -0.0406454 -0.189816 162 
0.426184 -0.0406566 -0.189006 167 
0.42613 -0.040647 -0.188204 158 
0.427326 -0.040901 -0.187282 163 
0.426722 -0.0407754 -0.186532 169 
0.428125 -0.0410728 -0.185584 170 
0.42777 -0.041 -0.184808 167 
0.42807 -0.0410651 -0.183966 169 
0.428371 -0.0411305 -0.183122 168 
0.428623 -0.0411854 -0.182282 171 
0.428371 -0.0411341 -0.181496 170 
0.428523 -0.041168 -0.180666 168 
0.428524 -0.0411701 -0.179852 169 
0.428677 -0.0412043 -0.17902 168 
0.428629 -0.041196 -0.178211 166 
0.429544 -0.0413906 -0.177288 170 
0.429091 -0.0412971 -0.176525 160 
0.429755 -0.0414388 -0.175627 163 
0.430932 -0.0416888 -0.174663 170 
0.42946 -0.0413804 -0.174028 170 
0.429821 -0.0414585 -0.173164 163 
0.430592 -0.0416228 -0.172244 162 
0.430854 -0.04168 -0.171389 162 
0.431271 -0.0417699 -0.170511 164 
0.43205 -0.0419358 -0.169583 171 
0.432368 -0.0420047 -0.168714 165 
0.431811 -0.0418893 -0.167966 165 
0.433162 -0.0421759 -0.16695 165 
0.432037 -0.0419408 -0.166284 163 
0.433495 -0.0422499 -0.165246 163 
0.432886 -0.0421234 -0.164506 165 
0.433675 -0.0422917 -0.16356 158 
0.432911 -0.0421326 -0.162845 165 
0.433028 -0.0421592 -0.161998 163 
0.434757 -0.0425255 -0.1609 166 
0.43472 -0.0425196 -0.160072 167 
0.435153 -0.0426129 -0.159169 158 
0.435536 -0.0426955 -0.158273 159 
0.435239 -0.0426349 -0.157485 162 
0.435309 -0.0426515 -0.156637 161 
0.435746 -0.0427456 -0.155728 163 
0.436606 -0.0429288 -0.154745 163 
0.437735 -0.0431688 -0.153713 158 
0.437861 -0.0431974 -0.152848 166 
0.437511 -0.0431256 -0.152066 163 
0.438435 -0.0433222 -0.15106 163 
0.438936 -0.0434298 -0.150126 158 
0.438693 -0.0433805 -0.149323 159 
0.439944 -0.0436464 -0.148248 163 
0.439701 -0.0435971 -0.147444 157 
0.440907 -0.0438532 -0.14637 156 
0.440986 -0.043872 -0.145503 160 
0.441336 -0.0439478 -0.144583 159 
0.44212 -0.044115 -0.143579 159 
0.441932 -0.0440773 -0.14276 157 
0.444026 -0.044521 -0.141493 161 
0.444056 -0.0445293 -0.140627 155 
0.442778 -0.0442618 -0.140021 159 
0.443353 -0.044385 -0.139045 152 
0.444258 -0.0445779 -0.138 153 
0.444236 -0.0445751 -0.137142 153 
0.444927 -0.0447228 -0.136135 153 
0.445015 -0.0447435 -0.135251 153 
0.445765 -0.0449037 -0.134226 157 
0.446131 -0.044983 -0.13328 151 
0.446776 -0.0451209 -0.132272 156 
0.446646 -0.0450956 -0.131429 154 
0.447405 -0.0452577 -0.130391 151 
0.448 -0.0453852 -0.129386 156 
0.447426 -0.0452661 -0.128639 150 
0.448581 -0.0455118 -0.127504 148 
0.447951 -0.0453808 -0.12677 148 
0.448774 -0.0455565 -0.125705 147 
0.44977 -0.0457687 -0.124596 148 
0.449306 -0.0456729 -0.123822 147 
0.449518 -0.0457196 -0.122892 150 
0.449449 -0.045707 -0.122026 148 
0.450451 -0.0459205 -0.120904 151 
0.450044 -0.0458368 -0.120117 152 
0.450542 -0.0459438 -0.119111 151 
0.450644 -0.0459675 -0.118199 152 
0.451315 -0.046111 -0.117147 155 
0.451476 -0.0461471 -0.116217 152 
0.452436 -0.0463516 -0.115086 147 
0.452314 -0.046328 -0.114224 153 
0.453164 -0.0465095 -0.113115 151 
0.452015 -0.046269 -0.112514 153 
0.452522 -0.0463782 -0.111489 148 
0.453548 -0.0465967 -0.110327 147 
0.452684 -0.0464163 -0.109656 142 
0.453195 -0.0465263 -0.108623 142 
0.453421 -0.0465761 -0.107665 143 
0.453246 -0.0465412 -0.106812 144 
0.453186 -0.0465306 -0.105928 139 
0.453299 -0.0465565 -0.104997 147 
0.452781 -0.0464492 -0.104238 147 
0.453411 -0.0465844 -0.103162 145 
0.453699 -0.0466472 -0.102179 150 
0.453239 -0.0465522 -0.101404 153 
0.45301 -0.0465059 -0.100565 157 
0.453068 -0.0465204 -0.0996436 149 
0.452783 -0.0464622 -0.0988206 148 
0.453706 -0.0466591 -0.0976486 148 
0.453075 -0.0465281 -0.0969246 149 
0.452332 -0.0463733 -0.0962346 149 
0.452221 -0.0463519 -0.0953606 148 
0.452053 -0.0463186 -0.0945036 147 
0.451829 -0.0462733 -0.0936636 147 
0.452006 -0.0463128 -0.0927036 154 
0.451668 -0.0462435 -0.0918976 155 
0.451216 -0.0461503 -0.0911266 152 
0.451623 -0.0462383 -0.0900936 150 
0.450545 -0.0460127 -0.0895156 151 
0.450609 -0.0460284 -0.0885876 148 
0.450731 -0.0460562 -0.0876406 155 
0.450739 -0.0460601 -0.0867276 160 
0.449155 -0.0457275 -0.0863186 158 
0.448145 -0.0455164 -0.0857316 151 
0.447646 -0.0454132 -0.0849846 153 
0.447825 -0.045453 -0.0840196 153 
0.447722 -0.0454333 -0.0831456 159 
0.447394 -0.0453661 -0.0823436 157 
0.446 -0.0450739 -0.0818936 155 
0.446011 -0.0450783 -0.0809836 157 
0.445798 -0.0450354 -0.0801466 156 
0.445698 -0.0450163 -0.0792726 155 
0.444927 -0.0448556 -0.0786236 159 
0.445051 -0.0448839 -0.0776746 156 
0.444841 -0.0448415 -0.0768386 150 
0.444352 -0.0447404 -0.0760966 143 
0.444644 -0.0448041 -0.0750876 144 
0.444323 -0.0447385 -0.0742886 141 
0.443614 -0.0445908 -0.0736266 141 
0.442963 -0.0444553 -0.0729456 148 
0.444312 -0.0447423 -0.0715606 142 
0.442328 -0.0443254 -0.0713526 141 
0.442842 -0.044436 -0.0702606 146 
0.441862 -0.044231 -0.0697016 141 
0.441712 -0.0442015 -0.0688456 139 
0.441067 -0.0440673 -0.0681706 138 
0.440479 -0.0439452 -0.0674756 129 
0.440935 -0.0440437 -0.0663986 123 
0.439909 -0.043829 -0.0658666 122 
0.439324 -0.0437075 -0.0651746 130 
0.438251 -0.0434828 -0.0646666 133 
0.438977 -0.0436383 -0.0634856 125 
0.438286 -0.0434945 -0.0628366 123 
0.437652 -0.0433625 -0.0621676 111 
0.438869 -0.0436218 -0.0607936 109 
0.436551 -0.043134 -0.0607716 108 
0.437328 -0.0433004 -0.0595626 113 
0.435348 -0.0428839 -0.0594206 116 
0.435206 -0.042856 -0.0585686 121 
0.435602 -0.0429418 -0.0575046 114 
0.43503 -0.0428229 -0.0568206 109 
0.43505 -0.0428293 -0.0559036 113 
0.435609 -0.0429496 -0.0547706 108 
0.436441 -0.0431276 -0.0535246 106 
0.435274 -0.0428829 -0.0530796 108 
0.436106 -0.0430609 -0.0518296 101 
0.435317 -0.0428964 -0.0512336 102 
0.436639 -0.0431779 -0.0497776 94 
0.435039 -0.0428418 -0.0495176 101 
0.436632 -0.0431807 -0.0479426 93 
0.436168 -0.0430846 -0.0472146 98 
0.43565 -0.0429773 -0.0465106 102 
0.435458 -0.0429388 -0.0456706 97 
0.435754 -0.0430034 -0.0446256 96 
0.437248 -0.0433214 -0.0430696 102 
0.436348 -0.0431333 -0.0425266 98 
0.436156 -0.043095 -0.0416836 103 
0.437547 -0.0433911 -0.0401596 99 
0.436482 -0.0431682 -0.0396896 97 
0.43651 -0.0431761 -0.0387496 98 
0.437576 -0.0434037 -0.0373546 96 
0.437386 -0.0433656 -0.0365056 91 
0.437579 -0.0434087 -0.0354876 93 
0.437609 -0.0434171 -0.0345406 94 
0.436708 -0.0432288 -0.0340056 100 
0.435919 -0.0430641 -0.0334236 93 
0.436331 -0.0431534 -0.0323056 98 
0.437292 -0.0433587 -0.0309366 96 
0.436392 -0.0431706 -0.0304056 103 
0.438015 -0.043516 -0.0287286 137 
0.437992 -0.0435133 -0.0277976 96 
0.43698 -0.0433015 -0.0273196 102 
0.437508 -0.0434152 -0.0261346 102 
0.304855 -0.0121909 -0.376235 10 
0.430573 -0.0374806 -0.436112 11 
0.435762 -0.0385265 -0.437678 12 
0.427096 -0.0367854 -0.432584 11 
0.424758 -0.0363172 -0.430547 13 
0.432259 -0.0378283 -0.433192 9 
0.429017 -0.0371782 -0.430728 10 
0.419265 -0.0352185 -0.425217 12 
0.848684 -0.121609 -0.626299 12 
0.420858 -0.0355432 -0.424157 12 
0.428105 -0.0370032 -0.426616 12 
0.419567 -0.0352876 -0.421755 15 
0.428231 -0.0370328 -0.424839 11 
0.424234 -0.0362307 -0.422093 17 
0.425435 -0.0364745 -0.421733 10 
0.422924 -0.0359712 -0.419686 11 
0.423809 -0.0361515 -0.419183 12 
0.426876 -0.0367707 -0.419657 18 
0.421741 -0.0357394 -0.416453 18 
0.422213 -0.0358366 -0.415766 12 
0.422279 -0.0358519 -0.414897 16 
0.427295 -0.0368633 -0.416211 19 
0.42328 -0.0360574 -0.413544 15 
0.424269 -0.0362586 -0.413078 16 
0.424439 -0.0362949 -0.412254 17 
0.423532 -0.0361143 -0.410964 15 
0.420703 -0.035547 -0.408852 18 
0.426086 -0.0366325 -0.410267 20 
0.424094 -0.0362336 -0.40852 14 
0.428094 -0.0370408 -0.409322 21 
0.425258 -0.0364722 -0.407224 20 
0.421905 -0.0357991 -0.404923 18 
0.423347 -0.0360914 -0.404638 19 
0.421841 -0.0357904 -0.403123 15 
0.423997 -0.0362264 -0.403129 19 
0.421779 -0.0357819 -0.401329 22 
0.424291 -0.0362897 -0.401473 19 
0.421415 -0.0357128 -0.399415 19 
0.425099 -0.0364565 -0.400026 25 
0.425633 -0.0365661 -0.399353 20 
0.424116 -0.0362627 -0.397857 26 
0.421147 -0.0356668 -0.395789 22 
0.424516 -0.0363472 -0.396248 32 
0.427005 -0.0368505 -0.396347 24 
0.426304 -0.0367113 -0.395184 22 
0.424377 -0.0363254 -0.393546 24 
0.424145 -0.0362806 -0.392575 28 
0.425087 -0.0364724 -0.39206 26 
0.421558 -0.0357638 -0.389823 27 
0.422844 -0.0360247 -0.389442 22 
0.426697 -0.0368027 -0.390032 26 
0.426824 -0.0368303 -0.389199 29 
0.424542 -0.0363727 -0.387459 29 
0.426666 -0.0368026 -0.387378 24 
0.425972 -0.0366648 -0.38624 34 
0.423905 -0.0362505 -0.384599 30 
0.42383 -0.0362373 -0.383699 28 
0.424211 -0.0363162 -0.382967 27 
0.424136 -0.0363031 -0.382069 35 
0.423808 -0.036239 -0.381079 34 
0.424851 -0.0364512 -0.380586 34 
0.425644 -0.0366128 -0.379999 35 
0.423385 -0.0361598 -0.378324 40 
0.425547 -0.0365972 -0.378222 38 
0.42532 -0.0365536 -0.377273 36 
0.425757 -0.0366436 -0.376557 27 
0.427015 -0.036899 -0.376126 38 
0.425611 -0.0366183 -0.374771 35 
0.426971 -0.0368943 -0.374371 32 
0.425927 -0.0366858 -0.373145 35 
0.426213 -0.0367454 -0.372376 36 
0.42655 -0.0368154 -0.371624 36 
0.430975 -0.037709 -0.372242 36 
0.427176 -0.0369456 -0.370101 38 
0.427722 -0.0370575 -0.369416 42 
0.426422 -0.0367975 -0.368122 38 
0.427171 -0.0369504 -0.367504 42 
0.429056 -0.0373324 -0.367254 42 
0.42847 -0.0372163 -0.366197 43 
0.429537 -0.0374332 -0.365675 47 
0.430141 -0.037557 -0.365001 41 
0.429502 -0.0374301 -0.363931 45 
0.429743 -0.0374808 -0.363143 46 
0.428952 -0.0373232 -0.36203 49 
0.429349 -0.0374052 -0.361291 46 
0.43094 -0.0377279 -0.36092 53 
0.430405 -0.037622 -0.35989 53 
0.429768 -0.0374956 -0.358832 48 
0.430374 -0.0376199 -0.358155 50 
0.431504 -0.0378495 -0.357633 51 
0.429157 -0.0373786 -0.356067 53 
0.431528 -0.0378583 -0.355913 54 
0.43303 -0.0381631 -0.355494 56 
0.431918 -0.037941 -0.354303 56 
0.431176 -0.0377935 -0.353225 56 
0.431997 -0.037961 -0.352603 54 
0.433188 -0.038203 -0.352084 60 
0.433596 -0.0382873 -0.351338 59 
0.433113 -0.0381918 -0.350338 57 
0.433627 -0.0382973 -0.349621 61 
0.43488 -0.038552 -0.34911 60 
0.433869 -0.0383501 -0.347966 56 
0.43302 -0.038181 -0.346871 61 
0.43427 -0.038435 -0.346354 62 
0.434419 -0.0384671 -0.345534 61 
0.434306 -0.0384461 -0.344644 65 
0.434613 -0.0385102 -0.343867 65 
0.435133 -0.038617 -0.343145 65 
0.435919 -0.0387774 -0.342493 61 
0.4357 -0.0387353 -0.341575 63 
0.435482 -0.0386933 -0.340659 66 
0.436111 -0.0388221 -0.339962 64 
0.436159 -0.0388337 -0.339115 78 
0.436366 -0.0388774 -0.338308 71 
0.435991 -0.0388037 -0.337355 75 
0.436994 -0.039008 -0.336749 70 
0.43715 -0.0390414 -0.335928 78 
0.437093 -0.039032 -0.335056 72 
0.437782 -0.039173 -0.334366 73 
0.437673 -0.039153 -0.333481 71 
0.439812 -0.0395863 -0.333137 77 
0.438523 -0.0393284 -0.331968 84 
0.438255 -0.0392763 -0.331047 84 
0.438843 -0.0393968 -0.330327 84 
0.438843 -0.0393987 -0.329469 87 
0.439539 -0.0395413 -0.328772 79 
0.439487 -0.0395326 -0.327902 85 
0.439756 -0.039589 -0.327105 84 
0.439973 -0.0396346 -0.326296 92 
0.440729 -0.0397891 -0.325606 90 
0.440893 -0.0398242 -0.324784 97 
0.44095 -0.0398377 -0.323938 95 
0.440846 -0.0398187 -0.323058 98 
0.441715 -0.0399959 -0.322387 94 
0.441611 -0.039977 -0.321506 89 
0.442429 -0.040144 -0.320821 90 
0.441893 -0.0400378 -0.31985 89 
0.442278 -0.0401175 -0.319073 90 
0.443099 -0.0402852 -0.318384 91 
0.442781 -0.0402228 -0.31746 96 
0.443768 -0.0404241 -0.316801 100 
0.443667 -0.0404057 -0.315922 92 
0.443077 -0.0402887 -0.314948 95 
0.44445 -0.0405676 -0.314359 84 
0.444241 -0.0405275 -0.31346 89 
0.444088 -0.0404985 -0.312573 95 
0.444317 -0.0405468 -0.311759 97 
0.444712 -0.0406284 -0.310976 94 
0.444833 -0.0406549 -0.310141 97 
0.445065 -0.0407036 -0.309326 98 
0.445627 -0.040819 -0.308571 98 
0.445202 -0.0407352 -0.307636 97 
0.445271 -0.0407511 -0.306792 98 
0.444957 -0.0406898 -0.30588 94 
0.445741 -0.0408499 -0.305161 95 
0.445154 -0.0407333 -0.304204 82 
0.445225 -0.0407498 -0.303361 81 
0.444969 -0.0407 -0.302463 79 
0.444987 -0.0407056 -0.301612 88 
0.444951 -0.0407003 -0.300753 81 
0.445244 -0.0407613 -0.299948 81 
0.444935 -0.040701 -0.299045 77 
0.445503 -0.0408176 -0.298283 75 
0.445359 -0.0407906 -0.297408 80 
0.444943 -0.0407086 -0.296491 87 
0.445294 -0.0407813 -0.295694 89 
0.446029 -0.0409317 -0.294953 88 
0.447153 -0.0411605 -0.294269 82 
0.447232 -0.0411785 -0.293426 95 
0.44621 -0.0409742 -0.292424 96 
0.446071 -0.040948 -0.291552 95 
0.445658 -0.0408666 -0.290643 95 
0.446288 -0.0409957 -0.289881 106 
0.446095 -0.0409588 -0.289004 103 
0.446343 -0.0410107 -0.288187 109 
0.446206 -0.0409851 -0.287319 113 
0.446894 -0.0411261 -0.28656 120 
0.44621 -0.0409897 -0.28562 121 
0.445637 -0.040876 -0.284698 123 
0.445558 -0.0408621 -0.283841 133 
0.446083 -0.0409699 -0.283059 130 
0.445676 -0.0408898 -0.282161 124 
0.4456 -0.0408763 -0.281305 131 
0.445688 -0.040896 -0.28047 126 
0.445503 -0.0408606 -0.279602 133 
0.44521 -0.0408033 -0.278723 132 
0.444319 -0.0406254 -0.277778 131 
0.444681 -0.0407004 -0.276975 129 
0.444772 -0.0407207 -0.276142 139 
0.443776 -0.0405216 -0.275193 143 
0.443381 -0.0404436 -0.27431 139 
0.443473 -0.0404642 -0.27348 131 
0.443674 -0.0405067 -0.27266 130 
0.442849 -0.0403419 -0.271738 133 
0.442781 -0.0403301 -0.270894 137 
0.442283 -0.0402314 -0.270008 141 
0.442377 -0.0402525 -0.269181 141 
0.44215 -0.0402085 -0.268323 138 
0.441602 -0.0400997 -0.267438 137 
0.441484 -0.0400777 -0.266593 138 
0.441474 -0.0400776 -0.265758 136 
0.440876 -0.0399587 -0.264874 137 
0.440014 -0.0397865 -0.263971 139 
0.440272 -0.0398406 -0.263161 137 
0.438832 -0.0395513 -0.262216 135 
0.43856 -0.0394985 -0.261368 139 
0.438713 -0.0395312 -0.260551 147 
0.437705 -0.0393294 -0.259651 142 
0.437438 -0.0392772 -0.258806 145 
0.437171 -0.0392252 -0.257963 146 
0.437798 -0.0393539 -0.257181 155 
0.437269 -0.0392489 -0.256321 150 
0.438161 -0.0394311 -0.255554 153 
0.436846 -0.0391671 -0.254648 157 
0.435851 -0.038968 -0.253766 153 
0.43507 -0.038812 -0.2529 151 
0.434396 -0.0386776 -0.252043 157 
0.43419 -0.0386378 -0.251214 157 
0.434036 -0.0386086 -0.250389 160 
0.433935 -0.03859 -0.249567 155 
0.433628 -0.0385298 -0.248735 165 
0.432191 -0.0382413 -0.247853 160 
0.432297 -0.0382647 -0.247045 165 
0.431688 -0.0381433 -0.246205 158 
0.430622 -0.0379297 -0.24535 158 
0.430678 -0.0379429 -0.244543 154 
0.430583 -0.0379255 -0.243729 156 
0.430386 -0.0378876 -0.242913 160 
0.430292 -0.0378704 -0.242101 157 
0.429691 -0.0377509 -0.241273 155 
0.428287 -0.0374688 -0.240424 153 
0.428296 -0.0374725 -0.23962 156 
0.427152 -0.037243 -0.238785 154 
0.426962 -0.0372064 -0.237978 155 
0.427023 -0.0372206 -0.237177 158 
0.426734 -0.0371641 -0.236369 159 
0.426148 -0.0370474 -0.235557 156 
0.42482 -0.0367807 -0.234735 153 
0.42513 -0.0368453 -0.233941 158 
0.424501 -0.0367198 -0.233135 164 
0.423874 -0.0365948 -0.232331 162 
0.423691 -0.0365597 -0.231533 158 
0.424298 -0.0366842 -0.230742 164 
0.424166 -0.0366593 -0.229944 161 
0.423542 -0.0365349 -0.229145 157 
0.424149 -0.0366597 -0.228351 159 
0.423526 -0.0365356 -0.227554 161 
0.423544 -0.036541 -0.226759 157 
0.423366 -0.0365068 -0.225964 159 
0.424469 -0.0367317 -0.225162 161 
0.423306 -0.0364984 -0.224374 155 
0.42313 -0.0364645 -0.223581 156 
0.423839 -0.0366098 -0.222777 153 
0.423467 -0.0365363 -0.221986 157 
0.425415 -0.0369322 -0.221159 158 
0.423658 -0.0365787 -0.220391 156 
0.423091 -0.0364659 -0.219607 154 
0.423311 -0.0365122 -0.218807 162 
0.424024 -0.0366582 -0.217995 157 
0.42479 -0.0368149 -0.217178 160 
0.425062 -0.036872 -0.216372 167 
0.425187 -0.0368991 -0.21557 161 
0.424917 -0.0368461 -0.214779 157 
0.424449 -0.0367534 -0.213995 158 
0.424625 -0.0367908 -0.213191 159 
0.424504 -0.0367683 -0.212397 161 
0.424879 -0.036846 -0.211584 160 
0.424068 -0.0366837 -0.210818 157 
0.42474 -0.0368215 -0.209991 157 
0.424721 -0.0368195 -0.209193 157 
0.424653 -0.0368075 -0.208397 156 
0.425031 -0.0368859 -0.207579 166 
0.42546 -0.0369745 -0.206758 168 
0.425592 -0.0370031 -0.20595 167 
0.426173 -0.0371225 -0.205117 169 
0.426506 -0.0371918 -0.204296 160 
0.425396 -0.0369689 -0.203557 164 
0.425978 -0.0370885 -0.202721 164 
0.425764 -0.0370472 -0.201931 166 
0.426149 -0.0371269 -0.201104 167 
0.425788 -0.0370556 -0.200324 170 
0.427173 -0.0373378 -0.199429 163 
0.426311 -0.0371653 -0.198682 169 
0.428204 -0.0375503 -0.197744 166 
0.428345 -0.0375806 -0.196926 164 
0.426928 -0.0372958 -0.196223 162 
0.42742 -0.0373971 -0.19538 163 
0.42721 -0.0373565 -0.194589 158 
0.428156 -0.0375499 -0.193707 169 
0.427294 -0.0373772 -0.192969 162 
0.427136 -0.0373471 -0.192174 165 
0.427129 -0.0373476 -0.191368 161 
0.428632 -0.0376537 -0.190428 165 
0.428425 -0.0376136 -0.189636 167 
0.427664 -0.0374615 -0.188895 164 
0.428617 -0.0376562 -0.187997 169 
0.428109 -0.0375552 -0.187234 170 
0.42866 -0.0376687 -0.18637 171 
0.428809 -0.0377007 -0.185544 169 
0.429364 -0.0378149 -0.184675 170 
0.428603 -0.0376627 -0.18394 165 
0.429057 -0.0377565 -0.18308 165 
0.429563 -0.037861 -0.182212 166 
0.429462 -0.0378423 -0.181408 170 
0.430174 -0.0379884 -0.180514 166 
0.430125 -0.0379802 -0.179703 168 
0.431198 -0.0381996 -0.178764 168 
0.431508 -0.0382642 -0.177909 167 
0.430795 -0.0381217 -0.177173 168 
0.431413 -0.0382486 -0.17628 164 
0.431827 -0.0383345 -0.175409 170 
0.431524 -0.038275 -0.174625 166 
0.431632 -0.0382988 -0.17379 172 
0.432409 -0.0384581 -0.172869 170 
0.432571 -0.0384927 -0.172025 166 
0.432115 -0.0384022 -0.17126 162 
0.433206 -0.0386251 -0.170291 161 
0.432543 -0.0384927 -0.169555 163 
0.433275 -0.038643 -0.168629 166 
0.433285 -0.0386468 -0.167801 163 
0.434021 -0.0387979 -0.16687 163 
0.434552 -0.0389074 -0.165965 159 
0.434772 -0.0389539 -0.165102 160 
0.434889 -0.0389795 -0.164254 163 
0.434277 -0.0388573 -0.163513 159 
0.435176 -0.0390415 -0.162547 163 
0.435138 -0.0390357 -0.161719 163 
0.435729 -0.0391573 -0.160795 168 
0.436742 -0.0393646 -0.159801 159 
0.436285 -0.0392738 -0.159036 163 
0.438309 -0.0396858 -0.157875 162 
0.438167 -0.039659 -0.157057 157 
0.43861 -0.0397508 -0.156143 160 
0.438416 -0.0397135 -0.155333 160 
0.43817 -0.0396655 -0.154531 160 
0.438828 -0.0398008 -0.153577 157 
0.439275 -0.0398933 -0.152656 160 
0.439564 -0.0399537 -0.15176 162 
0.439586 -0.0399601 -0.15091 160 
0.441003 -0.0402493 -0.149811 163 
0.440435 -0.0401362 -0.149063 163 
0.441266 -0.0403065 -0.148063 161 
0.441885 -0.0404339 -0.147098 163 
0.442181 -0.0404959 -0.14619 155 
0.442749 -0.040613 -0.145229 154 
0.442613 -0.0405875 -0.144399 154 
0.443674 -0.0408046 -0.14334 152 
0.444468 -0.0409674 -0.142328 152 
0.444224 -0.0409199 -0.141515 155 
0.444089 -0.0408946 -0.140681 151 
0.444832 -0.0410471 -0.139672 150 
0.445523 -0.0411891 -0.13867 152 
0.44594 -0.0412758 -0.137721 158 
0.445808 -0.0412509 -0.136882 154 
0.446504 -0.041394 -0.135872 161 
0.446926 -0.0414815 -0.134916 154 
0.447627 -0.0416257 -0.133899 158 
0.448443 -0.0417932 -0.132854 154 
0.449039 -0.041916 -0.131852 158 
0.44807 -0.0417216 -0.131188 154 
0.449563 -0.0420263 -0.129987 155 
0.449209 -0.0419566 -0.129188 153 
0.449192 -0.0419552 -0.128315 150 
0.450188 -0.0421591 -0.127214 149 
0.45068 -0.0422609 -0.126223 150 
0.451231 -0.0423746 -0.125215 147 
0.451047 -0.0423393 -0.124375 145 
0.451089 -0.04235 -0.123481 153 
0.452269 -0.0425913 -0.122321 152 
0.452313 -0.0426023 -0.121423 151 
0.452416 -0.0426251 -0.120511 151 
0.45104 -0.0423482 -0.119953 157 
0.451483 -0.0424401 -0.11896 148 
0.452042 -0.0425554 -0.117935 149 
0.452032 -0.0425555 -0.117048 153 
0.45208 -0.0425673 -0.116146 156 
0.453214 -0.0427994 -0.114972 154 
0.453092 -0.0427767 -0.114109 153 
0.453716 -0.0429053 -0.113056 148 
0.453537 -0.0428711 -0.112206 148 
0.453073 -0.0427789 -0.11143 146 
0.452552 -0.0426754 -0.11067 145 
0.452891 -0.0427461 -0.109686 147 
0.452772 -0.042724 -0.10882 147 
0.453054 -0.0427835 -0.107848 148 
0.453626 -0.0429014 -0.106797 140 
0.453508 -0.0428796 -0.105928 145 
0.453621 -0.0429046 -0.104997 148 
0.454427 -0.0430702 -0.103875 148 
0.453965 -0.0429785 -0.103099 149 
0.453964 -0.0429805 -0.102195 149 
0.453446 -0.0428775 -0.101436 150 
0.453735 -0.0429381 -0.100451 152 
0.453736 -0.0429405 -0.0995456 150 
0.453969 -0.0429898 -0.0985726 149 
0.453741 -0.0429455 -0.0977316 148 
0.453801 -0.0429599 -0.0968076 146 
0.452711 -0.0427407 -0.0962176 145 
0.452485 -0.0426969 -0.0953776 154 
0.452661 -0.0427348 -0.0944186 158 
0.452379 -0.0426796 -0.0935956 153 
0.451925 -0.0425896 -0.0928236 153 
0.451931 -0.0425929 -0.0919146 151 
0.451822 -0.0425729 -0.0910386 149 
0.451142 -0.042437 -0.0903386 146 
0.450122 -0.0422321 -0.0897446 149 
0.451328 -0.0424789 -0.0884636 154 
0.449568 -0.0421238 -0.0881026 147 
0.448896 -0.0419894 -0.0874066 146 
0.449926 -0.0422006 -0.0861746 148 
0.449026 -0.04202 -0.0855516 152 
0.447791 -0.0417714 -0.0850386 156 
0.447687 -0.0417525 -0.0841656 154 
0.447078 -0.0416308 -0.0834556 156 
0.44799 -0.041818 -0.0822516 150 
0.44648 -0.0415136 -0.0818386 152 
0.446322 -0.0414837 -0.0809836 152 
0.446334 -0.0414881 -0.0800726 156 
0.446177 -0.0414583 -0.0792166 150 
0.445628 -0.0413491 -0.0784926 158 
0.445697 -0.0413651 -0.0775606 153 
0.445374 -0.0413016 -0.0767616 156 
0.445499 -0.0413291 -0.0758096 153 
0.444451 -0.0411183 -0.0752606 151 
0.445079 -0.041248 -0.0741346 148 
0.443366 -0.0409022 -0.0738206 141 
0.443269 -0.0408847 -0.0729456 145 
0.442896 -0.0408109 -0.0721686 154 
0.444078 -0.0410531 -0.0708406 147 
0.442649 -0.040765 -0.0704386 147 
0.441339 -0.040501 -0.0699986 144 
0.442072 -0.040652 -0.0688256 146 
0.440985 -0.0404334 -0.0683106 144 
0.439739 -0.0401824 -0.0678556 137 
0.439646 -0.0401656 -0.0669826 126 
0.440266 -0.0402935 -0.0658466 123 
0.43957 -0.0401544 -0.0651946 126 
0.43915 -0.0400712 -0.0644426 129 
0.438077 -0.0398553 -0.0639356 126 
0.437606 -0.0397617 -0.0632056 120 
0.438495 -0.0399443 -0.0619616 112 
0.437154 -0.039674 -0.0615626 112 
0.437281 -0.0397019 -0.0606056 114 
0.436109 -0.0394659 -0.0601476 119 
0.436074 -0.0394609 -0.0592536 116 
0.436255 -0.0394998 -0.0582746 120 
0.435897 -0.0394291 -0.0575046 111 
0.435485 -0.0393475 -0.0567576 111 
0.435128 -0.0392771 -0.0559886 105 
0.435634 -0.0393819 -0.0548776 104 
0.436737 -0.0396082 -0.0535246 104 
0.43546 -0.0393509 -0.0531226 103 
0.436131 -0.0394892 -0.0519386 102 
0.436804 -0.0396281 -0.0507496 96 
0.436393 -0.0395467 -0.0499996 91 
0.435657 -0.0393994 -0.0493846 105 
0.436385 -0.0395494 -0.0481666 101 
0.436735 -0.0396226 -0.0471016 98 
0.435999 -0.0394752 -0.0464876 94 
0.435753 -0.0394272 -0.0456706 95 
0.436647 -0.039611 -0.0443736 93 
0.4364 -0.039563 -0.0435546 101 
0.437408 -0.0397699 -0.0422016 98 
0.436725 -0.0396333 -0.0415666 102 
0.436697 -0.0396298 -0.0406526 99 
0.438037 -0.0399043 -0.0391466 99 
0.43845 -0.0399903 -0.0380366 90 
0.438369 -0.039976 -0.0371396 98 
0.437519 -0.0398054 -0.0365776 97 
0.438097 -0.0399251 -0.0353906 96 
0.437359 -0.0397771 -0.0347826 92 
0.437224 -0.0397518 -0.0339086 96 
0.437803 -0.0398717 -0.0327156 100 
0.438164 -0.0399472 -0.0316166 93 
0.4377 -0.039855 -0.0308866 93 
0.437676 -0.0398524 -0.0299586 87 
0.438093 -0.0399394 -0.0288296 129 
0.438512 -0.0400267 -0.0276966 89 
0.437498 -0.0398226 -0.0272186 88 
0.438082 -0.0399435 -0.0260076 90 
0.43173 -0.03418 -0.437483 11 
0.430718 -0.0339869 -0.436061 12 
0.431956 -0.034228 -0.435724 11 
0.411707 -0.030322 -0.425108 13 
0.198642 0.0108006 -0.323963 10 
0.427412 -0.0333573 -0.430773 13 
0.227717 0.00518569 -0.336415 9 
0.13514 0.0230582 -0.294418 11 
0.137747 0.0225541 -0.295239 11 
0.428133 -0.0335049 -0.427432 11 
0.428827 -0.0336411 -0.426836 11 
0.427523 -0.0333914 -0.425315 12 
0.426749 -0.0332441 -0.424044 9 
0.476379 -0.0428271 -0.44583 10 
0.423767 -0.0326727 -0.420864 14 
0.425484 -0.0330062 -0.420736 15 
0.423024 -0.0325333 -0.418721 13 
0.42775 -0.0334479 -0.419939 16 
0.424233 -0.0327708 -0.417458 18 
0.429669 -0.0338224 -0.418971 14 
0.424983 -0.0329198 -0.415987 14 
0.429959 -0.0338827 -0.417274 16 
0.42558 -0.0330394 -0.414445 17 
0.42328 -0.0325973 -0.412542 17 
0.425094 -0.0329496 -0.412432 20 
0.424955 -0.0329249 -0.411474 21 
0.42236 -0.0324257 -0.409462 18 
0.425452 -0.0330249 -0.409891 19 
0.425623 -0.0330601 -0.409067 18 
0.425073 -0.0329559 -0.407938 20 
0.4235 -0.0326542 -0.406381 19 
0.427802 -0.0334869 -0.407293 21 
0.423639 -0.032685 -0.404659 19 
0.42422 -0.0327994 -0.404011 21 
0.425678 -0.0330829 -0.403723 18 
0.422779 -0.032525 -0.401641 23 
0.42438 -0.0328364 -0.40141 19 
0.426613 -0.0332697 -0.401431 20 
0.426013 -0.0331558 -0.400297 21 
0.421644 -0.032314 -0.39765 20 
0.423695 -0.0327121 -0.397592 22 
0.426228 -0.0332036 -0.397717 27 
0.425272 -0.0330208 -0.396451 24 
0.425191 -0.0330072 -0.395535 24 
0.425932 -0.0331523 -0.394942 23 
0.426108 -0.0331884 -0.394126 27 
0.425822 -0.0331352 -0.393132 30 
0.424461 -0.0328744 -0.391724 27 
0.423924 -0.0327726 -0.390639 27 
0.423795 -0.0327497 -0.389713 26 
0.423413 -0.0326778 -0.388692 27 
0.425323 -0.0330489 -0.388539 26 
0.426117 -0.0332043 -0.387959 28 
0.426758 -0.0333304 -0.38732 28 
0.425704 -0.0331287 -0.38605 32 
0.423234 -0.0326534 -0.384261 31 
0.426371 -0.0332616 -0.384543 31 
0.424556 -0.0329128 -0.383004 27 
0.42735 -0.0334547 -0.383148 34 
0.427273 -0.0334419 -0.382243 35 
0.427042 -0.0333993 -0.381285 39 
0.425685 -0.033139 -0.379926 31 
0.427303 -0.0334538 -0.379629 34 
0.428105 -0.0336107 -0.379039 35 
0.426332 -0.0332701 -0.377542 36 
0.427285 -0.0334563 -0.377005 36 
0.428087 -0.0336133 -0.376412 37 
0.426317 -0.0332732 -0.374929 37 
0.427373 -0.0334793 -0.374424 38 
0.428176 -0.0336365 -0.373828 36 
0.42692 -0.0333957 -0.372532 41 
0.427773 -0.0335626 -0.371953 41 
0.429147 -0.0338302 -0.371545 39 
0.429749 -0.0339486 -0.370875 39 
0.430144 -0.034027 -0.370135 42 
0.428312 -0.0336748 -0.368662 37 
0.428087 -0.0336333 -0.367722 46 
0.42967 -0.0339414 -0.367371 42 
0.427896 -0.0336003 -0.365931 38 
0.428857 -0.0337882 -0.365376 41 
0.429667 -0.0339468 -0.36477 50 
0.43022 -0.0340557 -0.364079 39 
0.431557 -0.0343162 -0.363634 49 
0.430186 -0.0340531 -0.362337 46 
0.430533 -0.0341223 -0.361581 53 
0.431298 -0.0342721 -0.360952 47 
0.430606 -0.0341402 -0.359874 52 
0.432102 -0.0344316 -0.359467 45 
0.43324 -0.0346537 -0.358946 44 
0.432858 -0.0345817 -0.357963 52 
0.431901 -0.0343986 -0.356811 57 
0.432357 -0.0344889 -0.356084 55 
0.431926 -0.0344074 -0.355093 56 
0.433011 -0.0346194 -0.354548 51 
0.433944 -0.0348018 -0.353956 52 
0.433774 -0.0347708 -0.353042 55 
0.433499 -0.0347196 -0.352099 53 
0.435333 -0.0350764 -0.351759 52 
0.433108 -0.034648 -0.350264 59 
0.434043 -0.0348308 -0.349666 59 
0.43398 -0.0348205 -0.348786 67 
0.433864 -0.0348002 -0.347893 61 
0.434592 -0.0349429 -0.347233 57 
0.434372 -0.0349023 -0.346311 64 
0.436639 -0.0353429 -0.346066 60 
0.436098 -0.0352404 -0.345056 55 
0.436887 -0.035395 -0.344405 64 
0.438482 -0.0357055 -0.343964 63 
0.436128 -0.035252 -0.342479 65 
0.436439 -0.0353143 -0.3417 68 
0.436062 -0.0352431 -0.340741 72 
0.435844 -0.035203 -0.339826 65 
0.437112 -0.0354504 -0.339291 75 
0.437001 -0.0354308 -0.338403 74 
0.437262 -0.0354833 -0.337609 83 
0.437897 -0.0356083 -0.336908 72 
0.43816 -0.0356612 -0.336113 75 
0.438104 -0.0356521 -0.335239 74 
0.438368 -0.0357052 -0.334444 75 
0.438526 -0.0357378 -0.333623 72 
0.438417 -0.0357187 -0.332738 82 
0.43879 -0.0357928 -0.331968 83 
0.439056 -0.0358464 -0.331173 83 
0.439217 -0.0358794 -0.330352 86 
0.440184 -0.0360686 -0.329718 83 
0.440184 -0.0360706 -0.328858 81 
0.440131 -0.0360623 -0.327987 87 
0.440563 -0.0361479 -0.327226 77 
0.440834 -0.0362024 -0.326428 87 
0.440675 -0.0361735 -0.325534 92 
0.441163 -0.03627 -0.324784 92 
0.442358 -0.0365033 -0.324186 89 
0.442199 -0.0364745 -0.323292 94 
0.442203 -0.0364772 -0.322433 90 
0.44237 -0.0365116 -0.32161 96 
0.442865 -0.0366093 -0.320855 91 
0.443033 -0.036644 -0.320032 92 
0.442822 -0.036605 -0.319129 89 
0.44321 -0.036682 -0.31835 89 
0.443489 -0.0367382 -0.317549 90 
0.443116 -0.0366678 -0.316615 92 
0.443288 -0.0367031 -0.315792 97 
0.443297 -0.0367068 -0.314937 90 
0.444124 -0.036869 -0.314242 84 
0.444298 -0.0369046 -0.313418 89 
0.445734 -0.0371847 -0.312835 83 
0.44432 -0.0369128 -0.311707 92 
0.444605 -0.0369699 -0.310904 95 
0.444891 -0.0370273 -0.3101 104 
0.445177 -0.0370848 -0.309296 101 
0.44552 -0.0371531 -0.308501 103 
0.44422 -0.0369033 -0.30741 104 
0.445658 -0.0371838 -0.306811 98 
0.445289 -0.0371143 -0.30589 91 
0.445909 -0.0372363 -0.305142 91 
0.446035 -0.0372627 -0.304308 102 
0.445722 -0.037204 -0.303398 98 
0.446014 -0.0372626 -0.302592 94 
0.445593 -0.0371829 -0.301667 91 
0.445666 -0.0371991 -0.300825 90 
0.447006 -0.0374607 -0.300189 97 
0.446475 -0.0373597 -0.299248 94 
0.446165 -0.0373016 -0.298344 96 
0.445582 -0.0371907 -0.297399 99 
0.446153 -0.0373032 -0.296635 103 
0.44601 -0.0372775 -0.295761 97 
0.445868 -0.037252 -0.294887 96 
0.446166 -0.0373116 -0.29408 97 
0.445696 -0.0372226 -0.293159 91 
0.445611 -0.0372081 -0.292297 90 
0.446405 -0.0373638 -0.29156 88 
0.447146 -0.0375094 -0.290814 87 
0.44778 -0.0376342 -0.29005 86 
0.445825 -0.0372574 -0.288928 91 
0.446842 -0.0374563 -0.288217 100 
0.446375 -0.0373679 -0.287304 106 
0.446459 -0.0373861 -0.286466 114 
0.447094 -0.037511 -0.285699 119 
0.447179 -0.0375295 -0.28486 121 
0.447155 -0.0375268 -0.284007 120 
0.446746 -0.0374495 -0.283106 129 
0.446284 -0.0373618 -0.282202 122 
0.446316 -0.0373701 -0.281358 129 
0.445583 -0.0372298 -0.280424 124 
0.446109 -0.0373339 -0.27964 132 
0.445815 -0.0372788 -0.27876 130 
0.445686 -0.0372557 -0.277901 131 
0.445394 -0.0372011 -0.277024 132 
0.444232 -0.0369778 -0.276053 135 
0.444487 -0.037029 -0.275239 137 
0.444035 -0.0369434 -0.27435 139 
0.443369 -0.0368162 -0.273441 132 
0.444221 -0.0369833 -0.272688 141 
0.44361 -0.0368667 -0.271787 141 
0.443325 -0.0368134 -0.27092 132 
0.442072 -0.0365724 -0.269962 146 
0.442328 -0.036624 -0.26915 137 
0.442316 -0.0366235 -0.268313 133 
0.441767 -0.0365191 -0.267429 138 
0.441756 -0.0365189 -0.266593 133 
0.440996 -0.0363735 -0.265694 143 
0.441094 -0.0363943 -0.26487 138 
0.440764 -0.0363323 -0.26401 136 
0.439638 -0.0361157 -0.263088 144 
0.439312 -0.0360545 -0.262233 146 
0.439252 -0.0360448 -0.2614 142 
0.439777 -0.0361484 -0.260611 145 
0.438764 -0.0359539 -0.259708 146 
0.438336 -0.0358729 -0.258851 146 
0.438226 -0.0358535 -0.258017 145 
0.438117 -0.0358342 -0.257185 147 
0.437535 -0.0357232 -0.256321 145 
0.437901 -0.0357961 -0.255521 151 
0.437478 -0.035716 -0.25467 154 
0.437005 -0.035626 -0.253818 158 
0.436062 -0.0354451 -0.252942 154 
0.435073 -0.0352551 -0.252066 154 
0.434658 -0.0351765 -0.251225 156 
0.434504 -0.0351485 -0.250399 156 
0.434247 -0.0351006 -0.249569 163 
0.434353 -0.035123 -0.248758 167 
0.433581 -0.0349751 -0.247905 161 
0.433688 -0.0349978 -0.247095 160 
0.433332 -0.0349305 -0.246264 158 
0.432411 -0.0347538 -0.245412 156 
0.431138 -0.0345086 -0.24455 159 
0.430431 -0.0343734 -0.243714 156 
0.429829 -0.0342584 -0.242884 156 
0.429583 -0.0342125 -0.242069 151 
0.428782 -0.034059 -0.241237 149 
0.428489 -0.0340039 -0.240423 155 
0.427944 -0.0339001 -0.239603 155 
0.428659 -0.0340406 -0.238817 155 
0.427513 -0.0338201 -0.237985 157 
