0.452983,-0.0436633,-0.041867,132
0.45356,-0.0437914,-0.0410842,134
0.452211,-0.0434985,-0.0401256,135
0.452681,-0.0436031,-0.039333,136
0.451976,-0.0434512,-0.0384375,138
0.451116,-0.0432651,-0.0375316,134
0.45026,-0.04308,-0.0366295,135
0.450146,-0.043057,-0.0357908,139
0.450879,-0.0432192,-0.0350195,140
0.449604,-0.0429425,-0.0340911,137
0.449598,-0.042943,-0.0332629,148
0.448908,-0.0427943,-0.0323851,150
0.448484,-0.0427035,-0.0315288,147
0.447799,-0.0425558,-0.0306564,147
0.446857,-0.0423519,-0.0297693,149
0.446439,-0.0422623,-0.0289203,148
0.447529,-0.0425025,-0.0281689,148
0.447632,-0.0425269,-0.0273526,149
0.445864,-0.0421423,-0.0264243,149
0.445656,-0.0420989,-0.0255931,150
0.44514,-0.041988,-0.0247456,149
0.444832,-0.0419225,-0.0239114,147
0.444524,-0.0418572,-0.0230786,156
0.444167,-0.0417809,-0.0222445,156
0.443554,-0.0416489,-0.0213996,158
0.44223,-0.0413615,-0.020524,158
0.442234,-0.0413642,-0.0197128,157
0.441832,-0.0412782,-0.0188843,156
0.441736,-0.041259,-0.0180699,159
0.440325,-0.0409525,-0.0172049,155
0.440483,-0.0409888,-0.0164033,159
0.440086,-0.040904,-0.0155818,156
0.440699,-0.0410398,-0.0147953,160
0.439749,-0.0408341,-0.0139577,151
0.438655,-0.0405967,-0.0131195,153
0.438414,-0.0405459,-0.012309,155
0.437775,-0.0404082,-0.0114892,153
0.437238,-0.0402927,-0.0106744,150
0.437498,-0.0403512,-0.00987904,155
0.437211,-0.0402903,-0.00907185,157
0.436974,-0.0402405,-0.0082667,158
0.436838,-0.0402125,-0.00746409,160
0.435862,-0.040001,-0.00665006,163
0.435038,-0.0398227,-0.00584164,160
0.434267,-0.039656,-0.00503692,163
0.434037,-0.0396075,-0.00423977,161
0.434003,-0.039602,-0.00344482,162
0.434019,-0.0396072,-0.00265024,160
0.433498,-0.0394951,-0.00185405,157
0.433124,-0.0394153,-0.00105999,158
0.432412,-0.0392614,-0.00026763,161
0.433403,-0.0394798,0.000526768,162
0.433518,-0.039507,0.00132084,161
0.432904,-0.0393744,0.00211058,159
0.43341,-0.039487,0.0029075,159
0.433187,-0.0394399,0.0036988,159
0.432964,-0.0393929,0.00448929,156
0.433325,-0.0394739,0.00528724,156
0.432666,-0.0393314,0.00607024,156
0.432979,-0.0394019,0.00686822,158
0.433197,-0.0394512,0.00766553,162
0.433415,-0.0395008,0.00846373,161
0.433927,-0.0396146,0.00926976,165
0.433951,-0.0396218,0.0100654,163
0.433341,-0.0394902,0.0108437,172
0.434687,-0.0397865,0.0116772,165
0.433441,-0.0395158,0.012435,164
0.433565,-0.0395448,0.0132334,161
0.433446,-0.0395205,0.0140239,163
0.433522,-0.039539,0.0148213,164
0.434137,-0.0396753,0.0156399,166
0.433482,-0.0395338,0.0164093,156
0.433413,-0.0395206,0.0172013,159
0.433687,-0.0395824,0.0180084,164
0.433376,-0.0395161,0.0187895,162
0.433944,-0.0396423,0.0196119,162
0.433633,-0.0395761,0.0203926,164
0.434057,-0.0396706,0.0212104,167
0.435465,-0.0399805,0.0220831,168
0.435498,-0.0399896,0.0228845,172
0.435483,-0.0399882,0.0236834,172
0.434877,-0.0398575,0.0244472,168
0.435849,-0.0400719,0.0253058,171
0.435539,-0.040006,0.026087,167
0.435329,-0.0399618,0.0268737,159
0.435021,-0.0398963,0.0276532,165
0.435946,-0.0401006,0.028517,168
0.43633,-0.0401865,0.029346,169
0.435924,-0.0400994,0.030119,166
0.435716,-0.0400558,0.0309055,169
0.4362,-0.0401637,0.0317445,169
0.436241,-0.0401744,0.0325506,167
0.435935,-0.0401094,0.0333293,169
0.435927,-0.0401095,0.0341315,166
0.436415,-0.040218,0.0349756,174
0.436507,-0.0402401,0.0357878,166
0.436501,-0.0402405,0.0365918,165
0.436148,-0.0401652,0.0373648,165
0.436192,-0.0401767,0.0381732,161
0.436683,-0.0402861,0.039024,160
0.436332,-0.040211,0.0397961,166
0.43608,-0.0401579,0.040577,169
0.437818,-0.04054,0.0415551,171
0.438265,-0.0406398,0.0424093,166
0.437464,-0.0404663,0.0431363,170
0.438112,-0.04061,0.044013,174
0.439517,-0.0409194,0.0449737,169
0.437262,-0.0404278,0.0455407,164
0.437762,-0.0405389,0.0464051,168
0.438864,-0.0407822,0.0473399,166
0.43957,-0.0409386,0.0482336,172
0.439321,-0.0408859,0.0490186,166
0.439172,-0.0408553,0.0498151,167
0.439176,-0.0408579,0.0506295,164
0.439936,-0.0410262,0.051537,166
0.439839,-0.0410069,0.0523411,159
0.440248,-0.0410984,0.0532091,169
0.441625,-0.0414017,0.054203,167
0.440362,-0.041127,0.0548588,172
0.440065,-0.0410639,0.0556378,168
0.440021,-0.0410563,0.05645,171
0.440434,-0.0411485,0.0573243,166
0.441306,-0.0413413,0.0582639,169
0.441264,-0.0413341,0.0590794,166
0.441579,-0.041405,0.0599457,173
0.442509,-0.0416105,0.0609019,169
0.442367,-0.0415812,0.0617058,164
0.442429,-0.0415969,0.0625399,164
0.4428,-0.04168,0.0634206,161
0.44271,-0.0416622,0.0642334,162
0.44334,-0.041802,0.0651565,162
0.443766,-0.0418972,0.0660508,160
0.443214,-0.0417783,0.0667935,162
0.444054,-0.0419641,0.0677557,160
0.444587,-0.0420828,0.0686722,162
0.445589,-0.0423043,0.0696678,162
0.445919,-0.0423784,0.0705566,163
0.44625,-0.0424528,0.0714473,164
0.446425,-0.0424931,0.0723135,162
0.446444,-0.0424993,0.0731541,162
0.446725,-0.0425628,0.0740405,162
0.449009,-0.043065,0.0752779,157
0.447554,-0.0427482,0.0758646,162
0.448154,-0.0428817,0.0768131,166
0.448282,-0.0429117,0.077679,166
0.448728,-0.0430113,0.0786038,166
0.449175,-0.0431112,0.0795311,164
0.450103,-0.0433163,0.08055,159
0.450554,-0.0434173,0.0814834,160
0.451704,-0.0436711,0.0825518,159
0.451409,-0.0436085,0.0833476,156
0.451329,-0.0435929,0.0841846,157
0.452917,-0.0439427,0.0853484,160
0.453054,-0.0439747,0.0862318,157
0.452813,-0.0439241,0.0870408,158
0.453276,-0.0440274,0.0879912,156
0.453848,-0.0441548,0.0889664,154
0.454097,-0.0442113,0.0898777,156
0.455437,-0.044507,0.0910171,157
0.455088,-0.0444325,0.0918081,154
0.456107,-0.0446577,0.0928878,153
0.455758,-0.0445832,0.0936798,154
0.456177,-0.0446771,0.0946365,152
0.456597,-0.0447712,0.0955958,146
0.457627,-0.0449988,0.0966908,150
0.457664,-0.0450091,0.0975708,156
0.45809,-0.0451044,0.0985382,150
0.458073,-0.0451028,0.0994082,150
0.458446,-0.0451864,0.100367,153
0.459767,-0.0454781,0.101546,151
0.459027,-0.045318,0.102253,152
0.46069,-0.0456846,0.103519,146
0.459781,-0.0454872,0.104186,149
0.459656,-0.0454619,0.105037,145
0.460484,-0.0456454,0.106116,144
0.461034,-0.045768,0.107132,146
0.461192,-0.0458047,0.108055,144
0.461632,-0.0459033,0.109048,149
0.461736,-0.045928,0.109961,151
0.462462,-0.0460893,0.111029,153
0.462907,-0.046189,0.112031,151
0.4629,-0.0461893,0.112921,149
0.462835,-0.0461773,0.113796,150
0.46317,-0.0462527,0.114775,151
0.463734,-0.0463784,0.115814,149
0.462987,-0.0462168,0.116515,145
0.464581,-0.0465684,0.117829,145
0.464233,-0.0464942,0.118635,141
0.465033,-0.0466715,0.119747,141
0.4648,-0.0466226,0.120585,140
0.464683,-0.0465989,0.121454,139
0.464394,-0.0465377,0.122276,143
0.464049,-0.0464641,0.123083,147
0.464277,-0.0465162,0.124047,151
0.465081,-0.0466946,0.125174,150
0.465081,-0.0466967,0.126079,146
0.464794,-0.0466359,0.126903,152
0.46566,-0.0468279,0.128055,156
0.46451,-0.0465778,0.128633,151
0.464168,-0.0465048,0.12944,150
0.464573,-0.0465958,0.130465,150
0.464519,-0.046586,0.131357,144
0.464293,-0.0465385,0.132198,144
0.4647,-0.0466299,0.133228,148
0.463499,-0.0463685,0.133779,144
0.464423,-0.0465733,0.134965,143
0.464314,-0.0465515,0.135843,142
0.463401,-0.0463535,0.136476,148
0.463408,-0.0463571,0.137389,146
0.4629,-0.0462477,0.138143,149
0.462622,-0.0461887,0.138967,155
0.461432,-0.0459299,0.139506,154
0.461554,-0.0459588,0.140453,152
0.460597,-0.045751,0.14106,154
0.460493,-0.0457301,0.141936,151
0.459936,-0.0456101,0.142667,155
0.459833,-0.0455895,0.143542,156
0.459673,-0.0455566,0.1444,156
0.459345,-0.0454867,0.145203,148
0.458511,-0.0453057,0.145838,152
0.458072,-0.0452116,0.146602,151
0.457747,-0.0451423,0.147403,153
0.457759,-0.045147,0.148316,151
0.457099,-0.0450042,0.149004,158
0.456217,-0.044813,0.149614,153
0.456732,-0.0449281,0.150698,146
0.456076,-0.0447861,0.151383,149
0.456368,-0.0448524,0.152394,154
0.456494,-0.0448821,0.153348,156
0.455005,-0.0445573,0.15374,151
0.454964,-0.0445504,0.154635,149
0.455757,-0.0447267,0.155826,155
0.454273,-0.0444029,0.156211,147
0.453514,-0.0442385,0.15685,139
0.453309,-0.0441956,0.157686,133
0.452608,-0.044044,0.158343,133
0.453617,-0.0442676,0.15962,130
0.451653,-0.0438384,0.159813,134
0.451889,-0.0438923,0.160809,134
0.45218,-0.0439584,0.161828,132
0.4505,-0.0435916,0.162114,131
0.450408,-0.0435736,0.162989,135
0.450262,-0.0435437,0.163844,128
0.450117,-0.0435138,0.1647,122
0.450026,-0.0434961,0.165576,115
0.449011,-0.0432754,0.166099,116
0.448001,-0.0430556,0.166621,119
0.448778,-0.0432283,0.167831,127
0.447769,-0.0430089,0.16835,127
0.447033,-0.0428494,0.168972,122
0.446407,-0.0427141,0.169636,127
0.445837,-0.0425909,0.170319,120
0.445857,-0.0425974,0.171236,110
0.446253,-0.0426864,0.172304,110
0.445951,-0.0426223,0.173094,99
0.445757,-0.0425819,0.173927,106
0.446747,-0.0428013,0.175241,98
0.447309,-0.0429268,0.176385,103
0.44744,-0.0429577,0.177355,102
0.446868,-0.0428343,0.178038,112
0.447054,-0.0428772,0.179032,98
0.447619,-0.0430034,0.180187,102
0.446723,-0.0428089,0.180733,94
0.447343,-0.0429471,0.181913,100
0.447151,-0.0429071,0.182755,104
0.447068,-0.042891,0.183642,110
0.446607,-0.0427918,0.184369,108
0.447608,-0.0430139,0.185722,107
0.447581,-0.04301,0.186636,101
0.448479,-0.0432095,0.187953,99
0.44878,-0.0432778,0.189014,95
0.447337,-0.0429628,0.189314,94
0.446659,-0.0428161,0.189946,86
0.447448,-0.0429915,0.191223,90
0.448294,-0.0431796,0.19253,88
0.448051,-0.0431283,0.193356,92
0.448245,-0.0431731,0.194377,95
0.448549,-0.043242,0.19545,98
0.447541,-0.0430228,0.195932,96
0.448228,-0.0431758,0.197181,97
0.448095,-0.0431488,0.198059,126
0.448346,-0.0432061,0.199114,87
0.449477,-0.0434569,0.200576,98
0.44918,-0.0433938,0.201383,102
0.349655,-0.018006,-0.165056,9
0.437005,-0.0362929,-0.206503,13
0.43525,-0.0359276,-0.204736,11
0.438746,-0.0366615,-0.205496,9
0.285389,-0.00455826,-0.131711,9
0.440077,-0.0369445,-0.204284,16
0.443542,-0.037672,-0.205,10
0.26688,-0.000686959,-0.121345,9
0.432036,-0.0352674,-0.197743,17
0.438381,-0.0365978,-0.199801,14
0.436208,-0.036145,-0.197874,11
0.434315,-0.0357507,-0.196087,15
0.4368,-0.0362731,-0.196325,13
0.432656,-0.0354077,-0.193515,13
0.434557,-0.0358077,-0.193481,11
0.435751,-0.0360599,-0.193119,10
0.431281,-0.0351259,-0.190194,12
0.43516,-0.0359404,-0.191043,14
0.433182,-0.0355282,-0.189255,14
0.435034,-0.0359181,-0.189182,14
0.430738,-0.0350203,-0.186376,20
0.42821,-0.034493,-0.18437,11
0.432786,-0.0354535,-0.185495,19
0.43397,-0.0357036,-0.185119,20
0.433325,-0.0355706,-0.183943,20
0.434461,-0.0358105,-0.183542,15
0.435603,-0.0360516,-0.183139,16
0.435465,-0.0360249,-0.182184,18
0.435687,-0.0360735,-0.181384,21
0.435499,-0.0360362,-0.18041,21
0.434648,-0.03586,-0.179157,21
0.435381,-0.0360155,-0.178574,21
0.434125,-0.0357544,-0.177157,24
0.43455,-0.0358456,-0.176446,21
0.432745,-0.0354695,-0.174811,20
0.434334,-0.0358044,-0.174582,19
0.43334,-0.0355982,-0.173289,19
0.432402,-0.0354037,-0.172023,19
0.436332,-0.0362291,-0.172737,22
0.437225,-0.0364183,-0.17221,24
0.434029,-0.0357508,-0.170038,26
0.435168,-0.0359913,-0.169611,21
0.43392,-0.035732,-0.168232,21
0.431978,-0.0353271,-0.166585,23
0.435793,-0.0361284,-0.16721,25
0.434392,-0.0358368,-0.16578,29
0.433303,-0.0356107,-0.164479,31
0.434083,-0.0357763,-0.163905,26
0.434258,-0.035815,-0.163097,29
0.435754,-0.0361304,-0.162794,28
0.435574,-0.0360947,-0.161847,30
0.434432,-0.0358573,-0.160538,27
0.435724,-0.0361303,-0.160151,29
0.434886,-0.0359566,-0.158961,31
0.434153,-0.035805,-0.157815,34
0.434128,-0.0358018,-0.156935,30
0.434811,-0.035947,-0.156317,31
0.435598,-0.0361138,-0.155734,31
0.435421,-0.0360788,-0.154798,30
0.435093,-0.0360121,-0.153809,35
0.434918,-0.0359774,-0.152877,34
0.437182,-0.0364539,-0.152819,37
0.435886,-0.0361842,-0.151486,34
0.437135,-0.0364482,-0.15106,31
0.435892,-0.0361895,-0.149751,35
0.436937,-0.0364107,-0.14925,32
0.43717,-0.0364616,-0.148463,35
0.434968,-0.0360017,-0.146833,34
0.436111,-0.0362434,-0.146363,35
0.437668,-0.0365719,-0.146031,37
0.438056,-0.0366553,-0.145295,36
0.436812,-0.0363964,-0.144008,33
0.439504,-0.0369628,-0.144048,30
0.439072,-0.0368743,-0.143035,39
0.437263,-0.0364969,-0.141567,42
0.438828,-0.0368271,-0.141221,41
0.437175,-0.0364825,-0.139814,42
0.437973,-0.0366517,-0.139212,47
0.437904,-0.0366393,-0.138328,50
0.438448,-0.0367555,-0.137641,42
0.439559,-0.0369904,-0.137135,46
0.440882,-0.0372698,-0.136692,49
0.44004,-0.0370951,-0.13556,42
0.439304,-0.0369428,-0.134467,47
0.440162,-0.0371247,-0.133873,53
0.440919,-0.0372856,-0.133246,46
0.442043,-0.0375233,-0.132729,46
0.442599,-0.0376419,-0.132035,44
0.441391,-0.0373905,-0.130803,47
0.441946,-0.037509,-0.130109,56
0.44028,-0.0371615,-0.128747,54
0.441763,-0.0374745,-0.12833,56
0.442061,-0.037539,-0.127558,54
0.441427,-0.037408,-0.126511,50
0.441777,-0.0374834,-0.125755,54
0.443218,-0.0377877,-0.125314,52
0.442531,-0.0376455,-0.124255,56
0.44226,-0.0375907,-0.123319,62
0.443705,-0.0378958,-0.122871,63
0.444008,-0.0379612,-0.122096,60
0.44405,-0.037972,-0.121248,63
0.44451,-0.0380706,-0.120517,61
0.444135,-0.0379939,-0.119553,66
0.444806,-0.0381366,-0.118879,62
0.444902,-0.0381587,-0.118046,67
0.444527,-0.0380821,-0.117086,67
0.445095,-0.0382033,-0.116381,63
0.445612,-0.0383138,-0.115661,64
0.446605,-0.0385241,-0.115064,68
0.446493,-0.0385025,-0.114175,63
0.446013,-0.0384038,-0.113192,68
0.446639,-0.0385371,-0.112496,73
0.446634,-0.038538,-0.111637,66
0.446892,-0.0385943,-0.110845,69
0.44731,-0.038684,-0.110093,70
0.448312,-0.0388963,-0.109486,71
0.448468,-0.0389309,-0.108666,84
0.448305,-0.0388988,-0.107767,75
0.448462,-0.0389336,-0.106947,78
0.449097,-0.0390689,-0.106244,76
0.449308,-0.0391152,-0.105436,79
0.448828,-0.0390164,-0.104464,77
0.449679,-0.0391969,-0.103808,87
0.449359,-0.0391317,-0.102875,80
0.449678,-0.0392008,-0.102093,80
0.449466,-0.0391581,-0.101187,82
0.45016,-0.0393059,-0.10049,85
0.451125,-0.0395104,-0.0998524,89
0.450912,-0.0394677,-0.0989467,90
0.450968,-0.0394814,-0.0981022,80
0.450918,-0.0394728,-0.0972344,87
0.450546,-0.0393968,-0.0962972,93
0.451783,-0.0396585,-0.0957107,93
0.451949,-0.0396952,-0.0948897,88
0.453086,-0.0399359,-0.0942754,84
0.451959,-0.0397013,-0.0931794,84
0.45218,-0.0397497,-0.0923701,95
0.452887,-0.0399001,-0.0916612,83
0.452948,-0.0399149,-0.0908173,87
0.454363,-0.040214,-0.0902491,90
0.454045,-0.0401492,-0.0893269,93
0.453837,-0.0401074,-0.0884282,95
0.4539,-0.0401227,-0.0875844,92
0.455323,-0.0404234,-0.0870067,96
0.455332,-0.0404274,-0.0861504,98
0.454636,-0.040283,-0.085159,85
0.455136,-0.0403901,-0.084398,95
0.454767,-0.0403146,-0.0834723,97
0.454725,-0.0403077,-0.0826091,96
0.454738,-0.0403124,-0.0817567,89
0.455132,-0.0403971,-0.080974,93
0.455472,-0.0404706,-0.0801807,92
0.455432,-0.0404642,-0.0793186,83
0.456758,-0.0407447,-0.0786979,74
0.456555,-0.0407039,-0.0778059,83
0.456024,-0.0405945,-0.0768587,91
0.45752,-0.0409106,-0.0762593,88
0.456004,-0.0405941,-0.0751471,92
0.456952,-0.0407951,-0.0744514,93
0.456587,-0.0407205,-0.0735365,93
0.458253,-0.0410725,-0.0729539,88
0.457338,-0.0408822,-0.0719501,96
0.457962,-0.0410154,-0.0711949,100
0.456886,-0.0407912,-0.0701707,91
0.457785,-0.040982,-0.0694573,93
0.458137,-0.0410579,-0.068657,88
0.45827,-0.0410878,-0.0678227,90
0.457633,-0.0409561,-0.0668733,90
0.456835,-0.0407904,-0.065903,100
0.456969,-0.0408205,-0.0650716,97
0.458036,-0.0410467,-0.064374,95
0.457513,-0.0409387,-0.0634474,89
0.457924,-0.0410269,-0.0626537,98
0.45806,-0.0410576,-0.061821,99
0.457923,-0.0410307,-0.0609508,102
0.457787,-0.041004,-0.0600816,98
0.45875,-0.0412085,-0.0593586,102
0.457845,-0.0410202,-0.0583889,107
0.457601,-0.0409708,-0.0575079,118
0.4584,-0.0411408,-0.0567598,115
0.457553,-0.0409647,-0.0558043,120
0.457585,-0.0409734,-0.0549599,123
0.457727,-0.0410052,-0.054129,118
0.45798,-0.0410603,-0.0533109,123
0.457301,-0.0409196,-0.0523835,123
0.456735,-0.0408025,-0.0514718,121
0.456879,-0.0408348,-0.0506428,127
0.456915,-0.0408442,-0.0498015,123
0.456624,-0.040785,-0.0489247,126
0.456933,-0.040852,-0.0481136,127
0.45599,-0.0406558,-0.0471698,133
0.455594,-0.0405744,-0.0462863,125
0.454929,-0.0404365,-0.0453773,130
0.454914,-0.0404353,-0.0445358,126
0.45463,-0.0403775,-0.0436683,134
0.454778,-0.0404106,-0.0428436,129
0.453204,-0.0400817,-0.0418569,138
0.452924,-0.0400248,-0.0409954,137
0.453127,-0.0400693,-0.0401786,137
0.452635,-0.0399677,-0.0393,138
0.452144,-0.0398664,-0.0384237,145
0.452241,-0.0398888,-0.037599,139
0.451114,-0.0396538,-0.0366732,138
0.450841,-0.0395983,-0.0358207,137
0.450993,-0.0396321,-0.0350028,139
0.449769,-0.0393767,-0.034079,149
0.449605,-0.0393441,-0.0332393,140
0.448548,-0.0391237,-0.0323353,140
0.448595,-0.0391356,-0.0315139,144
0.448434,-0.0391036,-0.0306781,142
0.447176,-0.038841,-0.0297693,148
0.447904,-0.0389959,-0.0289952,149
0.448477,-0.0391184,-0.0282087,151
0.448319,-0.0390869,-0.0273752,154
0.44696,-0.0388031,-0.0264708,148
0.446077,-0.0386193,-0.0255991,157
0.44587,-0.0385776,-0.0247687,158
0.445405,-0.0384818,-0.0239253,154
0.44453,-0.0382997,-0.0230625,154
0.44443,-0.0382803,-0.0222419,151
0.443202,-0.038024,-0.0213674,158
0.442593,-0.0378977,-0.0205264,162
0.442546,-0.0378897,-0.0197128,164
0.442194,-0.0378175,-0.0188865,157
0.441792,-0.0377349,-0.0180596,160
0.441544,-0.0376846,-0.0172403,159
0.441601,-0.0376984,-0.0164332,161
0.441152,-0.0376058,-0.0156083,158
0.440957,-0.0375667,-0.0147936,156
0.439353,-0.0372311,-0.0139357,155
0.439411,-0.0372453,-0.0131327,158
0.439069,-0.0371752,-0.0123186,162
0.438879,-0.0371369,-0.0115097,161
0.43799,-0.0369517,-0.010685,153
0.437851,-0.0369243,-0.00988013,155
0.437414,-0.0368343,-0.00906987,149
0.437376,-0.0368282,-0.00826849,158
0.435607,-0.0364577,-0.00743937,159
0.435472,-0.0364312,-0.00664023,163
0.435682,-0.0364773,-0.0058459,157
0.435155,-0.0363681,-0.00504308,157
0.434384,-0.0362077,-0.00424019,157
0.436616,-0.0366792,-0.00346027,162
0.434267,-0.0361869,-0.00265001,158
0.433892,-0.0361098,-0.00185434,158
0.434251,-0.0361872,-0.00106082,160
0.43422,-0.0361823,-0.000266295,160
0.434042,-0.0361467,0.000527717,160
0.43406,-0.0361524,0.00132198,161
0.434177,-0.0361788,0.00211698,155
0.434245,-0.036195,0.00291204,158
0.434216,-0.0361908,0.00370637,162
0.433894,-0.0361248,0.00449705,164
0.435683,-0.0365031,0.00531632,153
0.434426,-0.0362405,0.00609368,156
0.434106,-0.0361749,0.00688307,155
0.434079,-0.0361712,0.00767713,158
0.434446,-0.0362501,0.00847964,162
0.434519,-0.0362673,0.00927669,158
0.433858,-0.0361299,0.0100554,161
0.43447,-0.0362607,0.0108665,165
0.433908,-0.0361442,0.0116456,160
0.434375,-0.0362443,0.0124548,165
0.434695,-0.0363137,0.0132609,166
0.435411,-0.0364662,0.0140822,163
0.435834,-0.036557,0.0148954,158
0.434877,-0.0363574,0.015657,159
0.4353,-0.0364482,0.016471,159
0.434298,-0.0362391,0.0172263,163
0.433838,-0.0361441,0.0180019,163
0.434211,-0.0362245,0.0188144,159
0.434683,-0.0363258,0.0196332,167
0.434764,-0.0363447,0.0204343,166
0.435486,-0.0364984,0.0212692,168
0.436804,-0.036778,0.0221391,170
0.436442,-0.0367034,0.0229203,169
0.436327,-0.0366812,0.0237147,170
0.43567,-0.0365446,0.0244765,170
0.436002,-0.0366163,0.0252967,160
0.436235,-0.0366674,0.0261121,167
0.435975,-0.0366144,0.0268963,163
0.436606,-0.0367492,0.0277395,169
0.437041,-0.0368426,0.0285717,173
0.43698,-0.0368316,0.0293706,167
0.437218,-0.0368835,0.0301912,168
0.43676,-0.036789,0.030961,165
0.437148,-0.0368726,0.0317939,160
0.437139,-0.0368725,0.0325974,168
0.436931,-0.0368306,0.0333851,166
0.437073,-0.0368622,0.0342009,163
0.438062,-0.0370725,0.0350888,171
0.438555,-0.0371783,0.0359381,162
0.438549,-0.0371788,0.0367454,164
0.437644,-0.03699,0.0374721,162
0.437688,-0.0370012,0.0382828,167
0.437634,-0.0369916,0.0390846,158
0.43883,-0.0372456,0.0400061,163
0.438226,-0.03712,0.0407567,169
0.439629,-0.0374174,0.0417048,170
0.439274,-0.0373446,0.0424805,167
0.439574,-0.0374097,0.0433227,169
0.439875,-0.0374751,0.0441663,168
0.440127,-0.03753,0.0450061,171
0.439875,-0.0374787,0.0457922,170
0.440027,-0.0375126,0.0466225,168
0.440028,-0.0375147,0.0474365,169
0.440181,-0.0375489,0.0482683,168
0.440133,-0.0375406,0.0490775,166
0.441048,-0.0377352,0.0500009,170
0.440595,-0.0376417,0.0507634,160
0.441259,-0.0377834,0.0516611,163
0.442436,-0.0380334,0.0526254,170
0.440964,-0.037725,0.0532603,170
0.441325,-0.0378031,0.0541247,163
0.442096,-0.0379674,0.0550441,162
0.442358,-0.0380246,0.0558996,162
0.442775,-0.0381145,0.0567772,164
0.443554,-0.0382804,0.0577058,171
0.443872,-0.0383493,0.0585743,165
0.443315,-0.0382339,0.0593223,165
0.444666,-0.0385205,0.0603383,165
0.443541,-0.0382854,0.061005,163
0.444999,-0.0385945,0.0620429,163
0.44439,-0.038468,0.0627825,165
0.445179,-0.0386363,0.0637287,158
0.444415,-0.0384772,0.0644436,165
0.444532,-0.0385038,0.0652908,163
0.446261,-0.0388701,0.0663886,166
0.446224,-0.0388642,0.0672163,167
0.446657,-0.0389575,0.0681191,158
0.44704,-0.0390401,0.0690157,159
0.446743,-0.0389795,0.0698037,162
0.446813,-0.0389961,0.0706513,161
0.44725,-0.0390902,0.0715607,163
0.44811,-0.0392734,0.0725435,163
0.449239,-0.0395134,0.0735758,158
0.449365,-0.039542,0.0744402,166
0.449015,-0.0394702,0.0752225,163
0.449939,-0.0396668,0.0762282,163
0.45044,-0.0397744,0.0771628,158
0.450197,-0.0397251,0.0779656,159
0.451448,-0.039991,0.0790401,163
0.451205,-0.0399417,0.0798449,157
0.452411,-0.0401978,0.0809185,156
0.45249,-0.0402166,0.0817858,160
0.45284,-0.0402924,0.0827051,159
0.453624,-0.0404596,0.0837095,159
0.453436,-0.0404219,0.084529,157
0.45553,-0.0408656,0.0857951,161
0.45556,-0.0408739,0.0866617,155
0.454282,-0.0406064,0.087268,159
0.454857,-0.0407296,0.0882431,152
0.455762,-0.0409225,0.0892882,153
0.45574,-0.0409197,0.0901467,153
0.456431,-0.0410674,0.0911536,153
0.456519,-0.0410881,0.0920376,153
0.457269,-0.0412483,0.0930623,157
0.457635,-0.0413276,0.0940086,151
0.45828,-0.0414655,0.0950167,156
0.45815,-0.0414402,0.0958598,154
0.458909,-0.0416023,0.0968975,151
0.459504,-0.0417298,0.0979026,156
0.45893,-0.0416107,0.0986498,150
0.460085,-0.0418564,0.0997844,148
0.459455,-0.0417254,0.100519,148
0.460278,-0.0419011,0.101584,147
0.461274,-0.0421133,0.102693,148
0.46081,-0.0420175,0.103467,147
0.461022,-0.0420642,0.104397,150
0.460953,-0.0420516,0.105263,148
0.461955,-0.0422651,0.106385,151
0.461548,-0.0421814,0.107172,152
0.462046,-0.0422884,0.108178,151
0.462148,-0.0423121,0.10909,152
0.462819,-0.0424556,0.110142,155
0.46298,-0.0424917,0.111072,152
0.46394,-0.0426962,0.112203,147
0.463818,-0.0426726,0.113065,153
0.464668,-0.0428541,0.114174,151
0.463519,-0.0426136,0.114775,153
0.464026,-0.0427228,0.1158,148
0.465052,-0.0429413,0.116962,147
0.464188,-0.0427609,0.117633,142
0.464699,-0.0428709,0.118666,142
0.464925,-0.0429207,0.119624,143
0.46475,-0.0428858,0.120477,144
0.46469,-0.0428752,0.121361,139
0.464803,-0.0429011,0.122292,147
0.464285,-0.0427938,0.123051,147
0.464915,-0.042929,0.124127,145
0.465203,-0.0429918,0.12511,150
0.464743,-0.0428968,0.125885,153
0.464514,-0.0428505,0.126724,157
0.464572,-0.042865,0.127645,149
0.464287,-0.0428068,0.128468,148
0.46521,-0.0430037,0.12964,148
0.464579,-0.0428727,0.130364,149
0.463836,-0.0427179,0.131054,149
0.463725,-0.0426965,0.131928,148
0.463557,-0.0426632,0.132785,147
0.463333,-0.0426179,0.133625,147
0.46351,-0.0426574,0.134585,154
0.463172,-0.0425881,0.135391,155
0.46272,-0.0424949,0.136162,152
0.463127,-0.0425829,0.137195,150
0.462049,-0.0423573,0.137773,151
0.462113,-0.042373,0.138701,148
0.462235,-0.0424008,0.139648,155
0.462243,-0.0424047,0.140561,160
0.460659,-0.0420721,0.14097,158
0.459649,-0.041861,0.141557,151
0.45915,-0.0417578,0.142304,153
0.459329,-0.0417976,0.143269,153
0.459226,-0.0417779,0.144143,159
0.458898,-0.0417107,0.144945,157
0.457504,-0.0414185,0.145395,155
0.457515,-0.0414229,0.146305,157
0.457302,-0.04138,0.147142,156
0.457202,-0.0413609,0.148016,155
0.456431,-0.0412002,0.148665,159
0.456555,-0.0412285,0.149614,156
0.456345,-0.0411861,0.15045,150
0.455856,-0.041085,0.151192,143
0.456148,-0.0411487,0.152201,144
0.455827,-0.0410831,0.153,141
0.455118,-0.0409354,0.153662,141
0.454467,-0.0407999,0.154343,148
0.455816,-0.0410869,0.155728,142
0.453832,-0.04067,0.155936,141
0.454346,-0.0407806,0.157028,146
0.453366,-0.0405756,0.157587,141
0.453216,-0.0405461,0.158443,139
0.452571,-0.0404119,0.159118,138
0.451983,-0.0402898,0.159813,129
0.452439,-0.0403883,0.16089,123
0.451413,-0.0401736,0.161422,122
0.450828,-0.0400521,0.162114,130
0.449755,-0.0398274,0.162622,133
0.450481,-0.0399829,0.163803,125
0.44979,-0.0398391,0.164452,123
0.449156,-0.0397071,0.165121,111
0.450373,-0.0399664,0.166495,109
0.448055,-0.0394786,0.166517,108
0.448832,-0.039645,0.167726,113
0.446852,-0.0392285,0.167868,116
0.44671,-0.0392006,0.16872,121
0.447106,-0.0392864,0.169784,114
0.446534,-0.0391675,0.170468,109
0.446554,-0.0391739,0.171385,113
0.447113,-0.0392942,0.172518,108
0.447945,-0.0394722,0.173764,106
0.446778,-0.0392275,0.174209,108
0.44761,-0.0394055,0.175459,101
0.446821,-0.039241,0.176055,102
0.448143,-0.0395225,0.177511,94
0.446543,-0.0391864,0.177771,101
0.448136,-0.0395253,0.179346,93
0.447672,-0.0394292,0.180074,98
0.447154,-0.0393219,0.180778,102
0.446962,-0.0392834,0.181618,97
0.447258,-0.039348,0.182663,96
0.448752,-0.039666,0.184219,102
0.447852,-0.0394779,0.184762,98
0.44766,-0.0394396,0.185605,103
0.449051,-0.0397357,0.187129,99
0.447986,-0.0395128,0.187599,97
0.448014,-0.0395207,0.188539,98
0.44908,-0.0397483,0.189934,96
0.44889,-0.0397102,0.190783,91
0.449083,-0.0397533,0.191801,93
0.449113,-0.0397617,0.192748,94
0.448212,-0.0395734,0.193283,100
0.447423,-0.0394087,0.193865,93
0.447835,-0.039498,0.194983,98
0.448796,-0.0397033,0.196352,96
0.447896,-0.0395152,0.196883,103
0.449519,-0.0398606,0.19856,137
0.449496,-0.0398579,0.199491,96
0.448484,-0.0396461,0.199969,102
0.449012,-0.0397598,0.201154,102
0.316359,-0.00853548,-0.148946,10
0.442077,-0.0338252,-0.208823,11
0.447266,-0.0348711,-0.210389,12
0.4386,-0.03313,-0.205295,11
0.436262,-0.0326618,-0.203258,13
0.443763,-0.0341729,-0.205903,9
0.440521,-0.0335228,-0.203439,10
0.430769,-0.0315631,-0.197928,12
0.860188,-0.117954,-0.39901,12
0.432362,-0.0318878,-0.196868,12
0.439609,-0.0333478,-0.199327,12
0.431071,-0.0316322,-0.194466,15
0.439735,-0.0333774,-0.19755,11
0.435738,-0.0325753,-0.194804,17
0.436939,-0.0328191,-0.194444,10
0.434428,-0.0323158,-0.192397,11
0.435313,-0.0324961,-0.191894,12
0.43838,-0.0331153,-0.192368,18
0.433245,-0.032084,-0.189164,18
0.433717,-0.0321812,-0.188477,12
0.433783,-0.0321965,-0.187608,16
0.438799,-0.0332079,-0.188922,19
0.434784,-0.032402,-0.186255,15
0.435773,-0.0326032,-0.185789,16
0.435943,-0.0326395,-0.184965,17
0.435036,-0.0324589,-0.183675,15
0.432207,-0.0318916,-0.181563,18
0.43759,-0.0329771,-0.182978,20
0.435598,-0.0325782,-0.181231,14
0.439598,-0.0333854,-0.182033,21
0.436762,-0.0328168,-0.179935,20
0.433409,-0.0321437,-0.177634,18
0.434851,-0.032436,-0.177349,19
0.433345,-0.032135,-0.175834,15
0.435501,-0.032571,-0.17584,19
0.433283,-0.0321265,-0.17404,22
0.435795,-0.0326343,-0.174184,19
0.432919,-0.0320574,-0.172126,19
0.436603,-0.0328011,-0.172737,25
0.437137,-0.0329107,-0.172064,20
0.43562,-0.0326073,-0.170568,26
0.432651,-0.0320114,-0.1685,22
0.43602,-0.0326918,-0.168959,32
0.438509,-0.0331951,-0.169058,24
0.437808,-0.0330559,-0.167895,22
0.435881,-0.03267,-0.166257,24
0.435649,-0.0326252,-0.165286,28
0.436591,-0.032817,-0.164771,26
0.433062,-0.0321084,-0.162534,27
0.434348,-0.0323693,-0.162153,22
0.438201,-0.0331473,-0.162743,26
0.438328,-0.0331749,-0.16191,29
0.436046,-0.0327173,-0.16017,29
0.43817,-0.0331472,-0.160089,24
0.437476,-0.0330094,-0.158951,34
0.435409,-0.0325951,-0.15731,30
0.435334,-0.0325819,-0.15641,28
0.435715,-0.0326608,-0.155678,27
0.43564,-0.0326477,-0.15478,35
0.435312,-0.0325836,-0.15379,34
0.436355,-0.0327958,-0.153297,34
0.437148,-0.0329574,-0.15271,35
0.434889,-0.0325044,-0.151035,40
0.437051,-0.0329418,-0.150933,38
0.436824,-0.0328982,-0.149984,36
0.437261,-0.0329882,-0.149268,27
0.438519,-0.0332436,-0.148837,38
0.437115,-0.0329629,-0.147482,35
0.438475,-0.0332389,-0.147082,32
0.437431,-0.0330304,-0.145856,35
0.437717,-0.03309,-0.145087,36
0.438054,-0.03316,-0.144335,36
0.442479,-0.0340536,-0.144953,36
0.43868,-0.0332902,-0.142812,38
0.439226,-0.0334021,-0.142127,42
0.437926,-0.0331421,-0.140833,38
0.438675,-0.033295,-0.140215,42
0.44056,-0.033677,-0.139965,42
0.439974,-0.0335609,-0.138908,43
0.441041,-0.0337778,-0.138386,47
0.441645,-0.0339016,-0.137712,41
0.441006,-0.0337747,-0.136642,45
0.441247,-0.0338254,-0.135854,46
0.440456,-0.0336678,-0.134741,49
0.440853,-0.0337498,-0.134002,46
0.442444,-0.0340725,-0.133631,53
0.441909,-0.0339666,-0.132601,53
0.441272,-0.0338402,-0.131543,48
0.441878,-0.0339645,-0.130866,50
0.443008,-0.0341941,-0.130344,51
0.440661,-0.0337232,-0.128778,53
0.443032,-0.0342029,-0.128624,54
0.444534,-0.0345077,-0.128205,56
0.443422,-0.0342856,-0.127014,56
0.44268,-0.0341381,-0.125936,56
0.443501,-0.0343056,-0.125314,54
0.444692,-0.0345476,-0.124795,60
0.4451,-0.0346319,-0.124049,59
0.444617,-0.0345364,-0.123049,57
0.445131,-0.0346419,-0.122332,61
0.446384,-0.0348966,-0.121821,60
0.445373,-0.0346947,-0.120677,56
0.444524,-0.0345256,-0.119582,61
0.445774,-0.0347796,-0.119065,62
0.445923,-0.0348117,-0.118245,61
0.44581,-0.0347907,-0.117355,65
0.446117,-0.0348548,-0.116578,65
0.446637,-0.0349616,-0.115856,65
0.447423,-0.035122,-0.115204,61
0.447204,-0.0350799,-0.114286,63
0.446986,-0.0350379,-0.11337,66
0.447615,-0.0351667,-0.112673,64
0.447663,-0.0351783,-0.111826,78
0.44787,-0.035222,-0.111019,71
0.447495,-0.0351483,-0.110066,75
0.448498,-0.0353526,-0.10946,70
0.448654,-0.035386,-0.108639,78
0.448597,-0.0353766,-0.107767,72
0.449286,-0.0355176,-0.107077,73
0.449177,-0.0354976,-0.106192,71
0.451316,-0.0359309,-0.105848,77
0.450027,-0.035673,-0.104679,84
0.449759,-0.0356209,-0.103758,84
0.450347,-0.0357414,-0.103038,84
0.450347,-0.0357433,-0.10218,87
0.451043,-0.0358859,-0.101483,79
0.450991,-0.0358772,-0.100613,85
0.45126,-0.0359336,-0.099816,84
0.451477,-0.0359792,-0.099007,92
0.452233,-0.0361337,-0.0983175,90
0.452397,-0.0361688,-0.0974953,97
0.452454,-0.0361823,-0.0966495,95
0.45235,-0.0361633,-0.0957691,98
0.453219,-0.0363405,-0.0950982,94
0.453115,-0.0363216,-0.0942179,89
0.453933,-0.0364886,-0.0935326,90
0.453397,-0.0363824,-0.0925618,89
0.453782,-0.0364621,-0.0917844,90
0.454603,-0.0366298,-0.0910952,91
0.454285,-0.0365674,-0.0901719,96
0.455272,-0.0367687,-0.0895129,100
0.455171,-0.0367503,-0.0886339,92
0.454581,-0.0366333,-0.0876594,95
0.455954,-0.0369122,-0.0870707,84
0.455745,-0.0368721,-0.0861715,89
0.455592,-0.0368431,-0.0852842,95
0.455821,-0.0368914,-0.0844704,97
0.456216,-0.036973,-0.0836871,94
0.456337,-0.0369995,-0.0828522,97
0.456569,-0.0370482,-0.0820374,98
0.457131,-0.0371636,-0.0812822,98
0.456706,-0.0370798,-0.0803478,97
0.456775,-0.0370957,-0.0795034,98
0.456461,-0.0370344,-0.0785918,94
0.457245,-0.0371945,-0.0778727,95
0.456658,-0.0370779,-0.0769152,82
0.456729,-0.0370944,-0.0760724,81
0.456473,-0.0370446,-0.0751747,79
0.456491,-0.0370502,-0.0743239,88
0.456455,-0.0370449,-0.0734646,81
0.456748,-0.0371059,-0.0726592,81
0.456439,-0.0370456,-0.0717566,77
0.457007,-0.0371622,-0.0709945,75
0.456863,-0.0371352,-0.0701192,80
0.456447,-0.0370532,-0.0692027,87
0.456798,-0.0371259,-0.0684052,89
0.457533,-0.0372763,-0.0676649,88
0.458657,-0.0375051,-0.06698,82
0.458736,-0.0375231,-0.0661375,95
0.457714,-0.0373188,-0.0651353,96
0.457575,-0.0372926,-0.0642637,95
0.457162,-0.0372112,-0.0633544,95
0.457792,-0.0373403,-0.0625923,106
0.457599,-0.0373034,-0.0617151,103
0.457847,-0.0373553,-0.0608986,109
0.45771,-0.0373297,-0.0600302,113
0.458398,-0.0374707,-0.0592714,120
0.457714,-0.0373343,-0.0583319,121
0.457141,-0.0372206,-0.0574097,123
0.457062,-0.0372067,-0.0565522,133
0.457587,-0.0373145,-0.0557702,130
0.45718,-0.0372344,-0.0548728,124
0.457104,-0.0372209,-0.0540169,131
0.457192,-0.0372406,-0.053181,126
0.457007,-0.0372052,-0.0523134,133
0.456714,-0.0371479,-0.0514343,132
0.455823,-0.03697,-0.0504892,131
0.456185,-0.037045,-0.0496867,129
0.456276,-0.0370653,-0.0488534,139
0.45528,-0.0368662,-0.047904,143
0.454885,-0.0367882,-0.0470215,139
0.454977,-0.0368088,-0.0461912,131
0.455178,-0.0368513,-0.0453718,130
0.454353,-0.0366865,-0.0444499,133
0.454285,-0.0366747,-0.0436051,137
0.453787,-0.036576,-0.0427198,141
0.453881,-0.0365971,-0.0418922,141
0.453654,-0.0365531,-0.0410348,138
0.453106,-0.0364443,-0.0401497,137
0.452988,-0.0364223,-0.0393047,138
0.452978,-0.0364222,-0.0384697,136
0.45238,-0.0363033,-0.0375855,137
0.451518,-0.0361311,-0.036682,139
0.451776,-0.0361852,-0.035872,137
0.450336,-0.0358959,-0.0349279,135
0.450064,-0.0358431,-0.034079,139
0.450217,-0.0358758,-0.0332629,147
0.449209,-0.035674,-0.0323621,142
0.448942,-0.0356218,-0.0315176,145
0.448675,-0.0355698,-0.0306745,146
0.449302,-0.0356985,-0.0298925,155
0.448773,-0.0355935,-0.0290329,150
0.449665,-0.0357757,-0.0282654,153
0.44835,-0.0355117,-0.0273591,157
0.447355,-0.0353126,-0.026477,153
0.446574,-0.0351566,-0.0256111,151
0.4459,-0.0350222,-0.0247543,157
0.445694,-0.0349824,-0.0239253,157
0.44554,-0.0349532,-0.0231001,160
0.445439,-0.0349346,-0.0222781,155
0.445132,-0.0348744,-0.0214467,165
0.443695,-0.0345859,-0.0205643,160
0.443801,-0.0346093,-0.019756,165
0.443192,-0.0344879,-0.0189169,158
0.442126,-0.0342743,-0.0180616,158
0.442182,-0.0342875,-0.017254,154
0.442087,-0.0342701,-0.0164407,156
0.44189,-0.0342322,-0.0156243,160
0.441796,-0.034215,-0.0148121,157
0.441195,-0.0340955,-0.0139845,155
0.439791,-0.0338134,-0.0131357,153
0.4398,-0.0338171,-0.012331,156
0.438656,-0.0335876,-0.0114969,154
0.438466,-0.033551,-0.0106898,155
0.438527,-0.0335652,-0.00988882,158
0.438238,-0.0335087,-0.00908077,159
0.437652,-0.033392,-0.00826849,156
0.436324,-0.0331253,-0.00744653,153
0.436634,-0.0331899,-0.00665288,158
0.436005,-0.0330644,-0.00584651,164
0.435378,-0.0329394,-0.00504257,162
0.435195,-0.0329043,-0.00424481,158
0.435802,-0.0330288,-0.00345301,164
0.43567,-0.0330039,-0.00265541,161
0.435046,-0.0328795,-0.00185689,157
0.435653,-0.0330043,-0.00106196,159
0.43503,-0.0328802,-0.000265818,161
0.435048,-0.0328856,0.000529755,157
0.43487,-0.0328514,0.0013245,159
0.435973,-0.0330763,0.00212696,161
0.43481,-0.032843,0.00291452,155
0.434634,-0.0328091,0.00370789,156
0.435343,-0.0329544,0.00451142,153
0.434971,-0.0328809,0.00530244,157
0.436919,-0.0332768,0.00612916,158
0.435162,-0.0329233,0.00689711,156
0.434595,-0.0328105,0.00768197,154
0.434815,-0.0328568,0.00848177,162
0.435528,-0.0330028,0.00929405,157
0.436294,-0.0331595,0.0101104,160
0.436566,-0.0332166,0.0109163,167
0.436691,-0.0332437,0.011719,161
0.436421,-0.0331907,0.0125099,157
0.435953,-0.033098,0.0132934,158
0.436129,-0.0331354,0.0140976,159
0.436008,-0.0331129,0.0148918,161
0.436383,-0.0331906,0.0157047,160
0.435572,-0.0330283,0.016471,157
0.436244,-0.0331661,0.0172973,157
0.436225,-0.0331641,0.0180956,157
0.436157,-0.0331521,0.0188917,156
0.436535,-0.0332305,0.0197092,166
0.436964,-0.0333191,0.0205307,168
0.437096,-0.0333477,0.0213385,167
0.437677,-0.0334671,0.0221712,169
0.43801,-0.0335364,0.0229923,160
0.4369,-0.0333135,0.0237319,164
0.437482,-0.0334331,0.0245679,164
0.437268,-0.0333918,0.0253575,166
0.437653,-0.0334715,0.0261843,167
0.437292,-0.0334002,0.0269641,170
0.438677,-0.0336824,0.0278598,163
0.437815,-0.0335099,0.0286061,169
0.439708,-0.0338949,0.0295442,166
0.439849,-0.0339252,0.0303624,164
0.438432,-0.0336404,0.0310652,162
0.438924,-0.0337417,0.0319086,163
0.438714,-0.0337011,0.0326992,158
0.43966,-0.0338945,0.033582,169
0.438798,-0.0337218,0.03432,162
0.43864,-0.0336917,0.0351141,165
0.438633,-0.0336922,0.0359208,161
0.440136,-0.0339983,0.0368604,165
0.439929,-0.0339582,0.0376523,167
0.439168,-0.0338061,0.0383931,164
0.440121,-0.0340008,0.0392914,169
0.439613,-0.0338998,0.0400541,170
0.440164,-0.0340133,0.0409184,171
0.440313,-0.0340453,0.041745,169
0.440868,-0.0341595,0.0426134,170
0.440107,-0.0340073,0.0433487,165
0.440561,-0.0341011,0.0442088,165
0.441067,-0.0342056,0.0450766,166
0.440966,-0.0341869,0.0458804,170
0.441678,-0.034333,0.0467741,166
0.441629,-0.0343248,0.0475851,168
0.442702,-0.0345442,0.0485248,168
0.443012,-0.0346088,0.0493799,167
0.442299,-0.0344663,0.0501155,168
0.442917,-0.0345932,0.0510087,164
0.443331,-0.0346791,0.0518797,170
0.443028,-0.0346196,0.0526636,166
0.443136,-0.0346434,0.0534984,172
0.443913,-0.0348027,0.0544195,170
0.444075,-0.0348373,0.055264,166
0.443619,-0.0347468,0.0560281,162
0.44471,-0.0349697,0.0569975,161
0.444047,-0.0348373,0.0577337,163
0.444779,-0.0349876,0.0586595,166
0.444789,-0.0349914,0.0594877,163
0.445525,-0.0351425,0.060419,163
0.446056,-0.035252,0.061324,159
0.446276,-0.0352985,0.0621863,160
0.446393,-0.0353241,0.0630347,163
0.445781,-0.0352019,0.0637752,159
0.44668,-0.0353861,0.0647419,163
0.446642,-0.0353803,0.0655691,163
0.447233,-0.0355019,0.0664938,168
0.448246,-0.0357092,0.0674875,159
0.447789,-0.0356184,0.0682522,163
0.449813,-0.0360304,0.0694138,162
0.449671,-0.0360036,0.0702318,157
0.450114,-0.0360954,0.0711458,160
0.44992,-0.0360581,0.071956,160
0.449674,-0.0360101,0.0727571,160
0.450332,-0.0361454,0.0737115,157
0.450779,-0.0362379,0.0746325,160
0.451068,-0.0362983,0.0755281,162
0.45109,-0.0363047,0.0763784,160
0.452507,-0.0365939,0.0774774,163
0.451939,-0.0364808,0.0782254,163
0.45277,-0.0366511,0.0792258,161
0.453389,-0.0367785,0.0801909,163
0.453685,-0.0368405,0.081099,155
0.454253,-0.0369576,0.0820598,154
0.454117,-0.0369321,0.0828898,154
0.455178,-0.0371492,0.083949,152
0.455972,-0.037312,0.0849609,152
0.455728,-0.0372645,0.0857737,155
0.455593,-0.0372392,0.0866077,151
0.456336,-0.0373917,0.0876164,150
0.457027,-0.0375337,0.0886181,152
0.457444,-0.0376204,0.0895675,158
0.457312,-0.0375955,0.0904061,154
0.458008,-0.0377386,0.0914163,161
0.45843,-0.0378261,0.0923725,154
0.459131,-0.0379703,0.0933897,158
0.459947,-0.0381378,0.0944347,154
0.460543,-0.0382606,0.0954361,158
0.459574,-0.0380662,0.096101,154
0.461067,-0.0383709,0.0973014,155
0.460713,-0.0383012,0.0981003,153
0.460696,-0.0382998,0.0989735,150
0.461692,-0.0385037,0.100075,149
0.462184,-0.0386055,0.101066,150
0.462735,-0.0387192,0.102074,147
0.462551,-0.0386839,0.102914,145
0.462593,-0.0386946,0.103808,153
0.463773,-0.0389359,0.104968,152
0.463817,-0.0389469,0.105866,151
0.46392,-0.0389697,0.106778,151
0.462544,-0.0386928,0.107336,157
0.462987,-0.0387847,0.108329,148
0.463546,-0.0389,0.109354,149
0.463536,-0.0389001,0.110241,153
0.463584,-0.0389119,0.111143,156
0.464718,-0.039144,0.112317,154
0.464596,-0.0391213,0.11318,153
0.46522,-0.0392499,0.114233,148
0.465041,-0.0392157,0.115083,148
0.464577,-0.0391235,0.115859,146
0.464056,-0.03902,0.116619,145
0.464395,-0.0390907,0.117603,147
0.464276,-0.0390686,0.118469,147
0.464558,-0.0391281,0.119441,148
0.46513,-0.039246,0.120492,140
0.465012,-0.0392242,0.121361,145
0.465125,-0.0392492,0.122292,148
0.465931,-0.0394148,0.123414,148
0.465469,-0.0393231,0.12419,149
0.465468,-0.0393251,0.125094,149
0.46495,-0.0392221,0.125853,150
0.465239,-0.0392827,0.126838,152
0.46524,-0.0392851,0.127743,150
0.465473,-0.0393344,0.128716,149
0.465245,-0.0392901,0.129557,148
0.465305,-0.0393045,0.130481,146
0.464215,-0.0390853,0.131071,145
0.463989,-0.0390415,0.131911,154
0.464165,-0.0390794,0.13287,158
0.463883,-0.0390242,0.133693,153
0.463429,-0.0389342,0.134465,153
0.463435,-0.0389375,0.135374,151
0.463326,-0.0389175,0.13625,149
0.462646,-0.0387816,0.13695,146
0.461626,-0.0385767,0.137544,149
0.462832,-0.0388235,0.138825,154
0.461072,-0.0384684,0.139186,147
0.4604,-0.038334,0.139882,146
0.46143,-0.0385452,0.141114,148
0.46053,-0.0383646,0.141737,152
0.459295,-0.038116,0.14225,156
0.459191,-0.0380971,0.143123,154
0.458582,-0.0379754,0.143833,156
0.459494,-0.0381626,0.145037,150
0.457984,-0.0378582,0.14545,152
0.457826,-0.0378283,0.146305,152
0.457838,-0.0378327,0.147216,156
0.457681,-0.0378029,0.148072,150
0.457132,-0.0376937,0.148796,158
0.457201,-0.0377097,0.149728,153
0.456878,-0.0376462,0.150527,156
0.457003,-0.0376737,0.151479,153
0.455955,-0.0374629,0.152028,151
0.456583,-0.0375926,0.153154,148
0.45487,-0.0372468,0.153468,141
0.454773,-0.0372293,0.154343,145
0.4544,-0.0371555,0.15512,154
0.455582,-0.0373977,0.156448,147
0.454153,-0.0371096,0.15685,147
0.452843,-0.0368456,0.15729,144
0.453576,-0.0369966,0.158463,146
0.452489,-0.036778,0.158978,144
0.451243,-0.036527,0.159433,137
0.45115,-0.0365102,0.160306,126
0.45177,-0.0366381,0.161442,123
0.451074,-0.036499,0.162094,126
0.450654,-0.0364158,0.162846,129
0.449581,-0.0361999,0.163353,126
0.44911,-0.0361063,0.164083,120
0.449999,-0.0362889,0.165327,112
0.448658,-0.0360186,0.165726,112
0.448785,-0.0360465,0.166683,114
0.447613,-0.0358105,0.167141,119
0.447578,-0.0358055,0.168035,116
0.447759,-0.0358444,0.169014,120
0.447401,-0.0357737,0.169784,111
0.446989,-0.0356921,0.170531,111
0.446632,-0.0356217,0.1713,105
0.447138,-0.0357265,0.172411,104
0.448241,-0.0359528,0.173764,104
0.446964,-0.0356955,0.174166,103
0.447635,-0.0358338,0.17535,102
0.448308,-0.0359727,0.176539,96
0.447897,-0.0358913,0.177289,91
0.447161,-0.035744,0.177904,105
0.447889,-0.035894,0.179122,101
0.448239,-0.0359672,0.180187,98
0.447503,-0.0358198,0.180801,94
0.447257,-0.0357718,0.181618,95
0.448151,-0.0359556,0.182915,93
0.447904,-0.0359076,0.183734,101
0.448912,-0.0361145,0.185087,98
0.448229,-0.0359779,0.185722,102
0.448201,-0.0359744,0.186636,99
0.449541,-0.0362489,0.188142,99
0.449954,-0.0363349,0.189252,90
0.449873,-0.0363206,0.190149,98
0.449023,-0.03615,0.190711,97
0.449601,-0.0362697,0.191898,96
0.448863,-0.0361217,0.192506,92
0.448728,-0.0360964,0.19338,96
0.449307,-0.0362163,0.194573,100
0.449668,-0.0362918,0.195672,93
0.449204,-0.0361996,0.196402,93
0.44918,-0.036197,0.19733,87
0.449597,-0.036284,0.198459,129
0.450016,-0.0363713,0.199592,89
0.449002,-0.0361672,0.20007,88
0.449586,-0.0362881,0.201281,90
0.443234,-0.0305246,-0.210194,11
0.442222,-0.0303315,-0.208772,12
0.44346,-0.0305726,-0.208435,11
0.423211,-0.0266666,-0.197819,13
0.210146,0.014456,-0.0966742,10
0.438916,-0.0297019,-0.203484,13
0.239221,0.00884112,-0.109126,9
0.146644,0.0267136,-0.0671291,11
0.149251,0.0262095,-0.0679502,11
0.439637,-0.0298495,-0.200143,11
0.440331,-0.0299857,-0.199547,11
0.439027,-0.029736,-0.198026,12
0.438253,-0.0295887,-0.196755,9
0.487883,-0.0391717,-0.218541,10
0.435271,-0.0290173,-0.193575,14
0.436988,-0.0293508,-0.193447,15
0.434528,-0.0288779,-0.191432,13
0.439254,-0.0297925,-0.19265,16
0.435737,-0.0291154,-0.190169,18
0.441173,-0.030167,-0.191682,14
0.436487,-0.0292644,-0.188698,14
0.441463,-0.0302273,-0.189985,16
0.437084,-0.029384,-0.187156,17
0.434784,-0.0289419,-0.185253,17
0.436598,-0.0292942,-0.185143,20
0.436459,-0.0292695,-0.184185,21
0.433864,-0.0287703,-0.182173,18
0.436956,-0.0293695,-0.182602,19
0.437127,-0.0294047,-0.181778,18
0.436577,-0.0293005,-0.180649,20
0.435004,-0.0289988,-0.179092,19
0.439306,-0.0298315,-0.180004,21
0.435143,-0.0290296,-0.17737,19
0.435724,-0.029144,-0.176722,21
0.437182,-0.0294275,-0.176434,18
0.434283,-0.0288696,-0.174352,23
0.435884,-0.029181,-0.174121,19
0.438117,-0.0296143,-0.174142,20
0.437517,-0.0295004,-0.173008,21
0.433148,-0.0286586,-0.170361,20
0.435199,-0.0290567,-0.170303,22
0.437732,-0.0295482,-0.170428,27
0.436776,-0.0293654,-0.169162,24
0.436695,-0.0293518,-0.168246,24
0.437436,-0.0294969,-0.167653,23
0.437612,-0.029533,-0.166837,27
0.437326,-0.0294798,-0.165843,30
0.435965,-0.029219,-0.164435,27
0.435428,-0.0291172,-0.16335,27
0.435299,-0.0290943,-0.162424,26
0.434917,-0.0290224,-0.161403,27
0.436827,-0.0293935,-0.16125,26
0.437621,-0.0295489,-0.16067,28
0.438262,-0.029675,-0.160031,28
0.437208,-0.0294733,-0.158761,32
0.434738,-0.028998,-0.156972,31
0.437875,-0.0296062,-0.157254,31
0.43606,-0.0292574,-0.155715,27
0.438854,-0.0297993,-0.155859,34
0.438777,-0.0297865,-0.154954,35
0.438546,-0.0297439,-0.153996,39
0.437189,-0.0294836,-0.152637,31
0.438807,-0.0297984,-0.15234,34
0.439609,-0.0299553,-0.15175,35
0.437836,-0.0296147,-0.150253,36
0.438789,-0.0298009,-0.149716,36
0.439591,-0.0299579,-0.149123,37
0.437821,-0.0296178,-0.14764,37
0.438877,-0.0298239,-0.147135,38
0.43968,-0.0299811,-0.146539,36
0.438424,-0.0297403,-0.145243,41
0.439277,-0.0299072,-0.144664,41
0.440651,-0.0301748,-0.144256,39
0.441253,-0.0302932,-0.143586,39
0.441648,-0.0303716,-0.142846,42
0.439816,-0.0300194,-0.141373,37
0.439591,-0.0299779,-0.140433,46
0.441174,-0.030286,-0.140082,42
0.4394,-0.0299449,-0.138642,38
0.440361,-0.0301328,-0.138087,41
0.441171,-0.0302914,-0.137481,50
0.441724,-0.0304003,-0.13679,39
0.443061,-0.0306608,-0.136345,49
0.44169,-0.0303977,-0.135048,46
0.442037,-0.0304669,-0.134292,53
0.442802,-0.0306167,-0.133663,47
0.44211,-0.0304848,-0.132585,52
0.443606,-0.0307762,-0.132178,45
0.444744,-0.0309983,-0.131657,44
0.444362,-0.0309263,-0.130674,52
0.443405,-0.0307432,-0.129522,57
0.443861,-0.0308335,-0.128795,55
0.44343,-0.030752,-0.127804,56
0.444515,-0.030964,-0.127259,51
0.445448,-0.0311464,-0.126667,52
0.445278,-0.0311154,-0.125753,55
0.445003,-0.0310642,-0.12481,53
0.446837,-0.031421,-0.12447,52
0.444612,-0.0309926,-0.122975,59
0.445547,-0.0311754,-0.122377,59
0.445484,-0.0311651,-0.121497,67
0.445368,-0.0311448,-0.120604,61
0.446096,-0.0312875,-0.119944,57
0.445876,-0.0312469,-0.119022,64
0.448143,-0.0316875,-0.118777,60
0.447602,-0.031585,-0.117767,55
0.448391,-0.0317396,-0.117116,64
0.449986,-0.0320501,-0.116675,63
0.447632,-0.0315966,-0.11519,65
0.447943,-0.0316589,-0.114411,68
0.447566,-0.0315877,-0.113452,72
0.447348,-0.0315476,-0.112537,65
0.448616,-0.031795,-0.112002,75
0.448505,-0.0317754,-0.111114,74
0.448766,-0.0318279,-0.11032,83
0.449401,-0.0319529,-0.109619,72
0.449664,-0.0320058,-0.108824,75
0.449608,-0.0319967,-0.10795,74
0.449872,-0.0320498,-0.107155,75
0.45003,-0.0320824,-0.106334,72
0.449921,-0.0320633,-0.105449,82
0.450294,-0.0321374,-0.104679,83
0.45056,-0.032191,-0.103884,83
0.450721,-0.032224,-0.103063,86
0.451688,-0.0324132,-0.102429,83
0.451688,-0.0324152,-0.101569,81
0.451635,-0.0324069,-0.100698,87
0.452067,-0.0324925,-0.0999376,77
0.452338,-0.032547,-0.0991397,87
0.452179,-0.0325181,-0.0982456,92
0.452667,-0.0326146,-0.0974953,92
0.453862,-0.0328479,-0.0968977,89
0.453703,-0.0328191,-0.0960031,94
0.453707,-0.0328218,-0.0951447,90
0.453874,-0.0328562,-0.0943215,96
0.454369,-0.0329539,-0.0935669,91
0.454537,-0.0329886,-0.092743,92
0.454326,-0.0329496,-0.0918405,89
0.454714,-0.0330266,-0.0910617,89
0.454993,-0.0330828,-0.0902602,90
0.45462,-0.0330124,-0.0893269,92
0.454792,-0.0330477,-0.0885039,97
0.454801,-0.0330514,-0.0876486,90
0.455628,-0.0332136,-0.0869534,84
0.455802,-0.0332492,-0.0861293,89
0.457238,-0.0335293,-0.0855461,83
0.455824,-0.0332574,-0.0844187,92
0.456109,-0.0333145,-0.0836154,95
0.456395,-0.0333719,-0.0828116,104
0.456681,-0.0334294,-0.0820073,101
0.457024,-0.0334977,-0.0812124,103
0.455724,-0.0332479,-0.0801218,104
0.457162,-0.0335284,-0.0795229,98
0.456793,-0.0334589,-0.0786014,91
0.457413,-0.0335809,-0.0778536,91
0.457539,-0.0336073,-0.077019,102
0.457226,-0.0335486,-0.0761097,98
0.457518,-0.0336072,-0.0753037,94
0.457097,-0.0335275,-0.0743785,91
0.45717,-0.0335437,-0.0735365,90
0.45851,-0.0338053,-0.0729001,97
0.457979,-0.0337043,-0.071959,94
0.457669,-0.0336462,-0.0710554,96
0.457086,-0.0335353,-0.0701106,99
0.457657,-0.0336478,-0.0693467,103
0.457514,-0.0336221,-0.0684722,97
0.457372,-0.0335966,-0.0675987,96
0.45767,-0.0336562,-0.0667915,97
0.4572,-0.0335672,-0.0658708,91
0.457115,-0.0335527,-0.065008,90
0.457909,-0.0337084,-0.0642716,88
0.45865,-0.033854,-0.0635252,87
0.459284,-0.0339788,-0.0627613,86
0.457329,-0.033602,-0.0616398,91
0.458346,-0.0338009,-0.0609284,100
0.457879,-0.0337125,-0.0600156,106
0.457963,-0.0337307,-0.0591772,114
0.458598,-0.0338556,-0.0584104,119
0.458683,-0.0338741,-0.0575712,121
0.458659,-0.0338714,-0.0567182,120
0.45825,-0.0337941,-0.0558179,129
0.457788,-0.0337064,-0.054913,122
0.45782,-0.0337147,-0.0540696,129
0.457087,-0.0335744,-0.0531357,124
0.457613,-0.0336785,-0.0523516,132
0.457319,-0.0336234,-0.0514718,130
0.45719,-0.0336003,-0.050612,131
0.456898,-0.0335457,-0.049735,132
0.455736,-0.0333224,-0.0487647,135
0.455991,-0.0333736,-0.0479504,137
0.455539,-0.033288,-0.0470614,139
0.454873,-0.0331608,-0.0461522,132
0.455725,-0.0333279,-0.0453992,141
0.455114,-0.0332113,-0.0444982,141
0.454829,-0.033158,-0.0436314,132
0.453576,-0.032917,-0.0426736,146
