ply
format ascii 1.0
comment Created by CloudCompare v2.11 alpha (Anoia)
comment Created 2025/12/9 20:41
obj_info Generated by CloudCompare!
element vertex 1431
property float x
property float y
property float z
property float scalar_Scalar_field
end_header
0.325384 -0.424397 -0.267849 128 
0.325573 -0.424397 -0.26705 125 
0.325553 -0.424399 -0.266225 127 
0.32506 -0.424406 -0.265343 129 
0.324936 -0.424409 -0.264508 130 
0.325284 -0.424408 -0.263728 128 
0.325161 -0.424411 -0.262893 127 
0.324829 -0.424416 -0.262035 126 
0.325284 -0.424413 -0.261266 124 
0.324848 -0.424419 -0.260399 132 
0.325094 -0.424419 -0.259606 135 
0.324608 -0.424426 -0.258736 136 
0.324437 -0.424429 -0.257901 136 
0.324371 -0.424432 -0.257077 131 
0.324044 -0.424437 -0.256227 134 
0.324292 -0.424436 -0.255435 136 
0.324228 -0.424439 -0.254613 140 
0.323747 -0.424445 -0.253752 138 
0.323945 -0.424445 -0.252955 144 
0.324143 -0.424445 -0.252158 144 
0.324133 -0.424447 -0.251342 145 
0.324228 -0.424448 -0.250535 146 
0.324271 -0.424449 -0.249724 144 
0.323742 -0.424456 -0.248865 141 
0.323371 -0.424462 -0.248022 148 
0.32326 -0.424465 -0.2472 148 
0.323722 -0.424462 -0.246423 149 
0.322834 -0.424473 -0.245544 146 
0.323191 -0.424471 -0.244759 143 
0.323083 -0.424474 -0.243939 154 
0.322769 -0.424479 -0.243106 152 
0.322455 -0.424484 -0.242274 155 
0.322297 -0.424488 -0.241454 153 
0.322605 -0.424486 -0.240665 153 
0.321315 -0.424501 -0.239775 149 
0.320852 -0.424508 -0.23894 157 
0.321057 -0.424507 -0.238146 154 
0.320289 -0.424517 -0.237296 157 
0.319932 -0.424522 -0.236471 155 
0.319883 -0.424525 -0.235665 161 
0.319987 -0.424525 -0.234866 158 
0.31999 -0.424527 -0.234062 161 
0.320197 -0.424527 -0.233268 159 
0.320099 -0.42453 -0.23246 167 
0.319644 -0.424536 -0.231636 165 
0.320006 -0.424534 -0.230848 161 
0.318232 -0.424554 -0.229974 164 
0.317985 -0.424558 -0.229165 158 
0.318448 -0.424555 -0.228382 158 
0.317595 -0.424566 -0.227553 161 
0.316898 -0.424575 -0.226731 157 
0.316604 -0.42458 -0.225925 154 
0.316563 -0.424582 -0.225127 160 
0.316121 -0.424588 -0.224319 162 
0.314782 -0.424603 -0.22349 162 
0.314842 -0.424604 -0.222698 154 
0.315602 -0.424598 -0.221921 155 
0.315314 -0.424603 -0.221121 159 
0.315327 -0.424605 -0.220328 154 
0.313055 -0.424629 -0.219498 153 
0.312427 -0.424637 -0.218699 162 
0.312539 -0.424638 -0.217912 164 
0.312553 -0.42464 -0.217124 168 
0.311978 -0.424647 -0.21633 161 
0.310915 -0.42466 -0.215536 165 
0.31054 -0.424665 -0.214749 164 
0.309776 -0.424675 -0.213961 158 
0.309842 -0.424676 -0.213178 160 
0.310005 -0.424676 -0.212394 158 
0.310316 -0.424674 -0.211609 159 
0.309993 -0.424679 -0.210826 158 
0.310402 -0.424677 -0.21004 163 
0.310617 -0.424677 -0.209253 159 
0.311813 -0.424667 -0.208456 162 
0.310268 -0.424684 -0.207687 155 
0.311169 -0.424677 -0.20689 153 
0.311534 -0.424675 -0.206098 154 
0.310675 -0.424685 -0.205326 160 
0.311678 -0.424677 -0.204522 163 
0.311652 -0.424679 -0.203735 164 
0.31099 -0.424687 -0.202963 161 
0.311554 -0.424683 -0.202163 165 
0.312317 -0.424678 -0.201355 170 
0.312244 -0.42468 -0.200568 169 
0.311975 -0.424685 -0.199788 161 
0.312199 -0.424684 -0.198992 163 
0.311735 -0.424691 -0.198219 156 
0.312206 -0.424688 -0.197414 162 
0.312234 -0.424689 -0.196624 164 
0.312017 -0.424693 -0.195844 168 
0.312096 -0.424694 -0.195052 162 
0.312127 -0.424696 -0.194261 165 
0.314086 -0.424678 -0.193383 164 
0.312435 -0.424696 -0.192668 164 
0.312714 -0.424695 -0.191864 165 
0.314233 -0.424682 -0.190996 162 
0.312977 -0.424696 -0.190269 166 
0.313258 -0.424695 -0.189462 169 
0.313045 -0.424699 -0.188682 164 
0.313674 -0.424695 -0.187853 163 
0.314008 -0.424693 -0.18704 165 
0.314691 -0.424688 -0.186204 165 
0.314977 -0.424687 -0.18539 165 
0.314915 -0.42469 -0.184598 170 
0.314554 -0.424695 -0.183826 165 
0.315292 -0.424689 -0.18298 164 
0.314981 -0.424694 -0.182205 172 
0.315621 -0.42469 -0.181361 173 
0.315661 -0.424691 -0.18056 164 
0.315402 -0.424696 -0.179781 167 
0.315544 -0.424696 -0.178972 169 
0.315887 -0.424694 -0.178146 173 
0.317288 -0.424682 -0.177231 165 
0.317383 -0.424683 -0.176421 163 
0.316318 -0.424696 -0.17571 165 
0.318029 -0.424681 -0.174758 164 
0.316509 -0.424697 -0.174091 161 
0.316504 -0.424699 -0.173289 165 
0.317863 -0.424688 -0.17236 168 
0.317708 -0.424691 -0.17157 166 
0.317908 -0.424691 -0.170746 163 
0.317349 -0.424698 -0.169996 168 
0.317955 -0.424694 -0.169131 162 
0.318157 -0.424694 -0.168304 168 
0.318766 -0.42469 -0.167434 163 
0.318308 -0.424696 -0.166675 167 
0.318207 -0.424699 -0.165878 162 
0.318158 -0.424701 -0.165076 163 
0.319586 -0.424689 -0.164108 168 
0.319844 -0.424689 -0.163268 168 
0.320155 -0.424687 -0.162421 165 
0.319135 -0.424699 -0.161729 163 
0.32047 -0.424688 -0.160759 163 
0.321299 -0.424682 -0.159845 166 
0.321098 -0.424686 -0.159054 162 
0.321259 -0.424686 -0.158219 162 
0.321214 -0.424688 -0.157409 168 
0.321582 -0.424686 -0.156545 163 
0.322003 -0.424684 -0.155673 155 
0.321598 -0.42469 -0.154909 158 
0.323319 -0.424675 -0.153859 163 
0.322705 -0.424683 -0.153122 161 
0.32173 -0.424694 -0.152436 158 
0.321741 -0.424696 -0.151616 156 
0.322218 -0.424693 -0.150729 166 
0.322541 -0.424692 -0.149861 163 
0.323022 -0.424689 -0.14897 163 
0.323713 -0.424684 -0.148045 163 
0.324932 -0.424674 -0.147037 169 
0.324474 -0.424681 -0.14628 164 
0.325067 -0.424677 -0.145362 161 
0.324925 -0.42468 -0.144556 160 
0.324994 -0.424681 -0.143717 163 
0.32501 -0.424683 -0.142885 161 
0.325449 -0.424681 -0.141985 159 
0.32626 -0.424675 -0.141022 155 
0.326702 -0.424672 -0.140117 158 
0.3272 -0.424669 -0.1392 162 
0.326636 -0.424677 -0.13846 160 
0.32804 -0.424665 -0.137386 160 
0.328436 -0.424663 -0.13648 165 
0.328084 -0.424669 -0.135703 158 
0.328642 -0.424665 -0.134766 158 
0.32888 -0.424665 -0.133884 157 
0.328958 -0.424666 -0.133029 157 
0.329735 -0.42466 -0.132046 155 
0.32933 -0.424666 -0.131277 157 
0.329679 -0.424665 -0.130369 152 
0.331328 -0.424651 -0.129216 154 
0.331736 -0.424649 -0.12829 158 
0.331655 -0.424651 -0.127457 156 
0.332065 -0.424649 -0.126528 150 
0.332422 -0.424648 -0.125608 153 
0.333877 -0.424636 -0.124469 149 
0.333853 -0.424638 -0.123619 152 
0.333885 -0.42464 -0.122757 151 
0.33502 -0.424631 -0.12167 152 
0.334667 -0.424636 -0.120884 146 
0.334646 -0.424638 -0.120029 148 
0.335289 -0.424634 -0.119036 150 
0.335879 -0.424631 -0.118051 154 
0.33597 -0.424632 -0.117169 147 
0.337177 -0.424622 -0.116047 145 
0.336601 -0.42463 -0.115306 141 
0.336807 -0.42463 -0.114395 144 
0.337516 -0.424625 -0.113373 145 
0.338735 -0.424615 -0.112233 142 
0.338776 -0.424617 -0.111353 143 
0.339268 -0.424614 -0.11037 141 
0.33965 -0.424612 -0.10941 138 
0.340373 -0.424608 -0.108369 138 
0.340871 -0.424605 -0.107377 138 
0.341657 -0.424599 -0.106315 139 
0.342389 -0.424594 -0.105262 138 
0.343009 -0.424591 -0.104232 138 
0.343171 -0.424591 -0.103309 144 
0.343738 -0.424588 -0.102288 142 
0.345001 -0.424578 -0.101094 142 
0.345283 -0.424577 -0.100135 135 
0.346324 -0.424569 -0.098986 136 
0.346961 -0.424565 -0.097934 133 
0.34713 -0.424566 -0.096996 129 
0.347888 -0.424561 -0.095908 132 
0.347766 -0.424564 -0.095041 128 
0.348645 -0.424558 -0.093916 127 
0.348406 -0.424562 -0.093077 129 
0.349112 -0.424557 -0.091991 125 
0.349347 -0.424557 -0.091026 129 
0.349582 -0.424557 -0.090059 133 
0.350116 -0.424554 -0.089011 134 
0.349997 -0.424557 -0.088136 137 
0.349938 -0.42456 -0.087244 141 
0.350773 -0.424554 -0.086108 142 
0.350297 -0.424561 -0.085328 139 
0.350478 -0.424561 -0.084368 139 
0.350064 -0.424567 -0.083572 135 
0.350305 -0.424567 -0.082593 134 
0.350428 -0.424568 -0.081646 132 
0.350911 -0.424565 -0.080595 136 
0.351155 -0.424565 -0.07961 135 
0.351281 -0.424566 -0.078658 132 
0.351647 -0.424564 -0.077635 135 
0.352316 -0.42456 -0.076521 139 
0.351241 -0.424572 -0.075916 134 
0.35167 -0.424571 -0.07487 137 
0.35216 -0.424568 -0.073803 131 
0.35235 -0.424568 -0.072824 132 
0.351577 -0.424578 -0.072134 133 
0.35231 -0.424573 -0.070988 138 
0.351477 -0.424583 -0.070318 135 
0.350768 -0.424591 -0.069613 137 
0.350959 -0.424592 -0.06863 133 
0.350791 -0.424595 -0.067758 137 
0.350504 -0.4246 -0.066923 138 
0.351238 -0.424595 -0.065766 134 
0.352096 -0.424589 -0.064566 137 
0.351808 -0.424594 -0.063729 134 
0.35098 -0.424604 -0.063065 134 
0.350454 -0.424611 -0.062307 133 
0.35083 -0.42461 -0.061255 136 
0.350786 -0.424612 -0.060339 130 
0.350442 -0.424617 -0.059522 138 
0.351001 -0.424614 -0.058405 139 
0.350357 -0.424622 -0.057687 144 
0.350495 -0.424623 -0.056708 136 
0.350333 -0.424627 -0.055829 134 
0.350473 -0.424628 -0.054848 129 
0.349951 -0.424635 -0.054091 128 
0.350031 -0.424636 -0.053129 127 
0.350172 -0.424637 -0.052144 128 
0.349953 -0.424641 -0.051284 130 
0.349313 -0.424649 -0.05057 126 
0.348796 -0.424656 -0.049815 123 
0.34816 -0.424664 -0.049104 118 
0.348661 -0.424661 -0.04799 110 
0.348504 -0.424665 -0.047108 110 
0.348288 -0.424669 -0.046247 112 
0.348072 -0.424673 -0.045386 126 
0.347977 -0.424676 -0.044482 123 
0.347345 -0.424684 -0.043773 118 
0.347847 -0.424681 -0.042649 113 
0.347275 -0.424689 -0.041919 111 
0.345993 -0.424703 -0.041455 107 
0.345307 -0.424711 -0.040772 103 
0.345925 -0.424707 -0.039601 106 
0.344532 -0.424722 -0.039187 106 
0.343322 -0.424735 -0.038708 97 
0.343231 -0.424738 -0.037806 100 
0.342964 -0.424743 -0.036971 99 
0.343637 -0.424739 -0.035772 99 
0.343429 -0.424743 -0.034913 90 
0.343634 -0.424743 -0.033892 88 
0.342957 -0.424751 -0.033216 89 
0.343927 -0.424745 -0.031891 87 
0.345674 -0.424731 -0.030254 84 
0.345051 -0.424739 -0.029553 86 
0.34532 -0.424738 -0.028497 84 
0.345351 -0.42474 -0.027534 80 
0.345383 -0.424742 -0.02657 79 
0.345653 -0.424742 -0.025509 82 
0.346104 -0.42474 -0.024371 80 
0.346915 -0.424735 -0.023082 81 
0.348091 -0.424726 -0.021639 77 
0.347224 -0.424736 -0.021037 77 
0.34714 -0.424739 -0.020112 72 
0.347536 -0.424738 -0.018985 78 
0.348175 -0.424734 -0.017753 76 
0.348273 -0.424736 -0.016746 73 
0.348492 -0.424736 -0.015687 76 
0.349258 -0.424731 -0.014392 72 
0.34954 -0.424731 -0.013301 72 
0.350006 -0.424729 -0.012128 74 
0.350473 -0.424727 -0.010951 73 
0.353467 -0.424702 -0.00867101 73 
0.351721 -0.42472 -0.00845302 73 
0.351456 -0.424724 -0.00758902 77 
0.351868 -0.424723 -0.00642601 70 
0.352714 -0.424718 -0.00506801 66 
0.353316 -0.424714 -0.00381402 123 
0.352928 -0.42472 -0.00300001 67 
0.353097 -0.424721 -0.00193601 64 
0.354387 -0.424712 -0.000363012 67 
0.325462 -0.420572 -0.423101 11 
0.319066 -0.420695 -0.419131 11 
0.318967 -0.420699 -0.418161 10 
0.316956 -0.420739 -0.416294 15 
0.315175 -0.420774 -0.414544 13 
0.0217396 -0.426311 -0.279831 9 
0.314569 -0.42079 -0.412438 14 
0.314215 -0.420799 -0.411365 12 
0.128237 -0.424309 -0.325716 9 
0.308937 -0.420902 -0.407138 11 
0.655526 -0.414366 -0.564543 10 
0.31183 -0.420852 -0.406659 14 
0.310202 -0.420885 -0.405026 11 
0.316225 -0.420773 -0.406833 12 
0.313162 -0.420833 -0.404558 12 
0.313487 -0.420829 -0.403803 14 
0.312623 -0.420847 -0.402522 11 
0.315756 -0.42079 -0.403005 12 
0.312602 -0.420851 -0.40072 14 
0.310056 -0.420901 -0.398715 11 
0.314238 -0.420825 -0.399641 15 
0.312342 -0.420862 -0.397926 13 
0.309752 -0.420913 -0.395921 15 
0.311299 -0.420886 -0.395697 11 
0.310296 -0.420907 -0.394382 17 
0.307936 -0.420953 -0.392498 18 
0.306402 -0.420984 -0.390972 19 
0.308176 -0.420953 -0.390841 23 
0.305198 -0.421011 -0.388719 12 
0.308669 -0.420947 -0.38929 17 
0.306035 -0.420999 -0.387324 16 
0.304272 -0.421034 -0.385727 12 
0.304343 -0.421034 -0.38489 10 
0.303627 -0.42105 -0.383732 15 
0.30622 -0.421003 -0.383918 18 
0.303279 -0.42106 -0.381865 17 
0.304384 -0.421042 -0.381446 16 
0.305345 -0.421025 -0.380966 22 
0.303252 -0.421067 -0.379271 23 
0.301569 -0.4211 -0.377747 25 
0.302177 -0.421091 -0.377131 21 
0.30308 -0.421076 -0.376629 25 
0.302324 -0.421092 -0.375478 19 
0.300749 -0.421123 -0.374015 29 
0.303107 -0.421081 -0.374072 26 
0.303279 -0.42108 -0.373283 31 
0.304089 -0.421066 -0.372737 30 
0.300758 -0.421131 -0.370622 27 
0.302773 -0.421095 -0.370533 33 
0.30178 -0.421115 -0.36931 32 
0.30273 -0.4211 -0.368816 29 
0.303343 -0.42109 -0.368194 28 
0.3023 -0.421111 -0.36696 32 
0.302231 -0.421115 -0.366088 27 
0.302211 -0.421117 -0.365235 26 
0.3037 -0.421091 -0.36493 30 
0.303729 -0.421092 -0.364093 36 
0.303027 -0.421107 -0.362995 28 
0.302814 -0.421113 -0.362074 35 
0.301537 -0.421139 -0.360778 34 
0.302341 -0.421126 -0.360221 37 
0.303294 -0.42111 -0.359714 39 
0.302888 -0.421119 -0.35873 38 
0.302483 -0.421129 -0.357749 40 
0.30368 -0.421109 -0.357322 37 
0.301533 -0.42115 -0.355746 38 
0.301613 -0.421151 -0.354938 40 
0.303631 -0.421115 -0.354785 40 
0.303615 -0.421117 -0.353941 35 
0.30326 -0.421126 -0.352984 40 
0.304217 -0.42111 -0.352466 37 
0.303667 -0.421122 -0.351446 41 
0.305604 -0.421088 -0.351247 34 
0.303881 -0.421122 -0.349845 42 
0.3045 -0.421112 -0.34921 43 
0.303951 -0.421124 -0.348198 43 
0.304571 -0.421115 -0.347562 40 
0.304704 -0.421114 -0.34677 44 
0.305815 -0.421095 -0.346288 45 
0.304387 -0.421124 -0.345003 42 
0.305301 -0.421109 -0.344457 42 
0.30671 -0.421084 -0.344062 48 
0.306748 -0.421086 -0.343238 50 
0.306589 -0.42109 -0.342354 51 
0.307463 -0.421076 -0.341787 47 
0.307946 -0.421069 -0.341098 50 
0.307195 -0.421085 -0.340037 53 
0.306449 -0.421101 -0.338981 55 
0.307964 -0.421074 -0.3386 61 
0.307461 -0.421086 -0.337618 56 
0.307995 -0.421078 -0.336943 57 
0.308183 -0.421076 -0.336166 58 
0.308619 -0.42107 -0.33546 57 
0.308019 -0.421083 -0.334455 66 
0.307765 -0.421089 -0.333553 60 
0.308398 -0.421079 -0.332903 60 
0.308638 -0.421077 -0.332141 61 
0.30992 -0.421055 -0.331669 62 
0.309566 -0.421064 -0.330739 61 
0.310156 -0.421055 -0.330072 59 
0.310051 -0.421058 -0.329212 63 
0.309996 -0.421061 -0.328367 66 
0.311486 -0.421036 -0.32794 65 
0.310533 -0.421055 -0.326853 67 
0.310628 -0.421055 -0.326049 66 
0.310475 -0.42106 -0.32518 66 
0.311219 -0.421048 -0.324547 66 
0.311466 -0.421045 -0.323783 70 
0.311213 -0.421052 -0.322889 67 
0.312411 -0.421032 -0.322368 71 
0.312008 -0.421041 -0.321436 75 
0.312257 -0.421038 -0.320671 73 
0.311655 -0.421051 -0.319693 76 
0.313661 -0.421016 -0.319365 76 
0.312906 -0.421032 -0.318349 79 
0.314064 -0.421013 -0.317805 78 
0.31351 -0.421025 -0.316841 78 
0.313863 -0.42102 -0.316099 77 
0.31447 -0.421011 -0.315416 82 
0.314623 -0.42101 -0.314624 81 
0.314979 -0.421005 -0.31388 84 
0.315082 -0.421005 -0.313076 85 
0.315287 -0.421003 -0.312295 87 
0.314784 -0.421014 -0.311352 86 
0.315903 -0.420996 -0.310781 95 
0.315907 -0.420997 -0.309954 96 
0.316318 -0.420992 -0.309218 91 
0.317496 -0.420972 -0.308652 88 
0.317194 -0.420979 -0.307756 92 
0.3172 -0.420981 -0.306929 98 
0.317973 -0.420969 -0.306268 101 
0.317724 -0.420975 -0.305386 108 
0.318192 -0.420969 -0.304658 105 
0.318455 -0.420966 -0.303885 105 
0.318926 -0.420959 -0.303155 104 
0.319655 -0.420947 -0.302477 103 
0.318942 -0.420962 -0.301501 97 
0.319569 -0.420953 -0.300801 94 
0.320509 -0.420937 -0.300161 95 
0.319847 -0.420951 -0.2992 100 
0.320944 -0.420933 -0.298588 105 
0.320385 -0.420945 -0.297649 102 
0.320345 -0.420948 -0.296813 94 
0.320719 -0.420943 -0.296057 97 
0.321406 -0.420932 -0.29536 100 
0.321939 -0.420924 -0.294631 102 
0.321744 -0.42093 -0.293765 99 
0.32181 -0.420931 -0.292949 101 
0.322867 -0.420913 -0.292313 103 
0.323772 -0.420898 -0.291646 109 
0.323263 -0.42091 -0.290725 113 
0.323018 -0.420916 -0.289852 118 
0.322982 -0.420918 -0.289017 119 
0.323889 -0.420904 -0.288345 117 
0.324116 -0.420902 -0.287554 119 
0.324292 -0.4209 -0.286754 118 
0.325575 -0.420879 -0.286139 122 
0.32391 -0.420911 -0.285033 115 
0.324402 -0.420904 -0.284285 118 
0.324895 -0.420897 -0.283536 119 
0.325021 -0.420896 -0.282727 112 
0.325464 -0.42089 -0.281968 118 
0.32538 -0.420894 -0.281126 119 
0.325139 -0.4209 -0.28026 119 
0.32532 -0.420898 -0.279459 119 
0.325449 -0.420898 -0.278651 110 
0.325473 -0.420899 -0.277827 117 
0.324918 -0.420911 -0.276918 120 
0.325523 -0.420902 -0.276179 118 
0.326129 -0.420893 -0.275439 115 
0.324943 -0.420916 -0.274444 114 
0.325444 -0.420909 -0.273689 114 
0.325893 -0.420903 -0.272924 116 
0.325657 -0.420909 -0.272066 120 
0.325317 -0.420917 -0.271196 119 
0.325399 -0.420917 -0.270382 120 
0.325113 -0.420924 -0.269521 121 
0.325248 -0.420924 -0.268714 121 
0.325647 -0.420919 -0.267941 120 
0.325468 -0.420924 -0.267095 123 
0.325237 -0.42093 -0.266244 130 
0.325322 -0.42093 -0.265431 123 
0.325566 -0.420927 -0.264638 123 
0.325126 -0.420937 -0.263764 126 
0.325476 -0.420933 -0.262983 126 
0.325353 -0.420937 -0.262147 133 
0.325388 -0.420938 -0.26133 133 
0.324689 -0.420953 -0.260433 127 
0.324726 -0.420954 -0.259617 132 
0.324816 -0.420954 -0.258808 128 
0.325116 -0.42095 -0.258019 129 
0.324787 -0.420958 -0.257166 126 
0.324302 -0.420969 -0.2563 135 
0.324813 -0.420961 -0.255532 133 
0.324643 -0.420966 -0.254698 135 
0.324265 -0.420975 -0.253844 136 
0.324254 -0.420977 -0.253027 132 
0.323878 -0.420986 -0.252176 137 
0.323764 -0.42099 -0.251351 138 
0.32365 -0.420993 -0.250526 139 
0.32385 -0.420992 -0.249728 143 
0.323582 -0.420998 -0.248891 141 
0.323366 -0.421004 -0.248059 138 
0.323411 -0.421005 -0.247249 137 
0.323041 -0.421014 -0.246407 140 
0.323191 -0.421013 -0.245606 142 
0.323446 -0.42101 -0.244812 149 
0.323129 -0.421018 -0.243976 149 
0.322399 -0.421032 -0.243113 144 
0.322759 -0.421028 -0.242327 142 
0.323068 -0.421024 -0.241536 153 
0.322391 -0.421038 -0.240681 147 
0.322183 -0.421044 -0.239858 150 
0.320842 -0.42107 -0.238968 150 
0.32115 -0.421066 -0.238179 156 
0.32038 -0.421082 -0.237328 151 
0.320278 -0.421085 -0.236516 154 
0.319973 -0.421092 -0.235694 155 
0.320436 -0.421086 -0.234913 158 
0.320131 -0.421093 -0.234092 161 
0.319878 -0.4211 -0.233276 164 
0.318913 -0.421119 -0.232427 157 
0.319121 -0.421117 -0.231634 158 
0.31933 -0.421115 -0.23084 160 
0.318572 -0.42113 -0.230007 166 
0.319087 -0.421123 -0.229225 164 
0.318839 -0.421129 -0.228413 161 
0.318643 -0.421134 -0.227605 152 
0.31794 -0.421149 -0.226781 159 
0.317039 -0.421167 -0.225953 160 
0.316997 -0.421169 -0.225153 158 
0.316705 -0.421176 -0.224347 160 
0.316262 -0.421186 -0.223539 160 
0.316222 -0.421189 -0.222741 159 
0.315982 -0.421195 -0.22194 157 
0.315493 -0.421205 -0.221134 153 
0.314506 -0.421225 -0.220321 151 
0.313772 -0.42124 -0.219517 154 
0.313339 -0.421249 -0.218719 161 
0.312957 -0.421258 -0.217923 159 
0.312477 -0.421268 -0.217128 158 
0.312196 -0.421275 -0.216336 161 
0.311867 -0.421283 -0.215545 159 
0.310949 -0.421301 -0.214753 161 
0.310525 -0.42131 -0.213965 162 
0.310738 -0.421308 -0.213179 160 
0.311688 -0.421293 -0.212392 161 
0.310921 -0.421308 -0.211607 162 
0.31143 -0.421301 -0.210818 155 
0.311106 -0.421309 -0.210032 158 
0.311126 -0.42131 -0.209245 157 
0.310754 -0.421318 -0.208462 154 
0.311363 -0.421309 -0.207669 157 
0.311188 -0.421314 -0.206884 155 
0.311456 -0.421311 -0.206092 155 
0.311184 -0.421318 -0.205309 161 
0.311698 -0.42131 -0.204512 159 
0.311476 -0.421316 -0.203729 158 
0.311943 -0.42131 -0.20293 163 
0.31187 -0.421313 -0.202143 161 
0.31224 -0.421308 -0.201344 161 
0.31202 -0.421314 -0.200561 163 
0.313977 -0.421281 -0.199712 156 
0.312616 -0.421307 -0.198963 157 
0.312594 -0.421309 -0.198174 163 
0.312524 -0.421312 -0.197386 158 
0.313047 -0.421304 -0.196576 161 
0.312138 -0.421322 -0.19582 161 
0.313057 -0.421308 -0.194992 159 
0.31433 -0.421287 -0.194145 161 
0.314013 -0.421294 -0.193365 160 
0.312953 -0.421315 -0.192621 166 
0.315025 -0.42128 -0.191728 165 
0.313613 -0.421307 -0.191004 163 
0.313994 -0.421302 -0.19019 165 
0.314427 -0.421296 -0.189373 164 
0.314312 -0.4213 -0.188584 166 
0.314997 -0.421289 -0.187749 168 
0.315033 -0.421291 -0.18695 168 
0.316676 -0.421263 -0.186052 161 
0.315808 -0.421281 -0.185307 163 
0.315244 -0.421292 -0.184546 159 
0.31674 -0.421268 -0.183647 164 
0.315823 -0.421286 -0.18291 168 
0.315561 -0.421292 -0.18213 165 
0.316759 -0.421273 -0.181243 164 
0.315692 -0.421293 -0.180522 162 
0.315784 -0.421294 -0.179716 170 
0.315825 -0.421295 -0.178913 163 
0.31622 -0.421289 -0.178081 161 
0.317728 -0.421265 -0.177156 167 
0.317316 -0.421274 -0.176387 168 
0.317563 -0.421271 -0.175562 166 
0.317355 -0.421277 -0.174776 158 
0.317502 -0.421276 -0.173959 160 
0.317245 -0.421282 -0.173178 164 
0.317849 -0.421273 -0.172317 163 
0.318354 -0.421266 -0.171464 164 
0.318249 -0.42127 -0.170667 167 
0.318146 -0.421274 -0.169871 159 
0.319214 -0.421257 -0.168956 165 
0.320238 -0.42124 -0.168041 164 
0.320598 -0.421236 -0.167192 163 
0.318703 -0.421271 -0.166582 159 
0.31988 -0.421252 -0.165646 162 
0.320601 -0.421241 -0.164755 167 
0.320654 -0.421242 -0.163936 162 
0.320554 -0.421246 -0.163134 165 
0.319632 -0.421264 -0.162427 164 
0.320612 -0.421249 -0.1615 161 
0.321804 -0.421229 -0.160543 155 
0.320724 -0.42125 -0.159857 157 
0.320885 -0.421249 -0.159022 159 
0.320684 -0.421255 -0.158232 162 
0.321104 -0.421249 -0.157363 161 
0.320956 -0.421254 -0.156565 164 
0.321532 -0.421245 -0.155673 157 
0.321386 -0.42125 -0.154874 160 
0.322588 -0.42123 -0.153894 159 
0.323484 -0.421217 -0.152951 158 
0.324122 -0.421207 -0.15204 165 
0.324029 -0.421211 -0.151229 162 
0.323936 -0.421214 -0.150417 164 
0.324105 -0.421213 -0.149568 167 
0.324223 -0.421213 -0.148725 164 
0.324131 -0.421216 -0.147913 162 
0.325039 -0.421202 -0.146951 165 
0.325264 -0.4212 -0.146088 163 
0.324964 -0.421208 -0.145305 160 
0.325454 -0.421201 -0.1444 160 
0.325682 -0.421199 -0.143534 161 
0.327291 -0.421172 -0.142447 160 
0.326088 -0.421195 -0.141806 158 
0.326636 -0.421188 -0.140884 158 
0.327561 -0.421173 -0.139898 160 
0.327474 -0.421177 -0.139076 159 
0.327922 -0.421171 -0.138164 162 
0.328157 -0.421169 -0.137286 160 
0.329198 -0.421152 -0.136268 158 
0.328576 -0.421165 -0.135535 152 
0.329029 -0.421159 -0.134615 158 
0.330618 -0.421133 -0.13349 158 
0.330101 -0.421144 -0.132738 155 
0.331265 -0.421126 -0.131682 155 
0.331454 -0.421125 -0.1308 155 
0.33159 -0.421124 -0.129927 154 
0.331889 -0.421121 -0.129022 157 
0.332354 -0.421115 -0.128084 147 
0.332821 -0.421108 -0.127143 161 
0.333728 -0.421095 -0.126115 151 
0.333264 -0.421105 -0.125351 152 
0.334396 -0.421087 -0.124274 147 
0.334815 -0.421081 -0.123333 149 
0.334736 -0.421085 -0.122491 152 
0.335046 -0.421081 -0.121569 146 
0.335357 -0.421078 -0.120646 150 
0.336114 -0.421067 -0.119628 143 
0.33721 -0.42105 -0.118537 142 
0.337919 -0.421039 -0.117522 145 
0.337731 -0.421044 -0.116694 148 
0.3385 -0.421033 -0.115662 152 
0.338933 -0.421027 -0.114699 147 
0.339594 -0.421018 -0.113684 146 
0.339521 -0.421021 -0.112827 140 
0.339788 -0.421019 -0.111895 142 
0.34034 -0.421011 -0.110897 141 
0.340895 -0.421003 -0.109896 142 
0.341623 -0.420993 -0.108852 135 
0.342526 -0.420979 -0.107765 135 
0.343261 -0.420968 -0.106713 136 
0.343365 -0.420969 -0.105805 135 
0.343931 -0.420961 -0.104787 130 
0.346011 -0.420927 -0.103407 142 
0.345651 -0.420935 -0.102602 142 
0.34605 -0.42093 -0.101615 149 
0.346159 -0.42093 -0.100697 143 
0.347029 -0.420917 -0.09959 141 
0.347786 -0.420906 -0.098508 140 
0.348901 -0.420889 -0.097333 141 
0.349014 -0.420889 -0.096404 144 
0.34895 -0.420892 -0.09552 140 
0.350192 -0.420873 -0.094301 139 
0.349713 -0.420883 -0.09352 134 
0.350066 -0.420879 -0.092524 135 
0.350899 -0.420867 -0.091402 133 
0.351197 -0.420864 -0.090416 130 
0.351016 -0.420869 -0.089554 130 
0.351016 -0.420871 -0.088645 140 
0.351675 -0.420861 -0.087558 136 
0.351856 -0.42086 -0.086597 139 
0.353063 -0.420842 -0.085355 137 
0.352281 -0.420857 -0.084654 143 
0.352223 -0.42086 -0.083755 138 
0.352287 -0.420861 -0.082821 141 
0.352351 -0.420862 -0.081887 146 
0.352657 -0.420859 -0.080883 142 
0.352421 -0.420865 -0.080032 134 
0.352668 -0.420863 -0.079042 136 
0.352493 -0.420868 -0.078172 132 
0.352258 -0.420874 -0.07732 134 
0.352567 -0.420871 -0.076309 135 
0.354031 -0.420848 -0.074957 135 
0.352463 -0.420877 -0.074495 133 
0.35229 -0.420882 -0.073624 136 
0.352602 -0.420879 -0.072606 135 
0.352552 -0.420882 -0.071697 131 
0.35329 -0.420871 -0.070547 131 
0.352513 -0.420887 -0.069857 140 
0.35301 -0.42088 -0.068777 131 
0.352234 -0.420895 -0.068088 136 
0.35261 -0.420891 -0.067043 139 
0.35226 -0.420899 -0.066224 137 
0.352214 -0.420902 -0.065309 135 
0.351563 -0.420915 -0.064586 133 
0.351215 -0.420923 -0.063767 126 
0.350989 -0.420929 -0.06291 131 
0.351548 -0.420922 -0.061799 128 
0.351322 -0.420928 -0.060941 133 
0.351339 -0.42093 -0.060003 133 
0.350812 -0.420941 -0.059244 135 
0.351858 -0.420925 -0.057964 133 
0.351089 -0.42094 -0.057285 128 
0.350806 -0.420947 -0.056445 126 
0.352157 -0.420926 -0.055054 118 
0.351268 -0.420944 -0.054418 121 
0.350864 -0.420953 -0.053618 123 
0.350342 -0.420964 -0.05286 125 
0.350061 -0.42097 -0.05202 128 
0.350384 -0.420967 -0.05097 129 
0.349863 -0.420978 -0.050213 132 
0.349163 -0.420992 -0.04952 125 
0.348585 -0.421004 -0.048786 122 
0.349509 -0.42099 -0.04752 122 
0.349231 -0.420997 -0.046678 116 
0.348895 -0.421005 -0.045859 118 
0.348618 -0.421012 -0.045018 120 
0.348283 -0.42102 -0.044199 122 
0.34741 -0.421037 -0.043577 115 
0.346481 -0.421055 -0.042978 108 
0.346744 -0.421052 -0.041941 101 
0.346591 -0.421057 -0.041057 100 
0.345843 -0.421072 -0.040396 98 
0.34581 -0.421075 -0.039467 102 
0.344947 -0.421091 -0.038852 101 
0.344382 -0.421103 -0.038126 103 
0.344054 -0.421111 -0.037311 100 
0.344436 -0.421106 -0.036224 98 
0.344878 -0.421101 -0.035111 96 
0.34396 -0.421119 -0.034524 96 
0.345113 -0.421101 -0.033131 92 
0.344905 -0.421107 -0.032266 93 
0.344283 -0.42112 -0.031565 96 
0.345024 -0.421109 -0.030325 88 
0.34559 -0.421102 -0.029151 85 
0.34598 -0.421097 -0.028044 83 
0.345475 -0.421108 -0.027295 88 
0.346283 -0.421097 -0.026015 86 
0.346855 -0.421089 -0.024828 76 
0.346889 -0.421091 -0.023857 79 
0.348369 -0.421068 -0.022291 74 
0.349616 -0.421049 -0.020814 75 
0.348319 -0.421073 -0.020387 78 
0.349386 -0.421057 -0.018979 82 
0.349484 -0.421058 -0.017971 71 
0.349278 -0.421063 -0.01709 75 
0.349499 -0.421062 -0.016028 73 
0.352108 -0.42102 -0.013948 74 
0.351902 -0.421026 -0.01306 80 
0.351574 -0.421033 -0.012224 74 
0.351861 -0.421031 -0.011123 75 
0.352767 -0.421018 -0.00975201 71 
0.352995 -0.421016 -0.00867101 74 
0.354591 -0.420991 -0.00698901 75 
0.354075 -0.421002 -0.00622902 81 
0.352507 -0.421031 -0.00593502 78 
0.353233 -0.421021 -0.00462801 73 
0.354585 -0.421 -0.00303601 125 
0.354008 -0.421012 -0.00230401 69 
0.355117 -0.420996 -0.000814011 73 
0.355604 -0.42099 0.000400985 71 
0.114285 -0.422743 -0.323614 11 
0.324415 -0.417122 -0.421905 13 
0.311425 -0.417472 -0.414839 10 
0.323934 -0.41714 -0.419808 14 
0.315356 -0.417371 -0.414863 12 
0.318973 -0.417277 -0.415632 11 
0.320215 -0.417245 -0.415287 11 
0.313453 -0.417428 -0.411245 9 
0.0617466 -0.424154 -0.296366 11 
0.318479 -0.417298 -0.411729 13 
0.313541 -0.417432 -0.408566 9 
0.309841 -0.417533 -0.405985 10 
0.255987 -0.418973 -0.380851 8 
0.3111 -0.417503 -0.404758 15 
0.0864446 -0.423501 -0.304655 10 
0.314755 -0.41741 -0.40459 14 
1.19886 -0.393809 -0.797293 10 
0.320499 -0.41726 -0.405314 13 
0.310356 -0.417533 -0.399955 12 
0.312685 -0.417473 -0.40008 14 
0.314152 -0.417436 -0.399822 15 
0.309641 -0.417558 -0.396975 11 
0.307079 -0.417629 -0.394987 12 
0.312132 -0.417496 -0.396268 15 
0.307619 -0.417618 -0.393455 20 
0.306183 -0.417658 -0.391966 18 
0.312597 -0.41749 -0.393794 17 
0.307274 -0.417633 -0.390672 16 
0.308301 -0.417608 -0.390223 12 
0.304521 -0.417711 -0.387774 15 
0.308997 -0.417593 -0.388755 12 
0.307556 -0.417634 -0.387283 13 
0.311633 -0.417527 -0.388078 12 
0.307046 -0.417651 -0.385328 17 
0.301779 -0.417793 -0.382322 17 
0.303812 -0.417741 -0.382281 19 
0.302412 -0.41778 -0.380855 16 
0.301119 -0.417817 -0.379479 22 
0.300512 -0.417835 -0.378382 24 
0.303562 -0.417756 -0.378731 27 
0.300078 -0.41785 -0.376503 23 
0.303022 -0.417774 -0.376801 22 
0.301582 -0.417814 -0.375384 21 
0.301997 -0.417805 -0.37469 27 
0.302364 -0.417797 -0.373978 23 
0.301125 -0.417832 -0.37265 24 
0.302416 -0.4178 -0.37229 25 
0.303322 -0.417777 -0.371781 23 
0.301885 -0.417818 -0.370386 30 
0.302155 -0.417812 -0.369638 29 
0.301503 -0.417832 -0.368545 25 
0.30221 -0.417815 -0.367959 31 
0.300302 -0.417867 -0.366408 28 
0.300572 -0.417862 -0.365663 24 
0.303221 -0.417794 -0.365785 27 
0.304131 -0.417771 -0.365267 33 
0.301771 -0.417836 -0.363567 29 
0.30365 -0.417788 -0.363397 34 
0.304022 -0.41778 -0.362682 33 
0.303661 -0.417792 -0.361707 32 
0.301794 -0.417843 -0.360204 32 
0.303185 -0.417808 -0.359851 30 
0.304781 -0.417768 -0.359564 37 
0.301839 -0.417847 -0.357699 37 
0.303035 -0.417818 -0.357272 35 
0.302339 -0.417838 -0.356193 36 
0.30242 -0.417838 -0.355382 39 
0.303083 -0.417822 -0.354768 40 
0.303408 -0.417815 -0.354039 41 
0.304711 -0.417783 -0.353636 34 
0.30294 -0.417831 -0.352207 36 
0.306104 -0.41775 -0.352417 38 
0.303105 -0.417831 -0.350589 30 
0.30348 -0.417823 -0.349876 42 
0.304489 -0.417798 -0.349369 41 
0.306438 -0.417748 -0.349161 42 
0.304316 -0.417806 -0.347641 43 
0.30528 -0.417783 -0.347113 43 
0.304193 -0.417813 -0.345932 44 
0.304619 -0.417804 -0.345233 46 
0.306519 -0.417756 -0.344994 49 
0.305868 -0.417775 -0.343955 46 
0.30566 -0.417782 -0.343056 50 
0.306188 -0.41777 -0.342384 45 
0.306374 -0.417767 -0.341607 48 
0.306068 -0.417777 -0.340681 54 
0.306697 -0.417762 -0.340037 49 
0.308415 -0.417719 -0.339718 49 
0.307761 -0.417738 -0.338688 56 
0.307307 -0.417752 -0.33772 57 
0.30715 -0.417758 -0.336842 58 
0.307684 -0.417746 -0.336166 59 
0.30812 -0.417736 -0.33546 53 
0.309402 -0.417704 -0.334996 57 
0.308797 -0.417722 -0.33399 58 
0.309088 -0.417716 -0.33324 57 
0.310025 -0.417694 -0.332672 61 
0.310118 -0.417693 -0.331864 61 
0.309315 -0.417716 -0.330808 64 
0.308269 -0.417745 -0.329689 65 
0.309105 -0.417725 -0.32909 63 
0.309546 -0.417716 -0.328381 66 
0.310038 -0.417704 -0.327684 73 
0.310882 -0.417684 -0.32708 77 
0.310727 -0.41769 -0.326208 75 
0.310723 -0.417692 -0.325377 73 
0.31172 -0.417668 -0.324809 68 
0.310517 -0.417701 -0.323666 68 
0.312618 -0.417648 -0.32338 66 
0.311811 -0.417671 -0.322342 65 
0.311159 -0.41769 -0.321347 68 
0.312259 -0.417663 -0.320798 63 
0.312509 -0.417658 -0.320031 71 
0.312759 -0.417654 -0.319265 79 
0.313464 -0.417637 -0.31861 80 
0.31301 -0.417651 -0.317669 85 
0.313363 -0.417643 -0.316927 78 
0.313615 -0.417639 -0.31616 80 
0.313717 -0.417638 -0.315356 78 
0.314022 -0.417632 -0.3146 87 
0.313721 -0.417641 -0.313702 86 
0.315598 -0.417594 -0.313313 84 
0.31499 -0.417612 -0.312342 87 
0.315603 -0.417598 -0.311655 91 
0.315403 -0.417605 -0.310781 89 
0.316272 -0.417584 -0.310149 88 
0.316378 -0.417583 -0.309344 93 
0.316485 -0.417582 -0.308538 91 
0.317103 -0.417568 -0.307846 96 
0.316802 -0.417578 -0.306951 91 
0.317319 -0.417566 -0.306235 93 
0.31789 -0.417553 -0.305529 89 
0.318256 -0.417545 -0.304777 97 
0.319449 -0.417516 -0.304199 94 
0.319146 -0.417526 -0.303305 99 
0.318742 -0.417538 -0.302391 97 
0.319473 -0.417521 -0.301712 98 
0.320103 -0.417506 -0.30101 101 
0.319233 -0.417531 -0.300005 100 
0.319605 -0.417523 -0.299251 98 
0.320029 -0.417514 -0.298506 95 
0.319781 -0.417522 -0.297629 101 
0.320725 -0.417499 -0.296983 97 
0.319908 -0.417522 -0.295998 98 
0.320542 -0.417508 -0.295291 96 
0.32123 -0.417492 -0.294592 97 
0.322599 -0.417458 -0.294017 96 
0.321518 -0.417488 -0.292987 98 
0.321949 -0.417479 -0.292237 108 
0.32259 -0.417464 -0.291524 116 
0.323077 -0.417453 -0.290781 116 
0.322517 -0.417469 -0.289852 114 
0.323057 -0.417457 -0.289117 108 
0.323283 -0.417453 -0.288327 105 
0.324404 -0.417426 -0.287689 109 
0.323581 -0.417449 -0.286719 115 
0.32339 -0.417456 -0.285858 111 
0.324091 -0.417439 -0.285145 111 
0.324427 -0.417433 -0.284371 114 
0.324236 -0.417439 -0.283511 116 
0.324889 -0.417424 -0.282786 116 
0.324699 -0.417431 -0.281927 114 
0.325566 -0.41741 -0.281233 114 
0.326012 -0.417401 -0.280471 115 
0.326035 -0.417402 -0.279644 116 
0.325688 -0.417413 -0.278762 115 
0.326454 -0.417395 -0.278046 121 
0.325525 -0.417421 -0.27708 118 
0.325497 -0.417423 -0.276248 121 
0.325523 -0.417425 -0.275423 121 
0.325866 -0.417418 -0.274644 119 
0.325154 -0.417438 -0.273718 119 
0.326132 -0.417414 -0.273025 119 
0.325684 -0.417428 -0.272137 118 
0.325924 -0.417424 -0.271343 123 
0.326006 -0.417423 -0.270527 124 
0.325666 -0.417434 -0.269657 121 
0.326702 -0.417409 -0.268963 125 
0.326097 -0.417427 -0.26806 127 
0.326234 -0.417425 -0.267252 123 
0.326266 -0.417426 -0.26643 120 
0.325717 -0.417442 -0.265539 125 
0.325962 -0.417437 -0.264744 127 
0.325415 -0.417454 -0.263856 124 
0.325238 -0.41746 -0.263013 132 
0.325695 -0.41745 -0.262242 131 
0.325046 -0.417469 -0.261347 129 
0.325082 -0.41747 -0.26053 131 
0.325487 -0.417461 -0.259752 126 
0.325419 -0.417465 -0.258923 131 
0.324983 -0.417478 -0.258057 131 
0.325811 -0.417458 -0.257321 136 
0.325323 -0.417473 -0.256451 131 
0.324679 -0.417491 -0.255568 126 
0.324982 -0.417485 -0.254778 132 
0.325444 -0.417475 -0.254002 131 
0.325485 -0.417476 -0.253186 133 
0.324791 -0.417496 -0.252303 137 
0.324781 -0.417498 -0.251484 135 
0.32409 -0.417517 -0.250607 140 
0.325078 -0.417494 -0.249874 138 
0.324073 -0.417522 -0.248973 137 
0.323961 -0.417526 -0.248148 139 
0.324477 -0.417515 -0.247373 138 
0.323791 -0.417534 -0.246503 141 
0.325042 -0.417504 -0.245782 143 
0.322946 -0.41756 -0.244812 146 
0.322889 -0.417563 -0.243995 145 
0.32273 -0.417569 -0.243171 146 
0.322467 -0.417578 -0.242341 150 
0.322723 -0.417573 -0.241546 149 
0.322877 -0.417571 -0.240744 149 
0.32189 -0.417598 -0.239871 154 
0.322148 -0.417593 -0.239076 149 
0.321837 -0.417603 -0.238248 148 
0.320805 -0.417632 -0.23738 157 
0.320292 -0.417647 -0.236544 151 
0.320345 -0.417647 -0.23574 152 
0.320655 -0.417641 -0.23495 156 
0.320453 -0.417648 -0.234133 153 
0.319789 -0.417667 -0.233295 155 
0.320049 -0.417662 -0.232502 157 
0.320002 -0.417665 -0.231694 156 
0.319495 -0.41768 -0.230868 157 
0.321144 -0.417639 -0.230129 164 
0.319251 -0.41769 -0.22925 160 
0.318952 -0.4177 -0.228435 163 
0.319265 -0.417693 -0.227643 166 
0.318559 -0.417713 -0.226817 163 
0.31872 -0.417711 -0.22602 159 
0.318424 -0.41772 -0.225209 161 
0.317621 -0.417743 -0.224385 156 
0.317885 -0.417738 -0.223592 155 
0.316479 -0.417776 -0.222759 157 
0.316138 -0.417786 -0.221953 152 
0.317767 -0.417746 -0.221188 160 
0.316263 -0.417787 -0.220361 158 
0.315521 -0.417808 -0.219552 162 
0.314983 -0.417823 -0.218749 160 
0.314048 -0.417849 -0.217942 158 
0.312672 -0.417886 -0.217135 157 
0.31239 -0.417895 -0.216342 158 
0.312059 -0.417906 -0.21555 163 
0.311681 -0.417917 -0.214758 160 
0.311747 -0.417917 -0.21397 160 
0.311665 -0.417921 -0.213181 161 
0.311092 -0.417938 -0.212392 161 
0.311307 -0.417934 -0.211604 159 
0.311178 -0.417939 -0.210817 155 
0.311149 -0.417942 -0.210029 157 
0.311562 -0.417933 -0.209238 158 
0.311534 -0.417935 -0.208449 156 
0.311308 -0.417943 -0.207663 153 
0.311232 -0.417947 -0.206876 151 
0.313479 -0.417891 -0.206053 156 
0.313602 -0.417889 -0.205258 153 
0.312484 -0.41792 -0.204487 160 
0.311865 -0.417937 -0.20371 161 
0.312137 -0.417932 -0.202914 161 
0.312954 -0.417913 -0.202104 162 
0.312286 -0.417932 -0.20133 160 
0.312312 -0.417933 -0.200539 164 
0.312784 -0.417923 -0.199734 153 
0.313159 -0.417915 -0.19893 155 
0.31279 -0.417926 -0.19815 155 
0.313116 -0.41792 -0.197347 160 
0.313991 -0.417899 -0.196521 159 
0.313921 -0.417903 -0.19573 159 
0.314001 -0.417902 -0.194932 162 
0.31269 -0.417938 -0.194195 154 
0.313715 -0.417913 -0.193356 162 
0.313448 -0.417922 -0.192575 161 
0.31353 -0.417922 -0.191777 161 
0.314161 -0.417907 -0.190951 163 
0.314245 -0.417907 -0.190151 168 
0.315381 -0.41788 -0.189293 166 
0.315064 -0.41789 -0.188513 164 
0.31505 -0.417892 -0.187717 164 
0.315789 -0.417875 -0.186875 160 
0.314922 -0.417899 -0.18613 162 
0.315311 -0.41789 -0.185307 160 
0.315952 -0.417876 -0.184467 166 
0.316848 -0.417855 -0.183606 165 
0.316484 -0.417866 -0.18283 168 
0.31612 -0.417877 -0.182054 164 
0.317019 -0.417856 -0.181188 162 
0.3161 -0.417881 -0.180454 164 
0.316343 -0.417877 -0.179635 159 
0.316942 -0.417863 -0.178786 162 
0.31663 -0.417873 -0.178008 160 
0.316269 -0.417884 -0.177235 160 
0.317173 -0.417863 -0.176357 161 
0.317675 -0.417852 -0.175509 162 
0.31772 -0.417853 -0.1747 158 
0.318122 -0.417844 -0.173859 158 
0.31766 -0.417858 -0.173094 161 
0.31791 -0.417853 -0.172265 162 
0.318263 -0.417846 -0.171425 168 
0.318567 -0.41784 -0.170588 169 
0.320102 -0.417803 -0.169627 166 
0.320049 -0.417806 -0.168821 164 
0.320409 -0.417799 -0.167973 166 
0.319381 -0.417827 -0.167268 162 
0.31974 -0.417819 -0.166419 163 
0.320204 -0.417809 -0.165557 165 
0.320308 -0.417809 -0.164732 163 
0.320671 -0.417801 -0.163878 163 
0.320468 -0.417808 -0.163087 165 
0.320574 -0.417807 -0.16226 163 
0.320526 -0.41781 -0.161451 159 
0.320892 -0.417803 -0.160592 159 
0.322401 -0.417766 -0.159593 163 
0.322303 -0.417771 -0.158786 162 
0.323091 -0.417753 -0.157868 165 
0.323098 -0.417754 -0.157046 164 
0.322116 -0.417781 -0.156351 160 
0.322592 -0.417771 -0.155469 162 
0.323594 -0.417747 -0.154515 163 
0.323289 -0.417757 -0.153733 162 
0.323665 -0.417749 -0.152858 156 
0.323938 -0.417744 -0.151996 162 
0.323687 -0.417752 -0.151206 163 
0.324382 -0.417736 -0.150283 161 
0.324131 -0.417745 -0.149492 161 
0.324881 -0.417728 -0.148556 162 
0.324684 -0.417735 -0.147757 161 
0.325015 -0.417728 -0.14688 165 
0.327151 -0.417676 -0.145726 166 
0.327221 -0.417676 -0.144882 160 
0.327184 -0.417679 -0.144054 157 
0.327682 -0.417668 -0.143141 158 
0.327165 -0.417683 -0.142387 157 
0.327985 -0.417664 -0.14142 156 
0.328111 -0.417663 -0.140562 153 
0.328024 -0.417667 -0.139739 155 
0.328527 -0.417656 -0.138817 154 
0.328817 -0.41765 -0.137929 161 
0.330512 -0.417609 -0.136799 161 
0.330643 -0.417608 -0.135932 159 
0.330287 -0.417619 -0.13515 155 
0.330799 -0.417608 -0.134215 154 
0.331204 -0.4176 -0.133297 151 
0.331501 -0.417594 -0.132396 154 
0.331418 -0.417598 -0.131563 154 
0.332811 -0.417565 -0.130458 155 
0.332784 -0.417567 -0.129612 155 
0.333196 -0.417559 -0.128683 150 
0.334161 -0.417536 -0.127646 148 
0.334743 -0.417524 -0.126679 153 
0.334774 -0.417525 -0.125816 145 
0.334583 -0.417531 -0.124996 145 
0.335003 -0.417523 -0.124055 147 
0.335534 -0.417511 -0.12309 146 
0.335623 -0.417511 -0.122212 146 
0.335712 -0.417511 -0.121332 146 
0.337535 -0.417467 -0.120097 144 
0.338133 -0.417454 -0.119107 148 
0.337607 -0.417469 -0.11835 144 
0.3386 -0.417446 -0.117273 142 
0.339316 -0.41743 -0.116251 147 
0.339752 -0.417421 -0.115286 141 
0.340416 -0.417406 -0.11427 143 
0.341254 -0.417387 -0.113212 142 
0.341639 -0.417379 -0.11225 140 
0.341451 -0.417386 -0.111414 141 
0.341895 -0.417377 -0.110436 141 
0.342972 -0.417351 -0.109313 147 
0.343883 -0.417331 -0.108223 141 
0.343638 -0.417339 -0.107394 138 
0.344263 -0.417325 -0.106365 140 
0.344309 -0.417326 -0.105467 134 
0.345054 -0.417309 -0.104405 141 
0.345977 -0.417288 -0.103296 140 
0.346787 -0.417269 -0.10221 143 
0.347307 -0.417258 -0.101191 147 
0.348479 -0.417231 -0.10001 142 
0.348353 -0.417236 -0.099142 135 
0.349057 -0.41722 -0.09807 139 
0.348755 -0.41723 -0.097244 138 
0.349937 -0.417202 -0.096046 137 
0.350111 -0.4172 -0.095099 135 
0.350227 -0.417199 -0.094165 133 
0.350941 -0.417183 -0.093076 132 
0.350698 -0.417191 -0.092231 134 
0.351476 -0.417174 -0.09112 131 
0.352377 -0.417153 -0.089973 132 
0.352195 -0.41716 -0.089109 128 
0.352075 -0.417165 -0.088229 129 
0.352256 -0.417163 -0.087267 137 
0.3528 -0.417151 -0.086206 139 
0.352681 -0.417156 -0.085322 137 
0.35341 -0.41714 -0.084206 140 
0.35311 -0.417149 -0.083371 144 
0.352751 -0.417161 -0.082552 150 
0.353118 -0.417153 -0.081531 144 
0.354278 -0.417126 -0.080283 142 
0.353675 -0.417144 -0.079532 136 
0.354351 -0.417129 -0.078416 136 
0.354358 -0.417131 -0.07749 134 
0.35406 -0.41714 -0.076651 133 
0.353764 -0.41715 -0.075813 134 
0.354565 -0.417132 -0.074652 126 
0.353842 -0.417152 -0.073938 129 
0.353364 -0.417166 -0.073154 125 
0.354167 -0.417148 -0.071986 130 
0.354544 -0.417141 -0.070943 132 
0.353822 -0.417161 -0.070232 133 
0.353286 -0.417176 -0.069466 128 
0.353908 -0.417163 -0.068345 128 
0.354226 -0.417157 -0.067315 129 
0.353812 -0.417169 -0.066512 125 
0.353887 -0.41717 -0.065555 125 
0.352743 -0.4172 -0.064983 122 
0.353123 -0.417193 -0.06393 123 
0.354299 -0.417166 -0.06262 123 
0.353276 -0.417193 -0.062012 127 
0.353354 -0.417194 -0.061052 129 
0.352578 -0.417215 -0.060368 127 
0.352778 -0.417212 -0.059367 124 
0.352309 -0.417226 -0.058585 128 
0.352084 -0.417234 -0.057723 124 
0.352042 -0.417237 -0.0568 126 
0.352731 -0.417222 -0.05563 124 
0.351231 -0.417261 -0.055197 121 
0.351615 -0.417254 -0.054129 116 
0.350847 -0.417275 -0.053452 118 
0.35111 -0.417271 -0.052423 121 
0.352408 -0.417241 -0.051034 117 
0.351639 -0.417262 -0.050359 123 
0.351358 -0.417271 -0.049514 121 
0.35138 -0.417272 -0.048564 123 
0.351404 -0.417274 -0.047612 115 
0.350033 -0.41731 -0.047155 112 
0.349272 -0.417331 -0.046485 113 
0.349357 -0.417331 -0.045512 115 
0.348899 -0.417345 -0.044735 117 
0.349165 -0.41734 -0.043695 120 
0.348107 -0.417369 -0.043138 117 
0.348734 -0.417355 -0.041965 107 
0.349545 -0.417337 -0.04072 104 
0.347704 -0.417385 -0.040457 97 
0.348091 -0.417378 -0.039367 103 
0.345904 -0.417434 -0.039244 100 
0.345039 -0.417458 -0.038628 91 
0.34578 -0.417442 -0.037405 99 
0.345272 -0.417456 -0.036655 97 
0.344291 -0.417483 -0.036088 96 
0.344437 -0.417481 -0.035088 97 
0.345535 -0.417456 -0.033718 89 
0.344791 -0.417477 -0.033061 92 
0.346252 -0.417443 -0.031542 90 
0.345267 -0.417469 -0.030979 90 
0.346253 -0.417447 -0.029639 86 
0.346345 -0.417447 -0.028651 82 
0.346916 -0.417435 -0.027468 83 
0.347731 -0.417417 -0.026185 75 
0.347584 -0.417423 -0.025286 73 
0.347377 -0.41743 -0.024412 74 
0.348741 -0.417398 -0.022895 75 
0.348231 -0.417413 -0.022142 74 
0.349298 -0.417389 -0.020739 73 
0.348848 -0.417402 -0.01996 74 
0.349493 -0.417388 -0.018725 75 
0.349775 -0.417384 -0.017639 75 
0.352699 -0.417313 -0.015438 77 
0.349607 -0.417392 -0.01577 73 
0.351669 -0.417343 -0.013922 75 
0.351648 -0.417346 -0.012955 72 
0.351873 -0.417343 -0.01188 71 
0.352224 -0.417336 -0.01075 68 
0.354564 -0.417281 -0.00875502 73 
0.353859 -0.4173 -0.00807602 78 
0.353717 -0.417306 -0.00715201 76 
0.354634 -0.417286 -0.00576202 67 
0.35562 -0.417263 -0.00433702 72 
0.356547 -0.417243 -0.00293202 72 
0.356784 -0.417239 -0.00183101 126 
0.356516 -0.417248 -0.000954007 71 
0.356375 -0.417254 -2.10155e-05 74 
0.356803 -0.417245 0.00117099 64 
1.10697 -0.386542 -0.797953 9 
0.222235 -0.417184 -0.373832 9 
0.319974 -0.413802 -0.419123 10 
0.310186 -0.414143 -0.413597 11 
0.299707 -0.414508 -0.407793 11 
0.305026 -0.414326 -0.409386 12 
0.325625 -0.413615 -0.418041 10 
0.314231 -0.414012 -0.411847 8 
0.0877976 -0.421843 -0.308063 8 
0.260408 -0.415877 -0.385454 10 
0.312858 -0.414065 -0.408495 12 
0.313965 -0.414029 -0.408092 14 
0.307193 -0.414265 -0.404133 9 
0.31373 -0.414041 -0.406175 12 
0.30946 -0.414191 -0.403364 15 
0.310294 -0.414164 -0.402841 12 
0.310617 -0.414155 -0.402089 13 
0.313891 -0.414044 -0.402637 9 
0.00833764 -0.424593 -0.270905 9 
0.311951 -0.414115 -0.39999 15 
0.133464 -0.420279 -0.322147 10 
0.310749 -0.41416 -0.397682 10 
0.311485 -0.414137 -0.397108 17 
0.305169 -0.414357 -0.393514 16 
0.305888 -0.414334 -0.392942 12 
0.31128 -0.41415 -0.39435 11 
0.305626 -0.414347 -0.391077 17 
0.308817 -0.414239 -0.39154 13 
0.307623 -0.414282 -0.39016 14 
0.305737 -0.414349 -0.388498 15 
0.303967 -0.414412 -0.386893 14 
0.304236 -0.414405 -0.386134 17 
0.30204 -0.414483 -0.384366 13 
0.304329 -0.414406 -0.384435 18 
0.304401 -0.414405 -0.383597 17 
0.305317 -0.414376 -0.383099 22 
0.30135 -0.414514 -0.38064 17 
0.301959 -0.414495 -0.380024 23 
0.301641 -0.414508 -0.379038 18 
0.300206 -0.414559 -0.377613 25 
0.30057 -0.414549 -0.376902 25 
0.303873 -0.414437 -0.377339 25 
0.302767 -0.414477 -0.376048 26 
0.30407 -0.414434 -0.375695 21 
0.301498 -0.414525 -0.373846 24 
0.300407 -0.414564 -0.372576 28 
0.302184 -0.414505 -0.372402 25 
0.301237 -0.414539 -0.37119 29 
0.30214 -0.41451 -0.37068 25 
0.302802 -0.414489 -0.370076 28 
0.302389 -0.414505 -0.369071 28 
0.303052 -0.414485 -0.368466 28 
0.303815 -0.41446 -0.367896 21 
0.303991 -0.414456 -0.367109 29 
0.303136 -0.414487 -0.365946 25 
0.304047 -0.414458 -0.365427 34 
0.302462 -0.414514 -0.364005 29 
0.304843 -0.414435 -0.364013 33 
0.301743 -0.414543 -0.362057 31 
0.302502 -0.414519 -0.361483 28 
0.303558 -0.414485 -0.361011 29 
0.302174 -0.414534 -0.35968 27 
0.30313 -0.414503 -0.359171 32 
0.302091 -0.414541 -0.357968 38 
0.302171 -0.41454 -0.357155 30 
0.305235 -0.414436 -0.357365 34 
0.303111 -0.414511 -0.355796 38 
0.306434 -0.414399 -0.356081 36 
0.302689 -0.41453 -0.353974 39 
0.302237 -0.414547 -0.352984 37 
0.304366 -0.414476 -0.352856 42 
0.3044 -0.414476 -0.352027 31 
0.305268 -0.414449 -0.351473 38 
0.303735 -0.414503 -0.350131 42 
0.305533 -0.414443 -0.349878 42 
0.304783 -0.414471 -0.348796 47 
0.303986 -0.4145 -0.347703 40 
0.304169 -0.414496 -0.346926 41 
0.306167 -0.414429 -0.346724 43 
0.305564 -0.414452 -0.345696 45 
0.306487 -0.414422 -0.345148 46 
0.305932 -0.414443 -0.344138 48 
0.305626 -0.414455 -0.343207 47 
0.3065 -0.414427 -0.342641 51 
0.307427 -0.414397 -0.342088 43 
0.30707 -0.414411 -0.341143 48 
0.306565 -0.414431 -0.340156 48 
0.306605 -0.414431 -0.339334 51 
0.305955 -0.414455 -0.338307 54 
0.306585 -0.414436 -0.337662 47 
0.307712 -0.414399 -0.33716 56 
0.306962 -0.414426 -0.336108 58 
0.306658 -0.414439 -0.335189 54 
0.307587 -0.414409 -0.334626 56 
0.307925 -0.414399 -0.333891 60 
0.309358 -0.414352 -0.333465 61 
0.30801 -0.4144 -0.332252 59 
0.308548 -0.414383 -0.331572 65 
0.309735 -0.414345 -0.331071 64 
0.309878 -0.414342 -0.330278 62 
0.310122 -0.414335 -0.329512 64 
0.310016 -0.414341 -0.328651 60 
0.309912 -0.414346 -0.327792 66 
0.310206 -0.414338 -0.32704 61 
0.310801 -0.41432 -0.326368 62 
0.312102 -0.414277 -0.325881 68 
0.311445 -0.414301 -0.324875 69 
0.31064 -0.414331 -0.323835 69 
0.311589 -0.4143 -0.323251 65 
0.311737 -0.414297 -0.322458 65 
0.312288 -0.41428 -0.321768 64 
0.311783 -0.414299 -0.32081 74 
0.312536 -0.414275 -0.32017 69 
0.312686 -0.414272 -0.319378 77 
0.312887 -0.414267 -0.318598 83 
0.313644 -0.414243 -0.317954 77 
0.313644 -0.414245 -0.317123 77 
0.31405 -0.414233 -0.316391 83 
0.313494 -0.414254 -0.315428 75 
0.314407 -0.414225 -0.314816 79 
0.314155 -0.414235 -0.313928 77 
0.314715 -0.414218 -0.31323 81 
0.315073 -0.414208 -0.312483 85 
0.31528 -0.414202 -0.311702 87 
0.315589 -0.414194 -0.310943 89 
0.315338 -0.414204 -0.310057 94 
0.31575 -0.414192 -0.309321 96 
0.315703 -0.414196 -0.308482 91 
0.316525 -0.414169 -0.307835 95 
0.317145 -0.41415 -0.307141 92 
0.317203 -0.41415 -0.306324 98 
0.317568 -0.41414 -0.305573 97 
0.317935 -0.414129 -0.304821 101 
0.317993 -0.414129 -0.304004 96 
0.318671 -0.414108 -0.303316 98 
0.317855 -0.414137 -0.302317 97 
0.318946 -0.414102 -0.301712 99 
0.319523 -0.414084 -0.301 98 
0.319947 -0.414072 -0.300255 93 
0.31975 -0.41408 -0.299385 93 
0.32002 -0.414073 -0.298608 94 
0.320238 -0.414067 -0.297821 90 
0.320198 -0.414071 -0.296983 94 
0.320729 -0.414055 -0.296256 96 
0.320794 -0.414054 -0.295438 97 
0.321745 -0.414024 -0.294787 106 
0.321862 -0.414022 -0.293978 106 
0.322295 -0.414009 -0.293227 108 
0.322571 -0.414001 -0.292446 108 
0.321958 -0.414024 -0.291505 106 
0.322916 -0.413993 -0.290846 111 
0.322932 -0.413995 -0.290018 109 
0.324158 -0.413955 -0.289401 110 
0.324017 -0.413962 -0.288545 112 
0.323665 -0.413975 -0.287653 110 
0.323947 -0.413968 -0.28687 114 
0.324915 -0.413937 -0.286201 112 
0.323826 -0.413976 -0.285189 114 
0.324373 -0.413959 -0.284448 111 
0.324604 -0.413953 -0.283655 112 
0.324203 -0.413969 -0.282761 108 
0.324488 -0.413961 -0.281976 113 
0.32414 -0.413974 -0.281093 111 
0.324849 -0.413952 -0.280373 112 
0.324924 -0.413951 -0.279555 113 
0.325054 -0.413949 -0.278746 115 
0.32651 -0.413901 -0.278132 117 
0.325844 -0.413926 -0.277204 117 
0.325604 -0.413936 -0.276339 113 
