0.424998,-0.0666641,0.162579,116
0.425059,-0.0666837,0.163475,113
0.425899,-0.0669285,0.164686,107
0.425036,-0.066681,0.165211,109
0.425828,-0.0669121,0.166408,103
0.426037,-0.0669746,0.16737,100
0.42703,-0.067264,0.168658,95
0.427832,-0.0674981,0.169871,100
0.426325,-0.067064,0.170126,95
0.427272,-0.0673403,0.171404,92
0.427436,-0.0673897,0.172357,96
0.427847,-0.0675106,0.173416,96
0.428062,-0.0675747,0.174394,92
0.428079,-0.0675818,0.175289,92
0.427997,-0.0675603,0.176143,90
0.42861,-0.0677396,0.177297,88
0.429823,-0.0680927,0.178715,85
0.431599,-0.0686083,0.180384,86
0.431367,-0.0685435,0.181183,87
0.431439,-0.0685662,0.182115,87
0.431914,-0.0687057,0.183226,83
0.431935,-0.0687141,0.184139,83
0.432311,-0.0688251,0.185211,83
0.434013,-0.0693194,0.186881,79
0.432915,-0.0690039,0.187297,78
0.432786,-0.0689687,0.188147,71
0.43388,-0.0692874,0.189555,73
0.434571,-0.0694893,0.190784,76
0.434545,-0.0694839,0.191688,77
0.434365,-0.0694341,0.192521,78
0.435007,-0.0696221,0.193736,135
0.43617,-0.0699606,0.195197,74
0.435731,-0.0698359,0.195915,71
0.435759,-0.069846,0.196851,72
0.414475,-0.0593926,-0.19793,10
0.467933,-0.0742875,-0.223351,11
1.16898,-0.26959,-0.567697,8
0.414423,-0.0593845,-0.195268,18
0.415418,-0.0596637,-0.194873,13
0.424085,-0.0620803,-0.198178,13
0.416526,-0.0599765,-0.193649,11
0.419048,-0.0606812,-0.193976,14
0.414684,-0.0594675,-0.191015,12
0.413032,-0.059009,-0.189358,14
0.413094,-0.0590285,-0.188519,12
0.41265,-0.0589068,-0.187442,11
0.419074,-0.0606988,-0.189578,10
0.413746,-0.0592161,-0.18622,10
0.416135,-0.0598841,-0.186459,11
0.409437,-0.0580195,-0.182501,14
0.405695,-0.0569787,-0.179928,13
0.417736,-0.0603362,-0.184579,12
0.406579,-0.0572292,-0.178637,11
0.405933,-0.0570512,-0.177497,18
0.409489,-0.0580441,-0.178252,12
0.411415,-0.0585827,-0.178263,10
0.406529,-0.0572232,-0.17523,13
0.406196,-0.0571322,-0.174238,19
0.406617,-0.0572515,-0.173581,24
0.41095,-0.0584613,-0.174642,19
0.40858,-0.0578026,-0.172755,17
0.410539,-0.0583508,-0.172762,23
0.40764,-0.0575447,-0.170658,18
0.406684,-0.0572802,-0.169405,21
0.407062,-0.0573876,-0.168728,21
0.40914,-0.0579687,-0.168775,23
0.40791,-0.0576279,-0.167411,18
0.40847,-0.0577858,-0.166808,28
0.40769,-0.0575705,-0.165641,22
0.407359,-0.0574799,-0.164665,26
0.407783,-0.0576003,-0.164006,21
0.409731,-0.0581452,-0.163976,27
0.409082,-0.0579664,-0.16287,26
0.407947,-0.0576517,-0.161567,26
0.409491,-0.0580841,-0.161363,24
0.41037,-0.0583311,-0.160882,28
0.409183,-0.0580023,-0.159566,27
0.411594,-0.0586765,-0.159699,34
0.410042,-0.0582455,-0.158241,33
0.408013,-0.0576819,-0.156601,30
0.410499,-0.0583769,-0.156753,27
0.409538,-0.058111,-0.155542,34
0.411002,-0.0585212,-0.155282,34
0.410354,-0.0583425,-0.154197,33
0.409844,-0.058202,-0.153168,34
0.410275,-0.0583242,-0.152504,35
0.411653,-0.0587105,-0.152201,32
0.410555,-0.0584063,-0.150951,33
0.413296,-0.0591725,-0.151159,29
0.411422,-0.0586519,-0.14962,34
0.41249,-0.0589517,-0.14919,33
0.412157,-0.0588607,-0.148235,36
0.412096,-0.0588456,-0.147382,34
0.41199,-0.058818,-0.146515,42
0.411749,-0.0587528,-0.145599,38
0.412909,-0.0590783,-0.145194,37
0.413121,-0.0591393,-0.144442,39
0.412246,-0.0588973,-0.1433,39
0.412413,-0.0589457,-0.142533,40
0.412309,-0.0589185,-0.141671,38
0.412115,-0.0588663,-0.140778,42
0.414459,-0.0595222,-0.140778,43
0.412585,-0.0590013,-0.139296,39
0.412888,-0.0590879,-0.138579,43
0.413691,-0.0593138,-0.138033,44
0.413815,-0.0593502,-0.137251,47
0.415443,-0.0598064,-0.136983,44
0.416302,-0.0600479,-0.136448,42
0.416014,-0.0599695,-0.135524,47
0.414494,-0.0595475,-0.134189,48
0.414301,-0.0594955,-0.133303,47
0.414973,-0.0596849,-0.132704,47
0.414462,-0.0595441,-0.131714,51
0.41637,-0.0600783,-0.131517,51
0.417141,-0.0602954,-0.130944,47
0.416808,-0.0602045,-0.130012,52
0.416614,-0.0601524,-0.129127,52
0.416284,-0.0600621,-0.1282,54
0.417561,-0.0604205,-0.127783,61
0.41677,-0.0602016,-0.126712,53
0.416761,-0.0602011,-0.125889,61
0.418135,-0.0605862,-0.125495,53
0.417159,-0.0603158,-0.124372,55
0.417151,-0.0603155,-0.123551,57
0.418249,-0.0606239,-0.123066,60
0.419353,-0.0609339,-0.12258,62
0.418142,-0.060598,-0.121394,61
0.419014,-0.0608432,-0.120835,67
0.41924,-0.060908,-0.120082,65
0.418539,-0.0607145,-0.119056,65
0.419089,-0.0608697,-0.118399,64
0.419361,-0.0609477,-0.11766,71
0.419588,-0.0610129,-0.116907,67
0.420607,-0.0612991,-0.11638,68
0.420323,-0.0612217,-0.11548,64
0.420505,-0.0612745,-0.114713,72
0.421014,-0.0614185,-0.114037,73
0.420404,-0.0612502,-0.113049,71
0.421007,-0.0614204,-0.112398,71
0.421144,-0.0614606,-0.111618,73
0.421188,-0.0614748,-0.110813,72
0.421186,-0.0614761,-0.109996,72
0.421511,-0.0615688,-0.109267,77
0.421323,-0.0615182,-0.108401,76
0.422117,-0.0617418,-0.107795,76
0.422727,-0.0619137,-0.107138,77
0.422632,-0.0618893,-0.106297,76
0.422914,-0.0619699,-0.105553,80
0.422961,-0.061985,-0.104749,81
0.422915,-0.0619739,-0.103922,81
0.423763,-0.0622128,-0.10332,84
0.423482,-0.0621361,-0.102434,82
0.423013,-0.0620071,-0.101502,79
0.424714,-0.0624838,-0.101107,86
0.424149,-0.0623279,-0.100152,89
0.42335,-0.062107,-0.0991441,85
0.423966,-0.0622808,-0.098479,94
0.424111,-0.0623233,-0.0977001,94
0.424635,-0.0624714,-0.0970104,97
0.425161,-0.06262,-0.0963195,97
0.425498,-0.062716,-0.0955833,101
0.425408,-0.0626929,-0.0947481,100
0.425366,-0.0626831,-0.0939247,102
0.425705,-0.0627795,-0.0931879,103
0.426139,-0.0629027,-0.0924718,104
0.42667,-0.0630529,-0.0917759,106
0.427778,-0.0633641,-0.0912054,113
0.426733,-0.0630742,-0.0901612,104
0.427266,-0.0632251,-0.089463,100
0.427083,-0.063176,-0.0886097,101
0.427762,-0.0633674,-0.0879405,100
0.42878,-0.0636536,-0.0873404,103
0.428261,-0.0635105,-0.0864165,110
0.428704,-0.0636361,-0.0856936,101
0.428426,-0.0635604,-0.0848221,104
0.429787,-0.0639423,-0.0842839,104
0.429605,-0.0638933,-0.0834315,103
0.428797,-0.0636697,-0.0824561,108
0.42905,-0.0637423,-0.0816928,111
0.4294,-0.063842,-0.0809478,115
0.429462,-0.063861,-0.0801463,116
0.429717,-0.0639342,-0.0793819,119
0.429345,-0.0638323,-0.0784986,114
0.429794,-0.0639595,-0.0777705,122
0.429761,-0.0639522,-0.0769519,120
0.429728,-0.063945,-0.076134,124
0.429889,-0.0639918,-0.0753516,118
0.430147,-0.0640658,-0.0745864,126
0.430939,-0.0642889,-0.073915,120
0.430472,-0.0641603,-0.0730206,126
0.431266,-0.064384,-0.0723466,125
0.430411,-0.0641473,-0.071388,126
0.430575,-0.064195,-0.0706054,129
0.431468,-0.0644463,-0.0699442,133
0.430905,-0.064291,-0.0690395,132
0.431363,-0.0644206,-0.0683038,129
0.431432,-0.0644419,-0.0675043,130
0.431405,-0.0644362,-0.0666894,135
0.432303,-0.0646889,-0.0660205,131
0.431352,-0.0644252,-0.0650612,137
0.431278,-0.0644064,-0.0642405,129
0.431204,-0.0643877,-0.0634206,129
0.431568,-0.0644912,-0.0626666,135
0.431155,-0.0643779,-0.0617971,136
0.431957,-0.0646038,-0.0611063,135
0.431157,-0.0643821,-0.0601825,135
0.431328,-0.0644319,-0.0593999,132
0.431306,-0.0644276,-0.0585899,131
0.431043,-0.0643558,-0.057747,134
0.431264,-0.0644195,-0.0569713,139
0.431389,-0.0644563,-0.0561822,135
0.431223,-0.0644119,-0.0553546,143
0.431446,-0.0644761,-0.0545785,142
0.43133,-0.0644456,-0.0537583,146
0.43107,-0.0643746,-0.0529207,149
0.431148,-0.0643986,-0.0521265,148
0.431083,-0.0643821,-0.0513146,144
0.430776,-0.0642982,-0.0504742,148
0.430808,-0.064309,-0.0496755,147
0.430937,-0.064347,-0.0488882,148
0.43068,-0.0642771,-0.0480564,141
0.431004,-0.0643694,-0.0472913,142
0.430941,-0.0643538,-0.0464824,143
0.430493,-0.0642304,-0.0456321,153
0.430673,-0.0642825,-0.0448509,152
0.430805,-0.0643214,-0.0440642,147
0.430359,-0.0641986,-0.0432177,146
0.429962,-0.0640896,-0.0423782,149
0.430048,-0.0641153,-0.0415882,150
0.429509,-0.0639667,-0.0407374,149
0.428877,-0.0637918,-0.0398801,152
0.42882,-0.0637778,-0.039079,156
0.428525,-0.0636971,-0.0382567,154
0.427612,-0.0634439,-0.0373805,155
0.427652,-0.0634569,-0.0365913,154
0.428216,-0.0636164,-0.0358471,157
0.426597,-0.0631656,-0.0349182,152
0.426544,-0.0631526,-0.0341238,155
0.426774,-0.063219,-0.0333524,157
0.426297,-0.0630875,-0.0325252,158
0.426435,-0.0631277,-0.0317466,160
0.426242,-0.0630757,-0.0309433,162
0.426145,-0.0630503,-0.0301477,161
0.425859,-0.0629724,-0.0293395,166
0.425857,-0.0629736,-0.0285519,161
0.424449,-0.0625818,-0.0276712,166
0.424214,-0.0625181,-0.0268717,155
0.424167,-0.0625067,-0.0260849,158
0.424494,-0.0625999,-0.025321,158
0.424028,-0.0624713,-0.0245096,162
0.423656,-0.0623693,-0.0237054,162
0.422868,-0.0621508,-0.02288,162
0.42287,-0.0621532,-0.0220995,165
0.42278,-0.0621298,-0.0213144,164
0.422876,-0.0621584,-0.0205389,166
0.422463,-0.0620447,-0.0197391,163
0.422559,-0.0620735,-0.0189641,167
0.422471,-0.0620508,-0.0181808,166
0.420498,-0.0615008,-0.0173201,162
0.42,-0.0613635,-0.0165251,166
0.419961,-0.0613542,-0.0157494,164
0.419922,-0.0613451,-0.0149738,168
0.4192,-0.061145,-0.0141756,164
0.419071,-0.0611107,-0.013399,167
0.418852,-0.0610513,-0.0126202,163
0.417593,-0.0607011,-0.0118134,166
0.417512,-0.0606801,-0.011042,163
0.417071,-0.0605586,-0.0102624,163
0.416586,-0.0604249,-0.00948353,158
0.416911,-0.0605175,-0.00872292,166
0.416428,-0.0603842,-0.00794633,166
0.416439,-0.0603892,-0.00717972,168
0.416317,-0.0603567,-0.00641116,171
0.414811,-0.0599373,-0.00562578,168
0.414379,-0.0598183,-0.00485759,167
0.414303,-0.059799,-0.00409416,166
0.414095,-0.0597425,-0.00333015,169
0.414109,-0.0597482,-0.00256802,164
0.413725,-0.0596426,-0.00180467,171
0.413519,-0.0595867,-0.00104298,171
0.413711,-0.0596423,-0.000281718,171
0.413993,-0.0597228,0.000480541,173
0.413522,-0.059593,0.00124034,172
0.414026,-0.0597356,0.00200482,167
0.413601,-0.0596184,0.0027633,167
0.415395,-0.0601221,0.00354344,167
0.413239,-0.0595208,0.00428151,162
0.413655,-0.059639,0.00504818,163
0.414161,-0.0597824,0.00581794,161
0.41365,-0.0596411,0.0065712,163
0.413581,-0.0596237,0.00733146,165
0.413911,-0.0597179,0.00810027,167
0.414865,-0.0599864,0.0088853,172
0.414886,-0.0599942,0.00964998,170
0.415667,-0.0602143,0.0104359,171
0.41502,-0.0600352,0.0111825,171
0.41411,-0.0597824,0.0119184,168
0.414311,-0.0598404,0.0126881,166
0.413891,-0.0597248,0.0134367,174
0.414893,-0.0600067,0.0142368,166
0.415319,-0.0601277,0.0150182,168
0.41521,-0.0600992,0.0157794,171
0.415058,-0.0600584,0.0165384,170
0.415397,-0.0601549,0.017319,166
0.41369,-0.0596791,0.018005,168
0.415362,-0.0601487,0.0188497,166
0.415613,-0.0602208,0.0196287,172
0.415418,-0.0601681,0.0203854,171
0.415491,-0.0601904,0.021156,167
0.416461,-0.0604636,0.0219778,173
0.415863,-0.0602982,0.0227118,177
0.415536,-0.0602083,0.0234599,168
0.415701,-0.0602563,0.0242376,166
0.415956,-0.0603295,0.0250219,165
0.415809,-0.06029,0.0257807,167
0.416963,-0.060615,0.0266278,171
0.418216,-0.0609674,0.0274864,166
0.418023,-0.0609153,0.0282459,169
0.416974,-0.0606233,0.0289415,172
0.416558,-0.0605088,0.0296814,170
0.416323,-0.0604449,0.0304339,169
0.418208,-0.0609743,0.0313545,172
0.417746,-0.0608469,0.0320911,177
0.418054,-0.0609349,0.0328905,171
0.418228,-0.0609852,0.0336797,168
0.418129,-0.0609595,0.034446,169
0.418167,-0.0609719,0.0352244,169
0.417934,-0.0609084,0.0359783,163
0.418064,-0.0609466,0.0367654,166
0.418058,-0.0609467,0.0375403,164
0.418234,-0.0609978,0.0383331,165
0.418274,-0.061011,0.0391134,162
0.418542,-0.0610879,0.039917,169
0.41872,-0.0611396,0.0407127,171
0.418626,-0.061115,0.0414807,171
0.41876,-0.0611542,0.042273,170
0.418848,-0.0611808,0.0430611,166
0.420171,-0.0615531,0.0439864,167
0.420813,-0.0617346,0.0448404,170
0.419986,-0.0615048,0.045529,160
0.418707,-0.0611485,0.046162,162
0.419345,-0.0613291,0.0470173,166
0.420951,-0.0617805,0.0479917,168
0.419484,-0.0613715,0.0485971,164
0.420723,-0.0617205,0.0495331,161
0.420864,-0.0617616,0.0503356,166
0.42105,-0.0618158,0.0511449,163
0.421146,-0.0618443,0.0519434,163
0.421011,-0.0618084,0.0527121,162
0.421015,-0.0618114,0.0534992,163
0.42125,-0.0618791,0.0543181,160
0.421117,-0.0618436,0.0550874,163
0.421307,-0.0618987,0.0559017,165
0.421267,-0.0618893,0.0566845,161
0.421366,-0.0619188,0.0574874,161
0.421974,-0.0620912,0.0583653,161
0.421241,-0.0618877,0.0590479,164
0.42148,-0.0619565,0.0598733,162
0.421396,-0.0619348,0.0606511,160
0.422332,-0.0621989,0.0615854,164
0.422063,-0.0621253,0.0623365,165
0.422166,-0.062156,0.0631453,166
0.422502,-0.0622519,0.0639921,170
0.424195,-0.0627281,0.0650595,164
0.423364,-0.0624971,0.0657218,164
0.424078,-0.0626992,0.0666366,164
0.424138,-0.0627177,0.0674452,163
0.424198,-0.0627365,0.0682544,163
0.42393,-0.0626633,0.0690081,164
0.424555,-0.0628402,0.0699157,166
0.424664,-0.0628726,0.0707359,169
0.42468,-0.0628788,0.0715403,167
0.424931,-0.0629511,0.0723874,166
0.424711,-0.0628915,0.0731508,171
0.425106,-0.0630038,0.0740259,164
0.424463,-0.0628255,0.0747113,165
0.425235,-0.0630439,0.075659,165
0.425822,-0.0632101,0.0765751,169
0.427364,-0.0636441,0.0776762,166
0.426716,-0.0634643,0.0783617,156
0.427213,-0.0636055,0.0792681,159
0.426804,-0.0634929,0.0799988,157
0.427159,-0.0635943,0.08088,156
0.427085,-0.0635755,0.0816771,157
0.426773,-0.0634899,0.082426,154
0.427225,-0.0636186,0.0833306,160
0.427679,-0.0637477,0.0842378,158
0.427511,-0.0637025,0.0850175,160
0.427775,-0.0637784,0.085888,162
0.427752,-0.0637737,0.086699,158
0.426247,-0.0633539,0.0871927,163
0.427802,-0.0637918,0.0883432,154
0.427925,-0.0638279,0.0891874,159
0.428577,-0.0640126,0.0901494,155
0.428652,-0.0640357,0.0909862,152
0.430279,-0.0644934,0.0921719,157
0.42987,-0.0643809,0.0929038,156
0.429705,-0.0643365,0.0936903,153
0.429153,-0.0641837,0.0943875,158
0.430105,-0.0644524,0.0954324,153
0.430817,-0.0646541,0.0964257,152
0.429292,-0.0642285,0.0968933,152
0.430149,-0.0644707,0.0979233,148
0.429113,-0.0641821,0.0985021,146
0.42929,-0.0642338,0.0993715,149
0.42942,-0.0642721,0.10023,148
0.43067,-0.0646245,0.101367,156
0.430607,-0.0646086,0.102182,154
0.430886,-0.0646888,0.103084,157
0.430627,-0.0646183,0.103851,149
0.430614,-0.0646164,0.10468,148
0.430649,-0.0646284,0.105523,152
0.43049,-0.0645858,0.106316,151
0.430723,-0.0646528,0.107211,151
0.430711,-0.0646515,0.108043,144
0.430651,-0.0646366,0.108863,145
0.430836,-0.0646904,0.109749,142
0.431021,-0.0647445,0.110636,142
0.430619,-0.0646337,0.111365,141
0.430708,-0.0646605,0.112228,141
0.429867,-0.0644267,0.112836,139
0.430739,-0.0646731,0.113915,144
0.430339,-0.0645629,0.114643,142
0.43038,-0.0645764,0.115495,143
0.430225,-0.064535,0.116292,142
0.429876,-0.064439,0.117034,144
0.429869,-0.0644391,0.117873,146
0.429765,-0.0644119,0.118684,146
0.430297,-0.0645632,0.119681,142
0.429314,-0.0642893,0.120237,141
0.429748,-0.0644131,0.121207,138
0.430086,-0.0645099,0.122151,144
0.429397,-0.0643186,0.122791,143
0.429491,-0.0643468,0.123663,137
0.429683,-0.0644027,0.124567,137
0.429631,-0.0643901,0.125398,146
0.429237,-0.0642816,0.126124,143
0.429822,-0.0644476,0.127151,147
0.429575,-0.0643803,0.127923,144
0.429035,-0.064231,0.128603,146
0.429132,-0.06426,0.129482,144
0.429327,-0.0643166,0.130393,147
0.429571,-0.0643872,0.131321,152
0.429277,-0.0643068,0.132079,147
0.429277,-0.0643088,0.13293,144
0.428496,-0.0640916,0.133528,143
0.428985,-0.0642309,0.13454,145
0.428498,-0.0640962,0.135233,154
0.429332,-0.064332,0.136362,150
0.428453,-0.0640875,0.136924,149
0.428357,-0.0640627,0.137746,146
0.428458,-0.0640929,0.138635,143
0.427485,-0.0638221,0.13916,143
0.427781,-0.063907,0.140115,154
0.429105,-0.0642806,0.141427,150
0.427593,-0.0638584,0.141763,150
0.427793,-0.0639164,0.142689,146
0.427602,-0.0638649,0.14348,153
0.42712,-0.0637317,0.144169,151
0.426299,-0.0635034,0.144736,147
0.426887,-0.0636704,0.145802,149
0.425729,-0.0633474,0.146246,150
0.425107,-0.0631748,0.146879,149
0.424486,-0.0630027,0.147511,149
0.424156,-0.062912,0.148246,136
0.423538,-0.0627407,0.148876,133
0.424217,-0.0629331,0.149982,124
0.424031,-0.0628831,0.150771,123
0.423558,-0.0627524,0.151453,118
0.42395,-0.0628644,0.152458,114
0.42391,-0.0628551,0.153303,121
0.423918,-0.0628594,0.154166,114
0.424408,-0.0629991,0.155215,110
0.423936,-0.0628684,0.155896,111
0.425055,-0.0631847,0.157191,96
0.424727,-0.0630944,0.157929,98
0.424543,-0.063045,0.158724,101
0.424796,-0.0631179,0.159689,105
0.425243,-0.0632454,0.160733,101
0.424915,-0.0631553,0.161472,108
0.425363,-0.0632832,0.16252,108
0.426496,-0.0636033,0.163846,112
0.425728,-0.0633898,0.164411,110
0.426082,-0.0634913,0.165428,115
0.425901,-0.0634423,0.166229,110
0.425963,-0.0634618,0.16713,105
0.427201,-0.0638115,0.168516,99
0.427462,-0.0638867,0.169504,93
0.428019,-0.0640452,0.170617,97
0.42843,-0.0641627,0.171672,93
0.428892,-0.0642945,0.172752,95
0.428315,-0.0641344,0.173395,104
0.428976,-0.0643221,0.174562,94
0.430389,-0.0647208,0.176053,89
0.429608,-0.0645038,0.176612,82
0.429876,-0.0645811,0.177619,87
0.429895,-0.0645885,0.17852,96
0.429914,-0.0645959,0.179423,94
0.432297,-0.0652669,0.181359,90
0.431409,-0.0650198,0.181871,87
0.432998,-0.065468,0.183472,82
0.432715,-0.0653908,0.184252,80
0.432585,-0.0653564,0.185098,77
0.434544,-0.0659086,0.186881,74
0.434414,-0.0658742,0.187733,83
0.434182,-0.0658112,0.18854,80
0.434462,-0.065892,0.189579,82
0.435103,-0.0660741,0.190784,74
0.434563,-0.0659246,0.191452,77
0.435051,-0.0660638,0.192592,76
0.436731,-0.0665376,0.194287,130
0.436343,-0.0664309,0.195029,70
0.437097,-0.0666448,0.196303,68
0.43843,-0.0670213,0.197853,64
0.801322,-0.160512,-0.389179,11
2.49584,-0.618257,-1.22595,12
0.420883,-0.0577483,-0.199078,15
0.416565,-0.0565837,-0.196088,10
0.423522,-0.0584653,-0.198574,14
0.41528,-0.0562407,-0.193708,12
0.241853,-0.00938712,-0.110356,10
0.418702,-0.0571695,-0.19359,11
0.416262,-0.0565122,-0.191548,10
0.421745,-0.0579959,-0.193266,14
0.420367,-0.0576255,-0.19173,12
0.417296,-0.0567977,-0.189408,13
0.647776,-0.119074,-0.296442,10
0.551272,-0.0930021,-0.250024,13
0.412692,-0.0555599,-0.184657,10
0.411062,-0.0551214,-0.183044,13
0.412178,-0.0554249,-0.182696,12
0.407488,-0.0541596,-0.1797,16
0.410755,-0.0550444,-0.180332,14
0.410366,-0.0549413,-0.179301,12
0.406257,-0.0538329,-0.176602,15
0.411041,-0.0551279,-0.177896,15
0.411654,-0.0552954,-0.177315,13
0.406454,-0.0538922,-0.174159,17
0.408753,-0.0545155,-0.17433,23
0.407968,-0.0543053,-0.173139,18
0.408797,-0.0545312,-0.172657,15
0.408012,-0.0543212,-0.171471,20
0.407232,-0.0541123,-0.170292,22
0.407299,-0.0541324,-0.169481,19
0.40938,-0.0546968,-0.169532,17
0.40797,-0.0543175,-0.168088,20
0.411142,-0.0551769,-0.168593,22
0.40999,-0.0548674,-0.167262,25
0.409833,-0.054827,-0.166355,22
0.41253,-0.055558,-0.166639,21
0.408849,-0.0545649,-0.164265,25
0.410897,-0.0551206,-0.164274,27
0.409166,-0.0546547,-0.162722,23
0.40861,-0.0545063,-0.161658,25
0.4081,-0.0543704,-0.160617,28
0.409421,-0.0547294,-0.160319,27
0.411383,-0.0552617,-0.160273,31
0.40898,-0.0546142,-0.158474,24
0.409185,-0.0546716,-0.157723,31
0.40881,-0.054572,-0.156742,32
0.409373,-0.0547261,-0.156134,29
0.409355,-0.0547232,-0.155296,35
0.410683,-0.0550842,-0.154984,36
0.41116,-0.0552153,-0.154337,31
0.409125,-0.0546668,-0.152719,31
0.41099,-0.0551731,-0.152607,35
0.412555,-0.0555981,-0.152374,29
0.412628,-0.0556199,-0.151569,30
0.41157,-0.0553359,-0.150337,37
0.412413,-0.0555656,-0.149823,33
0.411403,-0.0552944,-0.148616,30
0.414108,-0.0560278,-0.148792,32
0.411912,-0.0554361,-0.147149,40
0.413756,-0.0559365,-0.146998,38
0.412379,-0.0555661,-0.145665,39
0.412273,-0.0555395,-0.144799,39
0.411988,-0.0554642,-0.14387,35
0.413195,-0.0557926,-0.143478,33
0.413725,-0.055938,-0.142841,39
0.413166,-0.0557887,-0.141816,40
0.413334,-0.055836,-0.141049,41
0.413774,-0.055957,-0.140379,35
0.413307,-0.0558326,-0.139391,40
0.415252,-0.0563606,-0.139241,47
0.414782,-0.0562354,-0.138252,39
0.415638,-0.0564688,-0.13772,42
0.415488,-0.0564302,-0.136843,40
0.414198,-0.0560833,-0.135582,38
0.415692,-0.0564893,-0.135262,39
0.41463,-0.0562039,-0.134083,45
0.415486,-0.0564373,-0.133545,50
0.415292,-0.0563868,-0.132659,50
0.416518,-0.0567203,-0.132239,50
0.416186,-0.0566324,-0.131307,49
0.416772,-0.056793,-0.130675,46
0.415936,-0.0565688,-0.129583,54
0.418274,-0.0572031,-0.129511,55
0.416467,-0.0567163,-0.128112,53
0.418115,-0.0571641,-0.127812,58
0.419451,-0.0575274,-0.127409,57
0.417866,-0.0571006,-0.12609,57
0.418089,-0.0571627,-0.125338,56
0.418404,-0.0572499,-0.124614,62
0.41775,-0.0570748,-0.123593,57
0.418389,-0.0572495,-0.122968,64
0.418566,-0.0572995,-0.122202,64
0.418791,-0.0573622,-0.12145,68
0.418645,-0.0573247,-0.120587,71
0.418131,-0.0571875,-0.119617,64
0.419513,-0.0575634,-0.119206,67
0.419972,-0.0576895,-0.118521,56
0.419363,-0.0575266,-0.117525,69
0.419034,-0.0574395,-0.116613,72
0.420189,-0.0577541,-0.116127,72
0.420231,-0.0577674,-0.115321,72
0.420926,-0.0579573,-0.1147,70
0.420177,-0.0577565,-0.113672,75
0.420779,-0.0579213,-0.113023,65
0.42045,-0.0578341,-0.112116,71
0.421193,-0.0580372,-0.111503,75
0.420957,-0.0579753,-0.110623,71
0.421656,-0.0581663,-0.109996,72
0.421561,-0.0581424,-0.109154,76
0.422121,-0.058296,-0.108488,79
0.423012,-0.0585391,-0.107907,72
0.422307,-0.0583501,-0.106905,77
0.422166,-0.0583139,-0.106053,83
0.422541,-0.0584173,-0.105336,89
0.422354,-0.0583686,-0.104473,84
0.422261,-0.0583454,-0.103636,82
0.422731,-0.0584745,-0.102941,82
0.422968,-0.0585404,-0.102187,81
0.4241,-0.0588489,-0.101654,81
0.424197,-0.058877,-0.100863,85
0.423539,-0.0587008,-0.0998879,93
0.423778,-0.0587673,-0.0991327,93
0.42397,-0.0588212,-0.098366,98
0.423974,-0.0588242,-0.0975543,95
0.424261,-0.0589039,-0.0968098,98
0.425544,-0.0592532,-0.0962973,100
0.424933,-0.0590895,-0.0953415,96
0.425697,-0.0592984,-0.0947045,100
0.425703,-0.0593018,-0.0938922,94
0.425899,-0.0593568,-0.0931235,94
0.426525,-0.0595281,-0.0924505,95
0.427535,-0.0598036,-0.0918608,100
0.427926,-0.0599114,-0.0911315,109
0.427502,-0.0597985,-0.0902238,106
0.427798,-0.0598804,-0.0894734,103
0.428334,-0.0600276,-0.0887738,104
0.428247,-0.0600059,-0.0879405,108
0.428112,-0.0599713,-0.087098,109
0.428314,-0.0600279,-0.0863265,107
0.428709,-0.0601367,-0.0855944,105
0.428912,-0.0601936,-0.0848221,102
0.428538,-0.0600943,-0.083933,108
0.429031,-0.0602296,-0.0832191,112
0.429187,-0.0602739,-0.0824371,109
0.429393,-0.0603314,-0.0816645,110
0.428876,-0.0601933,-0.0807513,111
0.430047,-0.0605123,-0.0801649,112
0.429867,-0.0604656,-0.0793175,120
0.429688,-0.060419,-0.0784714,117
0.429655,-0.0604118,-0.0776534,115
0.429815,-0.0604571,-0.0768717,117
0.429444,-0.0603587,-0.0759931,119
0.429943,-0.0604957,-0.0752731,120
0.43025,-0.0605806,-0.0745173,124
0.430412,-0.0606264,-0.0737352,125
0.431545,-0.0609354,-0.0731224,127
0.430883,-0.060758,-0.0721957,128
0.430514,-0.0606599,-0.0713219,118
0.430195,-0.0605753,-0.0704584,126
0.43094,-0.0607791,-0.069774,122
0.431106,-0.0608258,-0.0689915,123
0.430884,-0.0607676,-0.0681457,124
0.430953,-0.0607883,-0.0673479,131
0.430491,-0.0606648,-0.0664658,127
0.431336,-0.0608958,-0.0657911,130
0.430874,-0.0607724,-0.0649107,124
0.431285,-0.0608856,-0.0641662,127
0.43126,-0.0608807,-0.0633545,128
0.431186,-0.0608628,-0.0625361,125
0.431066,-0.0608319,-0.0617113,135
0.431721,-0.0610114,-0.0610002,135
0.431213,-0.0608756,-0.0601199,130
0.431384,-0.0609239,-0.0593381,136
0.430975,-0.0608148,-0.0584749,135
0.431341,-0.0609159,-0.0577203,135
0.431126,-0.0608596,-0.0568858,135
0.431106,-0.0608559,-0.0560785,142
0.431279,-0.0609049,-0.0552971,136
0.430921,-0.0608097,-0.0544463,142
0.431193,-0.0608851,-0.0536777,142
0.431126,-0.0608689,-0.0528658,145
0.431156,-0.0608791,-0.0520664,146
0.431091,-0.0608632,-0.0512555,145
0.430929,-0.0608212,-0.0504336,144
0.430623,-0.0607401,-0.0495955,143
0.430511,-0.0607116,-0.0487814,147
0.430447,-0.0606963,-0.0479736,144
0.430867,-0.0608119,-0.0472206,151
0.430612,-0.0607446,-0.0463917,146
0.430309,-0.0606644,-0.0455588,147
0.43073,-0.0607803,-0.0448045,151
0.430283,-0.0606612,-0.0439581,151
0.429743,-0.0605165,-0.0431039,150
0.430645,-0.060763,-0.0423976,156
0.430249,-0.0606575,-0.0415596,155
0.428944,-0.0603055,-0.0406352,154
0.428647,-0.0602271,-0.0398119,150
0.428304,-0.060136,-0.0389856,156
0.428248,-0.0601226,-0.0381871,157
0.427764,-0.0599933,-0.0373508,161
0.427709,-0.0599802,-0.036554,153
0.427275,-0.0598645,-0.0357252,159
0.426985,-0.0597875,-0.0349103,154
0.426884,-0.0597621,-0.0341122,152
0.426879,-0.0597625,-0.0333222,151
0.426308,-0.0596094,-0.0324885,159
0.426492,-0.0596613,-0.0317144,156
0.426205,-0.0595854,-0.0309049,156
0.426532,-0.0596759,-0.0301409,164
0.425025,-0.059269,-0.0292474,165
0.424929,-0.0592449,-0.0284559,162
0.426101,-0.0595645,-0.0277489,160
0.425959,-0.0595278,-0.026953,158
0.424178,-0.0590468,-0.0260557,163
0.424365,-0.0590992,-0.0252843,165
0.424272,-0.0590758,-0.0244959,167
0.423946,-0.0589895,-0.0236949,167
0.424041,-0.059017,-0.0229181,164
0.423717,-0.0589309,-0.0221191,168
0.423394,-0.0588452,-0.0213215,167
0.423444,-0.0588604,-0.0205434,172
0.421874,-0.0584366,-0.0196892,165
0.422571,-0.0586273,-0.0189432,167
0.421606,-0.0583676,-0.018123,168
0.421106,-0.0582337,-0.0173257,165
0.421663,-0.0583866,-0.0165721,167
0.420842,-0.0581658,-0.0157648,167
0.42094,-0.0581942,-0.0149933,170
0.420215,-0.0579993,-0.014194,167
0.419902,-0.0579164,-0.0134105,165
0.419865,-0.057908,-0.0126365,166
0.418328,-0.0574931,-0.0118209,164
0.419563,-0.0578299,-0.0110832,165
0.418211,-0.0574649,-0.0102786,163
0.417498,-0.0572734,-0.00949347,165
0.416923,-0.0571192,-0.00871384,167
0.416799,-0.0570874,-0.00794469,166
0.416631,-0.0570436,-0.00717532,165
0.416688,-0.0570607,-0.00640987,164
0.416162,-0.0569199,-0.00563695,165
0.415906,-0.0568523,-0.00486892,164
0.416457,-0.0570035,-0.00410888,169
0.414996,-0.056609,-0.00333316,167
0.414433,-0.0564579,-0.00256737,167
0.414314,-0.0564275,-0.00180506,170
0.414107,-0.0563732,-0.00104312,166
0.41368,-0.0562591,-0.000282152,166
0.413784,-0.0562891,0.000478676,166
0.414111,-0.0563794,0.00124096,173
0.414172,-0.0563978,0.00200276,175
0.414145,-0.0563923,0.00276406,170
0.41372,-0.0562787,0.00352111,169
0.413694,-0.0562734,0.00428151,174
0.413447,-0.0562083,0.00503869,165
0.413643,-0.0562633,0.00580214,162
0.414017,-0.0563664,0.0065696,168
0.41386,-0.0563256,0.00732791,167
0.414013,-0.056369,0.00809248,169
0.414123,-0.0564005,0.00885666,171
0.415791,-0.0568551,0.00966149,169
0.416171,-0.05696,0.0104371,168
0.414411,-0.056484,0.0111509,171
0.414789,-0.0565885,0.0119254,169
0.414501,-0.0565122,0.0126792,171
0.414792,-0.0565928,0.0134524,165
0.415753,-0.0568554,0.0142518,168
0.415778,-0.056864,0.0150182,168
0.414689,-0.0565702,0.0157391,167
0.415696,-0.0568452,0.0165461,166
0.415186,-0.0567088,0.0172889,167
0.415973,-0.056924,0.0180906,170
0.415911,-0.056909,0.018854,167
0.415939,-0.0569183,0.0196219,169
0.416191,-0.0569886,0.0204018,174
0.41622,-0.0569983,0.0211707,171
0.415846,-0.0568987,0.021917,170
0.415697,-0.05686,0.0226752,167
0.415772,-0.0568822,0.0234464,166
0.416206,-0.0570017,0.0242404,171
0.416642,-0.0571217,0.0250363,173
0.416449,-0.0570712,0.0257926,172
0.416526,-0.057094,0.0265666,168
0.418636,-0.0576686,0.0274832,174
0.418943,-0.0577536,0.0282785,173
0.41875,-0.057703,0.0290384,172
0.418512,-0.0576403,0.0297943,169
0.417732,-0.0574304,0.0305073,173
0.41881,-0.0577249,0.0313654,172
0.418847,-0.0577366,0.0321429,174
0.419066,-0.0577978,0.0329359,168
0.41883,-0.0577356,0.0336913,174
0.418913,-0.05776,0.0344737,169
0.418452,-0.0576365,0.0352082,168
0.418445,-0.0576365,0.0359824,166
0.41862,-0.0576859,0.0367738,165
0.418478,-0.0576491,0.037536,161
0.419018,-0.0577977,0.038364,167
0.418695,-0.0577117,0.0391089,166
0.419465,-0.0579226,0.039963,169
0.419781,-0.0580102,0.0407736,175
0.420741,-0.0582725,0.041653,170
0.419958,-0.0580619,0.0423509,171
0.419453,-0.0579265,0.043076,174
0.419817,-0.0580271,0.0438953,169
0.420595,-0.0582402,0.0447629,168
0.421422,-0.0584668,0.0456394,170
0.421653,-0.0585313,0.04645,168
0.421792,-0.0585708,0.0472509,168
0.421285,-0.0584349,0.0479751,166
0.421655,-0.0585374,0.0488047,169
0.421842,-0.0585899,0.0496132,165
0.421382,-0.0584668,0.0503414,165
0.421661,-0.0585446,0.0511626,159
0.421942,-0.0586227,0.0519854,164
0.423386,-0.0590168,0.0529627,167
0.421626,-0.0585405,0.0535178,164
0.422047,-0.0586568,0.054362,167
0.422284,-0.058723,0.0551829,173
0.422661,-0.0588273,0.0560246,164
0.42225,-0.0587172,0.0567566,165
0.422674,-0.0588344,0.0576071,165
0.422681,-0.0588382,0.058399,167
0.422503,-0.0587916,0.059164,163
0.424192,-0.0592522,0.0602071,161
0.424435,-0.0593201,0.0610388,169
0.424444,-0.0593246,0.0618359,164
0.424642,-0.0593801,0.0626626,168
0.423527,-0.0590792,0.0632845,165
0.424616,-0.0593769,0.0642526,161
0.424957,-0.0594713,0.0651049,167
0.424828,-0.059438,0.0658824,166
0.424088,-0.059239,0.0665592,169
0.425324,-0.0595767,0.067563,168
0.425527,-0.0596336,0.0683976,170
0.425446,-0.0596135,0.0691851,169
0.425366,-0.0595937,0.0699728,170
0.425381,-0.0595996,0.0707771,167
0.425444,-0.0596185,0.0715903,167
0.425365,-0.059599,0.072379,167
0.426995,-0.0600437,0.0734761,162
0.426489,-0.059908,0.0741903,164
0.427268,-0.0601218,0.0751401,163
0.42786,-0.0602845,0.0760584,162
0.427975,-0.0603175,0.0768896,161
0.427851,-0.0602857,0.0776762,162
0.42744,-0.0601759,0.0784076,162
0.427699,-0.0602483,0.0792681,160
0.428103,-0.06036,0.0801585,159
0.427597,-0.0602245,0.0808705,158
0.427859,-0.0602973,0.0817346,157
0.427785,-0.0602792,0.0825325,155
0.428048,-0.0603525,0.0833991,158
0.428119,-0.0603737,0.0842279,158
0.428913,-0.0605914,0.0852077,157
0.429323,-0.0607049,0.0861107,157
0.4293,-0.0607005,0.0869238,156
0.429471,-0.0607488,0.0877788,153
0.429303,-0.0607052,0.088562,153
0.430737,-0.0610968,0.089694,151
0.430084,-0.0609211,0.0903731,150
0.430646,-0.061076,0.0913201,152
0.430285,-0.0609798,0.0920629,153
0.430752,-0.0611086,0.0929918,152
0.43083,-0.0611318,0.0938346,154
0.431593,-0.0613411,0.0948356,155
0.431526,-0.0613247,0.0956476,158
0.431214,-0.0612419,0.0964028,152
0.431294,-0.0612657,0.0972497,146
0.43118,-0.0612364,0.0980511,147
0.431702,-0.0613803,0.0990053,151
0.431784,-0.0614045,0.0998557,148
0.431768,-0.0614022,0.100683,149
0.4319,-0.0614401,0.101548,149
0.43218,-0.0615182,0.10245,149
0.432215,-0.0615297,0.103292,151
0.432546,-0.0616216,0.10421,151
0.432287,-0.061553,0.10498,148
0.432225,-0.061538,0.1058,147
0.433002,-0.0617513,0.106836,147
0.4322,-0.0615353,0.107466,143
0.432337,-0.0615743,0.108339,147
0.432473,-0.0616135,0.109213,143
0.432167,-0.0615321,0.109971,142
0.432898,-0.0617328,0.111006,138
0.432542,-0.061638,0.111751,136
0.432483,-0.061624,0.112576,139
0.431882,-0.0614625,0.113253,143
0.431873,-0.0614621,0.114091,141
0.432458,-0.061623,0.115095,146
0.432154,-0.0615423,0.115853,141
0.432394,-0.0616095,0.116764,138
0.431991,-0.0615021,0.117494,145
0.431788,-0.0614487,0.11828,141
0.432276,-0.0615834,0.119265,147
0.432122,-0.0615435,0.120067,147
0.431672,-0.0614232,0.120782,145
0.43147,-0.0613702,0.121569,146
0.431466,-0.061371,0.122414,139
0.431117,-0.061278,0.123157,144
0.430867,-0.061212,0.123929,145
0.431307,-0.0613337,0.124909,138
0.431255,-0.0613215,0.125742,151
0.431154,-0.061296,0.12656,140
0.430757,-0.0611902,0.127288,140
0.431002,-0.0612587,0.128213,141
0.431247,-0.0613275,0.129141,143
0.430212,-0.0610478,0.129667,143
0.43031,-0.0610764,0.130548,143
0.430506,-0.0611318,0.131462,147
0.430162,-0.0610402,0.132205,148
0.430113,-0.0610289,0.133041,145
0.429377,-0.0608308,0.133655,142
0.429428,-0.0608464,0.134524,144
0.430018,-0.0610091,0.135571,140
0.429774,-0.0609448,0.136346,140
0.429973,-0.0610009,0.137267,143
0.430075,-0.0610304,0.138157,147
0.430028,-0.0610199,0.138999,142
0.429983,-0.0610094,0.139842,145
0.429937,-0.0609991,0.140685,151
0.42886,-0.060708,0.141174,143
0.428571,-0.0606312,0.141932,146
0.42833,-0.0605679,0.142706,149
0.428188,-0.0605312,0.143514,147
0.428047,-0.0604947,0.144323,148
0.428297,-0.0605647,0.14527,140
0.427862,-0.0604486,0.145976,149
0.427527,-0.0603592,0.146716,152
0.427094,-0.0602435,0.14742,151
0.426031,-0.0599563,0.147896,145
0.425264,-0.0597494,0.148475,135
0.425125,-0.0597137,0.149282,128
0.42465,-0.0595863,0.149965,126
0.423743,-0.0593415,0.150487,120
0.424423,-0.0595287,0.151597,111
0.424768,-0.0596246,0.152585,113
0.424873,-0.0596551,0.153484,116
0.42493,-0.0596726,0.154367,114
0.425423,-0.0598088,0.155417,109
0.425432,-0.0598133,0.156285,113
0.425442,-0.059818,0.157153,107
0.425112,-0.0597303,0.157892,107
0.425705,-0.0598936,0.158988,105
0.425327,-0.0597928,0.159708,107
0.425727,-0.0599036,0.160733,112
0.425981,-0.059975,0.161703,111
0.426188,-0.0600334,0.162656,111
0.427032,-0.060265,0.163865,112
0.426946,-0.0602439,0.164706,106
0.427794,-0.0604768,0.165923,106
0.427317,-0.0603487,0.166607,102
0.427773,-0.0604751,0.167671,102
0.428231,-0.0606019,0.168739,101
0.428444,-0.0606619,0.169708,101
0.428856,-0.0607759,0.170761,99
0.428921,-0.0607958,0.171672,98
0.429882,-0.0610595,0.17296,97
0.429749,-0.0610255,0.173792,94
0.429916,-0.061073,0.174752,90
0.429734,-0.0610256,0.175564,90
0.429802,-0.0610462,0.176484,94
0.42997,-0.061094,0.177447,93
0.43074,-0.0613056,0.178672,85
0.431614,-0.0615456,0.179946,89
0.431835,-0.0616081,0.180941,89
0.432513,-0.0617947,0.182137,79
0.433753,-0.0621346,0.183584,79
0.43403,-0.0622122,0.184612,78
0.434359,-0.0623039,0.185665,71
0.434433,-0.0623262,0.186606,75
0.434611,-0.0623766,0.187595,82
0.435456,-0.062609,0.188887,76
0.435121,-0.0625197,0.189648,76
0.43566,-0.0626688,0.190808,78
0.436927,-0.063016,0.192303,78
0.436073,-0.0627855,0.19283,73
0.437344,-0.0631338,0.194335,126
0.437215,-0.0631009,0.195197,73
0.438286,-0.0633947,0.19662,76
0.439205,-0.0636474,0.197976,75
0.345754,-0.034658,-0.163796,11
0.247562,-0.00895863,-0.115569,10
0.41907,-0.053851,-0.19798,12
0.629705,-0.108984,-0.299609,10
0.422509,-0.0547553,-0.197869,12
0.423687,-0.0550659,-0.197544,15
0.420846,-0.0543242,-0.19529,12
0.413504,-0.0524046,-0.190907,17
0.41627,-0.0531305,-0.191348,11
0.413861,-0.052502,-0.189336,15
0.423413,-0.0550045,-0.192955,12
0.412556,-0.0521644,-0.186989,11
0.410606,-0.0516559,-0.185217,13
0.411765,-0.0519615,-0.184895,14
0.4133,-0.0523652,-0.184742,16
0.409301,-0.0513203,-0.182043,18
0.408914,-0.0512211,-0.181013,14
0.408484,-0.0511104,-0.179965,13
0.411722,-0.0519601,-0.180579,14
0.412887,-0.0522671,-0.180247,17
0.406356,-0.050559,-0.176462,17
0.407669,-0.050905,-0.176205,17
0.411027,-0.0517861,-0.176849,18
0.408294,-0.0510725,-0.17479,17
0.409349,-0.0513507,-0.174409,23
0.408561,-0.0511465,-0.173218,21
0.409573,-0.0514132,-0.172813,21
0.408158,-0.0510447,-0.171355,23
0.409122,-0.0512991,-0.170929,18
0.406778,-0.0506872,-0.16908,18
0.40778,-0.0509516,-0.168671,19
0.409101,-0.0512994,-0.168393,17
0.4089,-0.0512488,-0.167467,19
0.41086,-0.0517641,-0.167452,26
0.408544,-0.0511596,-0.165641,26
0.409914,-0.0515204,-0.165374,21
0.411429,-0.0519191,-0.165162,23
0.410368,-0.0516432,-0.163883,23
0.409493,-0.051416,-0.162685,26
0.409698,-0.0514715,-0.161933,26
0.411436,-0.0519288,-0.161802,23
0.410333,-0.0516417,-0.160518,30
0.409147,-0.0513331,-0.159206,35
0.40971,-0.0514826,-0.158599,26
0.412673,-0.0522606,-0.158943,25
0.41161,-0.051984,-0.157685,29
0.410688,-0.0517446,-0.156487,30
0.411392,-0.0519308,-0.155929,30
0.413097,-0.0523794,-0.155759,35
0.410815,-0.0517835,-0.15404,30
0.410123,-0.0516044,-0.152943,32
0.412315,-0.0521805,-0.152954,32
0.411845,-0.0520593,-0.151942,35
0.413007,-0.0523656,-0.151551,35
0.413126,-0.0523987,-0.150764,34
0.412338,-0.0521942,-0.149637,40
0.413365,-0.0524653,-0.14919,37
0.41226,-0.0521777,-0.147949,32
0.412607,-0.0522704,-0.147249,40
0.413044,-0.0523871,-0.146581,42
0.414303,-0.0527189,-0.146211,33
0.415892,-0.053137,-0.145956,39
0.414273,-0.0527147,-0.144541,35
0.412622,-0.0522842,-0.143121,36
0.414699,-0.0528304,-0.143036,34
0.412324,-0.0522098,-0.141367,41
0.414625,-0.0528148,-0.141354,38
0.414201,-0.0527056,-0.140379,39
0.416063,-0.0531954,-0.140201,45
0.413357,-0.0524882,-0.138438,46
0.416496,-0.0533127,-0.138694,42
0.415702,-0.0531065,-0.137595,39
0.417114,-0.0534787,-0.137249,41
0.414262,-0.052733,-0.135459,37
0.416169,-0.0532348,-0.135277,44
0.415699,-0.0531135,-0.134296,42
0.416054,-0.0532085,-0.133591,47
0.416272,-0.0532676,-0.13284,51
0.416582,-0.0533509,-0.132118,49
0.416756,-0.0533982,-0.131352,39
0.416332,-0.053289,-0.130393,44
0.416873,-0.0534328,-0.129746,47
0.416542,-0.0533479,-0.128819,51
0.417636,-0.0536367,-0.128346,52
0.419573,-0.0541464,-0.128134,51
0.419471,-0.0541214,-0.127277,55
0.418533,-0.0538776,-0.126162,53
0.418432,-0.053853,-0.125309,57
0.418517,-0.0538771,-0.124514,53
0.419948,-0.0542542,-0.12413,57
0.418409,-0.0538526,-0.122842,61
0.419189,-0.054059,-0.122258,65
0.419135,-0.0540469,-0.121422,67
0.420198,-0.0543274,-0.120918,61
0.420985,-0.0545356,-0.12033,62
0.419859,-0.0542425,-0.119179,70
0.420926,-0.054524,-0.11867,62
0.419895,-0.0542556,-0.117552,65
0.421008,-0.0545494,-0.117054,69
0.42035,-0.0543788,-0.116048,72
0.421232,-0.054612,-0.11548,69
0.421462,-0.0546742,-0.114726,67
0.421505,-0.0546873,-0.113919,72
0.421081,-0.054578,-0.112984,65
0.421873,-0.0547876,-0.112385,66
0.422339,-0.0549118,-0.111695,70
0.422618,-0.0549869,-0.110953,70
0.422428,-0.054939,-0.110084,68
0.421958,-0.0548174,-0.109142,76
0.422566,-0.0549789,-0.108488,72
0.423176,-0.0551409,-0.107832,70
0.422893,-0.0550685,-0.106942,81
0.42393,-0.0553423,-0.106395,77
0.423646,-0.0552699,-0.105505,81
0.424024,-0.0553709,-0.104785,80
0.424072,-0.0553854,-0.103981,81
0.424121,-0.0554,-0.103178,81
0.423839,-0.0553279,-0.102293,73
0.424407,-0.055479,-0.101619,79
0.424978,-0.0556306,-0.100944,85
0.424365,-0.0554717,-0.0999797,89
0.424794,-0.0555861,-0.0992695,88
0.42475,-0.0555765,-0.0984451,93
0.424659,-0.0555545,-0.0976103,96
0.424805,-0.0555948,-0.0968321,101
0.425759,-0.0558468,-0.0962419,98
0.425669,-0.0558251,-0.0954073,98
0.425864,-0.0558782,-0.094639,101
0.426013,-0.0559191,-0.0938598,98
0.426352,-0.05601,-0.0931235,101
0.426263,-0.0559887,-0.0922908,105
0.42689,-0.056155,-0.0916172,100
0.427137,-0.0562215,-0.0908582,101
0.427671,-0.0563636,-0.0901612,104
0.428543,-0.0565944,-0.0895355,105
0.427831,-0.0564095,-0.0885688,105
0.427888,-0.0564263,-0.0877679,106
0.428138,-0.0564937,-0.0870075,105
0.428436,-0.0565737,-0.0862567,100
0.427679,-0.056377,-0.0852885,102
0.428313,-0.0565453,-0.0846067,100
0.429672,-0.0569039,-0.0840691,108
0.430119,-0.0570231,-0.0833445,110
0.428972,-0.0567241,-0.0823037,110
0.428985,-0.0567293,-0.0814946,106
0.428998,-0.0567346,-0.080686,107
0.42959,-0.0568918,-0.0799887,115
0.429845,-0.0569607,-0.0792257,115
0.429232,-0.0568018,-0.0782991,115
0.428766,-0.0566814,-0.0774026,120
0.429263,-0.0568135,-0.0766853,126
0.429857,-0.0569714,-0.0759843,122
0.430163,-0.0570536,-0.0752296,128
0.430131,-0.0570472,-0.0744139,129
0.430632,-0.0571805,-0.0736925,128
0.43065,-0.0571871,-0.0728854,124
0.430765,-0.0572191,-0.0720954,126
0.430784,-0.0572259,-0.0712889,127
0.430851,-0.0572455,-0.070491,128
0.430822,-0.0572398,-0.0696771,133
0.430649,-0.0571962,-0.06884,124
0.430766,-0.0572289,-0.0680511,125
0.431612,-0.0574527,-0.0673791,127
0.431002,-0.0572947,-0.0664735,137
0.43054,-0.0571753,-0.0655936,133
0.43066,-0.0572085,-0.0648058,128
0.431409,-0.0574072,-0.0641142,133
0.431724,-0.0574917,-0.0633545,133
0.431603,-0.0574616,-0.0625289,131
0.431579,-0.0574572,-0.0617185,128
0.431409,-0.0574147,-0.0608874,131
0.432261,-0.0576402,-0.0602034,133
0.431801,-0.0575212,-0.0593312,134
0.431585,-0.0574663,-0.0584952,133
0.431709,-0.0575008,-0.057707,138
0.431348,-0.057408,-0.056853,135
0.431716,-0.0575064,-0.0560979,133
0.431405,-0.0574266,-0.0552525,137
0.431434,-0.0574362,-0.0544526,141
0.431367,-0.0574204,-0.0536406,146
0.431591,-0.057481,-0.0528658,143
0.430943,-0.057313,-0.0519825,145
0.430347,-0.0571583,-0.0511083,144
0.430813,-0.0572824,-0.050364,147
0.430363,-0.0571661,-0.0495101,146
0.429962,-0.0570627,-0.048664,147
0.429467,-0.0569346,-0.0478089,153
0.430173,-0.0571219,-0.0470907,150
0.429535,-0.0569561,-0.0462218,153
0.430386,-0.0571816,-0.045517,151
0.428982,-0.0568146,-0.0445692,155
0.429161,-0.0568635,-0.0437925,148
0.428671,-0.0567367,-0.0429467,149
0.428946,-0.0568109,-0.04218,147
0.429079,-0.0568476,-0.0413984,150
0.428639,-0.0567339,-0.0405611,157
0.429682,-0.0570096,-0.0398664,150
0.428334,-0.0566575,-0.0389458,154
0.427945,-0.0565571,-0.0381177,153
0.427557,-0.056457,-0.0372915,151
0.427977,-0.0565692,-0.0365374,156
0.427732,-0.0565068,-0.0357252,152
0.427346,-0.0564073,-0.0349024,158
0.426678,-0.0562336,-0.0340583,154
0.427051,-0.0563334,-0.0332996,152
0.427236,-0.0563837,-0.0325252,155
0.427184,-0.056372,-0.0317323,150
0.42633,-0.0561494,-0.0308806,153
0.425809,-0.0560143,-0.0300563,161
0.426324,-0.0561515,-0.0293066,161
0.425663,-0.0559797,-0.0284751,156
0.424911,-0.055784,-0.0276403,161
0.42491,-0.0557855,-0.0268566,164
0.424909,-0.0557872,-0.0260732,163
0.424956,-0.0558013,-0.0252928,166
0.423883,-0.0555212,-0.0244469,164
0.424117,-0.0555845,-0.0236791,168
0.423513,-0.0554277,-0.0228648,168
0.423005,-0.0552959,-0.0220579,163
0.423611,-0.055457,-0.0213097,166
0.423614,-0.0554596,-0.0205298,164
0.423803,-0.0555112,-0.0197588,168
0.423668,-0.0554775,-0.0189725,170
0.422144,-0.0550788,-0.018127,174
0.421918,-0.0550214,-0.0173409,167
0.421786,-0.0549883,-0.0165594,174
0.421194,-0.0548346,-0.0157614,170
0.420971,-0.0547778,-0.0149787,168
0.420566,-0.0546731,-0.0141909,164
0.420162,-0.0545687,-0.0134047,166
0.419213,-0.0543211,-0.012604,165
0.418812,-0.0542177,-0.0118222,165
0.420096,-0.0545569,-0.0110855,170
0.419422,-0.0543814,-0.0102971,164
0.418071,-0.0540282,-0.00949645,168
0.417449,-0.0538667,-0.00871566,170
0.417595,-0.0539069,-0.00795125,168
0.417697,-0.0539354,-0.0071856,167
0.417664,-0.0539284,-0.00641765,170
0.417541,-0.0538979,-0.00564873,175
0.417373,-0.0538557,-0.00487984,169
0.416129,-0.0535305,-0.00410228,173
0.415696,-0.0534183,-0.00333496,170
0.414863,-0.0532012,-0.00256737,169
0.414522,-0.0531134,-0.00180441,172
0.414404,-0.0530841,-0.00104298,174
0.414109,-0.0530083,-0.000282152,167
0.413859,-0.0529444,0.000477684,161
0.413699,-0.052904,0.001237,168
0.414247,-0.0530499,0.00200041,170
0.414619,-0.0531495,0.00276443,169
0.414326,-0.0530743,0.00352296,172
0.414389,-0.0530925,0.0042848,171
0.414186,-0.0530409,0.00504312,168
0.414649,-0.0531645,0.00581146,171
0.414802,-0.0532065,0.00657602,170
0.415134,-0.0532955,0.00734479,162
0.414443,-0.0531156,0.00809248,163
0.414597,-0.053158,0.00885771,163
0.414841,-0.0532239,0.0096259,168
0.414863,-0.0532315,0.010389,171
0.414841,-0.0532275,0.0111509,170
0.414642,-0.0531769,0.0119072,164
0.414666,-0.0531848,0.0126703,167
0.414912,-0.0532514,0.0134414,165
0.415025,-0.053283,0.0142086,164
0.415764,-0.0534791,0.0150007,168
0.416372,-0.0536407,0.0157905,170
0.415637,-0.0534492,0.016525,173
0.41629,-0.0536227,0.017319,167
0.416317,-0.0536316,0.0180864,167
0.416345,-0.0536407,0.018854,171
0.416552,-0.053697,0.019631,173
0.416626,-0.0537181,0.0204018,173
0.41661,-0.0537158,0.0211682,172
0.416999,-0.0538199,0.0219575,176
0.416849,-0.0537823,0.022717,172
0.416745,-0.0537566,0.0234788,171
0.416416,-0.0536721,0.0242265,167
0.416672,-0.0537412,0.0250104,170
0.417199,-0.0538816,0.0258134,177
0.417052,-0.0538445,0.0265727,175
0.41844,-0.0542116,0.0274388,175
0.419019,-0.0543657,0.0282524,172
0.419145,-0.0544005,0.029035,175
0.418634,-0.0542679,0.0297702,168
0.418942,-0.0543507,0.0305671,170
0.419251,-0.0544338,0.0313654,169
0.418878,-0.0543374,0.0321096,169
0.418869,-0.054337,0.0328829,171
0.419134,-0.0544084,0.0336797,171
0.419628,-0.0545402,0.0344976,172
0.419484,-0.0545041,0.0352608,171
0.41934,-0.0544681,0.0360238,167
0.419379,-0.0544803,0.0368034,168
0.420059,-0.0546608,0.0376441,170
0.419779,-0.0545891,0.0383949,174
0.419637,-0.0545536,0.0391584,171
0.419633,-0.0545542,0.0399354,167
0.419995,-0.0546513,0.0407502,180
0.420129,-0.0546884,0.0415428,176
0.421367,-0.0550159,0.0424535,167
0.42017,-0.0547027,0.0431057,171
0.42164,-0.0550913,0.0440474,171
0.421684,-0.055105,0.0448352,166
0.421407,-0.0550337,0.0455867,165
0.421637,-0.0550962,0.0463964,165
0.422517,-0.0553295,0.0472837,167
0.422471,-0.0553193,0.0480639,168
0.421639,-0.0551022,0.0487484,166
0.422196,-0.0552506,0.0496018,169
0.422198,-0.055253,0.0503879,168
0.422201,-0.0552555,0.0511745,163
0.422529,-0.0553437,0.0520034,176
0.422718,-0.0553954,0.0528157,167
0.422676,-0.0553861,0.0535982,168
0.422634,-0.0553769,0.0543809,168
0.422918,-0.0554536,0.0552085,170
0.424185,-0.0557887,0.0561742,167
0.424989,-0.0560022,0.0570799,165
0.425043,-0.0560183,0.0578818,170
0.42444,-0.0558614,0.0585889,170
0.424823,-0.0559642,0.059439,168
0.425303,-0.0560922,0.0603052,167
0.424465,-0.0558735,0.060975,163
0.424756,-0.055952,0.0618144,170
0.42519,-0.056068,0.0626772,163
0.424823,-0.0559735,0.0634169,163
0.425117,-0.0560526,0.06426,166
0.425884,-0.0562563,0.0651808,166
0.425659,-0.0561991,0.0659438,167
0.425719,-0.0562167,0.0667531,169
0.426632,-0.056459,0.067705,167
0.428172,-0.0568663,0.0687664,165
0.426375,-0.0563951,0.0692658,167
0.426485,-0.0564258,0.0700871,166
0.427787,-0.0567704,0.0711169,168
0.427182,-0.056613,0.0718163,162
0.428202,-0.0568835,0.0728033,161
0.427215,-0.0566255,0.0734331,165
0.427901,-0.056808,0.0743642,164
0.428398,-0.0569408,0.0752635,163
0.428513,-0.0569728,0.0760941,165
0.428628,-0.057005,0.0769257,165
0.429273,-0.0571768,0.0778589,162
0.429776,-0.0573112,0.0787678,160
0.428832,-0.0570645,0.0793985,158
0.428949,-0.0570973,0.0802339,159
0.428971,-0.0571048,0.0810512,154
0.429089,-0.0571379,0.0818884,156
0.429063,-0.057133,0.0826975,159
0.430053,-0.0573956,0.0837138,156
0.430562,-0.0575316,0.0846356,151
0.430635,-0.0575528,0.0854694,148
0.429884,-0.0573567,0.086131,154
0.429957,-0.057378,0.0869648,153
0.431394,-0.0577583,0.0880906,154
0.431372,-0.0577544,0.088908,154
0.431448,-0.0577763,0.0897471,157
0.432112,-0.0579531,0.0907162,153
0.432828,-0.0581436,0.0916999,150
0.432218,-0.0579849,0.0923907,150
0.432837,-0.0581499,0.0933567,150
0.432228,-0.0579913,0.0940462,150
0.434083,-0.058482,0.0952994,147
0.433817,-0.0584139,0.0960695,145
0.43291,-0.058177,0.0966895,146
0.434328,-0.0585522,0.0978535,150
0.434162,-0.0585105,0.098648,154
0.43286,-0.0581694,0.0991702,147
0.434378,-0.0585714,0.100369,150
0.43481,-0.0586872,0.101309,152
0.433554,-0.0583582,0.101838,151
0.434582,-0.0586309,0.102927,152
0.434319,-0.0585637,0.1037,152
0.433958,-0.0584705,0.104446,148
0.433499,-0.0583514,0.105168,148
0.434728,-0.0586773,0.106319,151
0.434617,-0.0586498,0.10713,145
0.435254,-0.0588197,0.108136,149
0.434494,-0.0586215,0.10878,144
0.434035,-0.0585025,0.109501,142
0.434174,-0.0585411,0.110379,137
0.434862,-0.0587244,0.111405,137
0.434703,-0.0586844,0.112206,135
0.434295,-0.0585788,0.11294,135
0.434735,-0.0586969,0.113904,129
0.434877,-0.0587362,0.114789,138
0.434071,-0.0585258,0.115412,141
0.433914,-0.0584864,0.116214,141
0.433559,-0.0583948,0.11696,143
0.433901,-0.0584868,0.117903,142
0.433895,-0.0584872,0.118748,138
0.433889,-0.0584877,0.119594,139
0.434333,-0.0586067,0.120571,139
0.434779,-0.0587261,0.121551,135
0.433178,-0.0583061,0.121932,148
0.43412,-0.0585566,0.12306,139
0.433618,-0.0584261,0.123762,141
0.432323,-0.0580867,0.124225,142
0.432667,-0.0581794,0.125178,141
0.432565,-0.0581545,0.125997,142
0.432712,-0.0581952,0.126893,143
0.432611,-0.0581705,0.127714,142
0.432361,-0.0581067,0.128489,143
0.431963,-0.0580039,0.129218,145
0.432161,-0.0580579,0.130132,145
0.431615,-0.0579162,0.130814,144
0.431319,-0.0578399,0.131572,144
0.431715,-0.0579464,0.132552,145
0.432112,-0.0580531,0.133535,146
0.431865,-0.0579901,0.134311,145
0.430581,-0.0576535,0.134749,147
0.430928,-0.057747,0.135717,149
0.430683,-0.0576844,0.136492,147
0.430489,-0.057635,0.137284,142
0.43059,-0.0576638,0.138174,144
0.43084,-0.0577317,0.139115,146
0.430646,-0.0576826,0.139908,146
0.430304,-0.0575945,0.140651,147
0.430457,-0.0576366,0.141562,149
0.430511,-0.0576529,0.142441,145
0.430367,-0.0576171,0.143252,138
0.429436,-0.0573735,0.143788,144
0.429392,-0.057364,0.144633,143
0.428759,-0.0571991,0.14527,138
0.428765,-0.0572026,0.146133,149
0.428869,-0.0572322,0.147031,150
0.427896,-0.0569775,0.147543,145
0.427707,-0.0569297,0.148335,148
0.427665,-0.0569206,0.149181,145
0.426794,-0.056693,0.149725,130
0.426802,-0.0566969,0.150588,126
0.425547,-0.056368,0.150986,116
0.425651,-0.0563975,0.151884,111
0.425562,-0.0563761,0.152711,113
0.425377,-0.0563291,0.153503,111
0.425434,-0.0563462,0.154386,106
0.425879,-0.0564657,0.155417,108
0.42584,-0.0564574,0.156266,104
