ply
format ascii 1.0
comment VCGLIB generated
element vertex 931
property float x
property float y
property float z
property float nx
property float ny
property float nz
property uchar red
property uchar green
property uchar blue
property uchar alpha
element face 0
property list uchar int vertex_indices
end_header
-0.005197182 -0.9049142 5.155962 0 0 0 180 177 170 255 
0.1936126 0.5009613 4.320877 0 0 0 204 200 191 255 
0.4209096 0.9602658 4.243724 0 0 0 154 145 136 255 
1.538989 -1.090696 5.76632 0 0 0 126 119 109 255 
1.633021 1.023028 4.261515 0 0 0 173 164 155 255 
0.05722128 0.7937706 4.24324 0 0 0 194 185 176 255 
1.30974 1.054735 4.105813 0 0 0 177 169 156 255 
-0.06169152 1.54347 3.965796 0 0 0 159 147 131 255 
1.499451 -1.183767 5.866513 0 0 0 107 104 99 255 
-0.4760877 0.01165637 4.665606 0 0 0 153 150 143 255 
1.465652 -1.027309 5.675767 0 0 0 160 155 149 255 
1.575177 0.06561054 4.9413 0 0 0 125 120 114 255 
-0.03064785 -0.4533555 4.817153 0 0 0 197 190 180 255 
1.578115 -0.00261621 5.061937 0 0 0 149 150 145 255 
0.350263 -1.378774 5.48723 0 0 0 190 186 175 255 
-0.721809 2.077618 3.46571 0 0 0 163 152 144 255 
1.503369 0.0734285 4.918888 0 0 0 127 122 116 255 
0.3480866 2.607837 3.100668 0 0 0 165 157 146 255 
0.3380599 0.4434945 4.470692 0 0 0 188 181 173 255 
-0.07261518 -0.9396825 5.148206 0 0 0 186 185 180 255 
1.414409 0.01695042 4.997507 0 0 0 161 156 150 255 
0.1203346 1.401089 4.07922 0 0 0 139 132 124 255 
0.030355 1.872488 3.888345 0 0 0 154 176 196 255 
1.327803 0.2757147 4.673147 0 0 0 151 143 132 255 
1.350623 -1.109548 5.847062 0 0 0 211 208 203 255 
-0.1205123 -0.4335529 4.896826 0 0 0 192 189 180 255 
-1.548548 0.7669047 4.195942 0 0 0 149 137 121 255 
-0.8737932 1.472675 3.789871 0 0 0 146 139 127 255 
1.286894 -0.2460003 5.151844 0 0 0 114 106 95 255 
0.02454635 -0.1912498 4.701585 0 0 0 203 195 182 255 
1.315579 1.060095 4.188381 0 0 0 146 140 127 255 
3.658826 2.902776 3.116119 0 0 0 82 90 92 255 
0.3079647 0.2388619 4.550021 0 0 0 152 145 135 255 
0.261048 0.07046089 4.585958 0 0 0 200 192 181 255 
1.078318 -1.279804 5.812069 0 0 0 109 105 94 255 
-0.07660475 -0.01238352 4.606423 0 0 0 203 197 187 255 
0.4352481 -0.6813039 5.114993 0 0 0 192 186 174 255 
1.257732 1.75014 3.763245 0 0 0 185 176 160 255 
-0.01915896 0.3352256 4.42463 0 0 0 201 195 183 255 
2.299275 0.5094953 4.685606 0 0 0 148 141 133 255 
0.3577248 0.4543746 4.460531 0 0 0 189 182 173 255 
0.9424816 -1.252575 5.701408 0 0 0 177 174 167 255 
0.3499871 -0.4518202 4.935116 0 0 0 197 188 179 255 
0.05035096 -0.04709102 4.596987 0 0 0 200 197 190 255 
-0.2642514 0.04867456 4.587259 0 0 0 202 199 190 255 
-1.398543 3.341936 2.433475 0 0 0 210 203 193 255 
0.4134919 -0.2107853 4.829787 0 0 0 190 185 179 255 
0.8697253 -0.4836292 5.137681 0 0 0 138 130 119 255 
1.021351 1.074788 4.140647 0 0 0 184 176 163 255 
0.05964648 -0.1070088 4.658408 0 0 0 193 186 176 255 
1.091784 1.645122 3.877887 0 0 0 157 149 136 255 
0.3981866 -0.8094735 5.177171 0 0 0 163 153 141 255 
0.287529 0.01339968 4.638293 0 0 0 163 154 145 255 
-1.710054 0.8957748 4.037842 0 0 0 191 185 173 255 
0.01641369 0.3918626 4.4103 0 0 0 200 193 183 255 
0.8766143 -0.04574203 4.960301 0 0 0 133 126 118 255 
-0.3161142 -0.3930656 4.811797 0 0 0 195 187 176 255 
0.01674001 0.3560748 4.431921 0 0 0 206 200 188 255 
-0.05065445 -0.001093512 4.594229 0 0 0 208 204 195 255 
0.4834335 -0.2618826 4.901032 0 0 0 187 183 172 255 
0.8389812 -0.0599065 4.987347 0 0 0 129 122 114 255 
0.8875214 -0.02595441 5.086379 0 0 0 181 174 166 255 
-0.07638194 0.4224706 4.380442 0 0 0 212 205 195 255 
0.6115604 0.6231369 4.417504 0 0 0 188 182 170 255 
-0.239236 -0.101442 4.735364 0 0 0 204 201 192 255 
-0.2324572 0.2357995 4.409574 0 0 0 171 163 152 255 
0.8288835 0.6207091 4.521477 0 0 0 176 169 159 255 
-0.2034366 -0.46424 4.912016 0 0 0 151 147 135 255 
-0.02833273 -0.9241719 5.153292 0 0 0 125 118 106 255 
-0.058417 -0.09851479 4.646751 0 0 0 203 195 182 255 
-0.7627658 -0.9127561 5.22987 0 0 0 189 187 175 255 
0.7806915 0.9867006 4.232108 0 0 0 167 158 149 255 
1.658467 0.01396784 5.072251 0 0 0 156 149 139 255 
0.6437934 0.9251059 4.290587 0 0 0 196 188 177 255 
1.671432 1.760191 3.682619 0 0 0 152 137 122 255 
-1.709458 1.432747 3.692657 0 0 0 194 188 176 255 
0.3339105 1.682891 4.01087 0 0 0 113 106 98 255 
-0.2174163 -0.04840937 4.686007 0 0 0 171 164 156 255 
-1.832874 0.6874763 4.191509 0 0 0 204 196 183 255 
-0.4197024 -0.06133291 4.774273 0 0 0 202 194 181 255 
-0.4932354 -0.4020565 4.870102 0 0 0 152 145 129 255 
-0.5983051 -1.201633 5.395576 0 0 0 197 189 176 255 
-0.3422978 0.9620064 4.125565 0 0 0 180 173 163 255 
-0.1839308 2.55777 3.078312 0 0 0 195 182 173 255 
-0.3650202 1.02639 4.087949 0 0 0 169 161 150 255 
-0.5402554 0.1064274 4.527122 0 0 0 144 141 132 255 
-0.5636245 0.06664031 4.567145 0 0 0 144 140 129 255 
-0.5664706 0.1101276 4.510971 0 0 0 161 158 149 255 
-0.588526 0.3485503 4.33799 0 0 0 193 183 171 255 
-0.5621774 0.6331942 4.244772 0 0 0 187 177 165 255 
-0.3730057 2.435867 3.227483 0 0 0 163 149 138 255 
-0.6809021 -0.0008560614 4.644323 0 0 0 130 123 107 255 
-0.6294634 0.6352657 4.253286 0 0 0 161 151 139 255 
-0.7266812 -0.1418365 4.741576 0 0 0 193 185 172 255 
-0.8354872 -0.7216079 4.976274 0 0 0 200 192 181 255 
-0.6127527 0.900638 4.202188 0 0 0 167 157 145 255 
-0.8632854 -0.8418038 5.15976 0 0 0 131 127 115 255 
-0.487859 2.214185 3.408935 0 0 0 156 144 132 255 
-0.8134323 0.07412748 4.524292 0 0 0 157 153 142 255 
-0.6747403 1.121004 3.975559 0 0 0 142 134 122 255 
-0.9038952 -0.8414039 5.20717 0 0 0 131 124 108 255 
-0.5357493 2.174556 3.422171 0 0 0 190 178 166 255 
-0.9451599 -1.14252 5.392677 0 0 0 129 120 105 255 
-0.7227623 0.8546636 4.20537 0 0 0 167 159 146 255 
-0.6614918 1.531191 3.838829 0 0 0 153 145 132 255 
-0.6161448 2.120058 3.441208 0 0 0 205 195 185 255 
-0.9121087 0.01912582 4.600669 0 0 0 159 152 142 255 
-0.9216575 0.1420563 4.452644 0 0 0 199 187 171 255 
-2.893828 0.3620797 4.394324 0 0 0 133 123 111 255 
-2.772588 1.552533 3.627293 0 0 0 190 182 171 255 
-2.794878 1.548706 3.653351 0 0 0 165 155 143 255 
-2.977255 0.4559552 4.541689 0 0 0 128 116 102 255 
-2.116148 2.152105 3.083837 0 0 0 187 179 168 255 
-2.019444 1.481334 3.524217 0 0 0 146 140 127 255 
-2.142049 0.233532 4.61171 0 0 0 182 174 161 255 
-2.212739 -0.469925 5.008434 0 0 0 167 157 145 255 
-2.110857 0.2570567 4.532289 0 0 0 177 169 158 255 
-1.999332 0.8377532 3.958112 0 0 0 191 183 172 255 
-2.049382 0.4064455 4.352787 0 0 0 189 183 171 255 
-1.77377 1.447071 3.624542 0 0 0 148 141 125 255 
-1.800194 0.8756852 4.056671 0 0 0 189 181 170 255 
-0.738295 1.057424 4.059864 0 0 0 205 200 194 255 
-1.772193 0.8859809 4.032432 0 0 0 200 198 186 255 
-1.654252 1.442326 3.707274 0 0 0 136 130 118 255 
-1.872798 -0.6823424 5.026058 0 0 0 133 124 107 255 
2.243431 1.534706 3.939106 0 0 0 196 185 167 255 
-1.64021 1.199406 3.883003 0 0 0 205 195 183 255 
1.191567 1.541419 3.963668 0 0 0 201 188 169 255 
-1.659773 0.9264508 3.991132 0 0 0 185 177 164 255 
0.8685927 -0.1999848 5.034135 0 0 0 176 168 157 255 
-1.651688 0.9189726 3.992584 0 0 0 146 138 125 255 
-1.646731 0.8664894 4.077434 0 0 0 160 152 139 255 
-1.734794 0.09885849 4.624803 0 0 0 178 174 163 255 
-1.592286 0.8225332 4.1254 0 0 0 178 168 157 255 
-1.541636 0.8832291 4.092669 0 0 0 151 139 123 255 
-1.630247 0.06525438 4.64472 0 0 0 176 169 159 255 
-1.451382 1.503978 3.673684 0 0 0 153 144 129 255 
-2.100562 0.9683757 3.911599 0 0 0 191 184 174 255 
-1.505201 0.9474816 4.029951 0 0 0 178 170 159 255 
-1.462713 0.9270673 4.082047 0 0 0 170 162 149 255 
0.3219972 -0.1718301 4.723034 0 0 0 199 196 191 255 
0.1712425 -0.09916191 4.645439 0 0 0 201 200 196 255 
-1.365595 0.9826707 4.028709 0 0 0 151 141 129 255 
-1.285511 1.545027 3.666567 0 0 0 194 184 172 255 
2.440474 2.658255 3.182063 0 0 0 0 0 0 255 
-1.485687 -0.4108519 4.938024 0 0 0 161 150 131 255 
-1.290632 1.112218 3.95882 0 0 0 160 151 137 255 
-1.374348 0.1212482 4.571421 0 0 0 200 197 188 255 
-1.375269 0.1500961 4.502169 0 0 0 196 192 181 255 
-1.373749 0.1418556 4.520586 0 0 0 193 189 178 255 
-1.359164 0.125239 4.565674 0 0 0 203 200 191 255 
-1.200132 1.136707 3.969822 0 0 0 137 128 113 255 
-1.317133 0.1820531 4.425346 0 0 0 181 173 161 255 
-1.329356 0.1325574 4.415326 0 0 0 145 141 130 255 
-1.291153 0.1402904 4.528439 0 0 0 130 126 114 255 
-1.244228 0.1480452 4.504824 0 0 0 156 152 143 255 
-1.087778 1.075522 4.063798 0 0 0 146 138 127 255 
-1.177846 0.2391397 4.373797 0 0 0 188 179 164 255 
-0.9958382 1.458367 3.689719 0 0 0 195 186 171 255 
-1.15153 0.1239165 4.527843 0 0 0 168 164 152 255 
-0.9993046 1.031811 4.075546 0 0 0 177 169 158 255 
-1.223575 -0.7117549 5.048325 0 0 0 159 155 144 255 
-1.212288 -0.7050557 5.050559 0 0 0 194 187 177 255 
-0.8335062 2.029595 3.463115 0 0 0 216 207 198 255 
0.01990722 0.9122276 4.17212 0 0 0 148 138 126 255 
-0.8489375 1.43308 3.800781 0 0 0 206 198 187 255 
-1.086323 -0.4514587 4.899505 0 0 0 203 191 177 255 
-1.013511 0.1031308 4.498782 0 0 0 199 196 188 255 
-0.8714024 0.8724752 4.180693 0 0 0 199 191 180 255 
-0.9781203 0.01810928 4.637903 0 0 0 156 150 138 255 
2.383378 2.854331 2.832417 0 0 0 183 167 144 255 
-0.7672693 -0.9190963 5.205585 0 0 0 189 187 175 255 
1.769134 0.06592373 4.877465 0 0 0 172 166 154 255 
-1.559148 1.473705 3.684574 0 0 0 176 170 158 255 
-0.7804325 0.8599111 4.242462 0 0 0 184 177 169 255 
-1.828288 0.1155931 4.657725 0 0 0 181 175 163 255 
-2.204701 1.528923 3.547799 0 0 0 157 150 140 255 
-2.59125 1.253305 3.785434 0 0 0 137 125 113 255 
-2.59125 1.253305 3.785434 0 0 0 137 125 113 255 
-2.91046 1.057992 3.958294 0 0 0 205 196 187 255 
2.807911 1.69136 3.810405 0 0 0 167 157 147 255 
2.27994 0.545832 4.596885 0 0 0 126 117 110 255 
1.970919 0.03693843 4.927099 0 0 0 170 167 160 255 
1.961578 0.7093031 4.559556 0 0 0 129 122 116 255 
1.825518 -0.05993875 5.080776 0 0 0 151 147 138 255 
1.632065 -0.01461178 5.087301 0 0 0 94 93 89 255 
1.598363 1.080825 4.179524 0 0 0 143 134 127 255 
1.328586 0.2760912 4.672273 0 0 0 151 143 132 255 
1.327803 0.2757147 4.673147 0 0 0 151 143 132 255 
0.3609168 0.3339696 4.523471 0 0 0 150 143 135 255 
0.9153205 0.740595 4.464109 0 0 0 132 128 119 255 
0.7855486 0.9921204 4.237534 0 0 0 167 158 149 255 
0.1269579 -0.5005279 4.848374 0 0 0 125 112 96 255 
0.4505868 0.4744837 4.486396 0 0 0 115 108 92 255 
0.4108348 -0.6458501 5.121104 0 0 0 127 120 110 255 
0.2874434 0.01332698 4.63808 0 0 0 163 154 145 255 
0.361505 0.4581222 4.46694 0 0 0 189 182 173 255 
0.2621896 0.07148847 4.588003 0 0 0 200 192 181 255 
0.3361938 0.8757354 4.283908 0 0 0 155 147 136 255 
0.9926781 -0.4252326 5.142718 0 0 0 132 120 104 255 
0.03824607 -0.04331246 4.59543 0 0 0 160 157 150 255 
0.004839392 0.005710429 4.573213 0 0 0 162 157 150 255 
-0.009895549 -0.006251856 4.540623 0 0 0 162 157 150 255 
2.778669 1.661365 3.892299 0 0 0 160 146 133 255 
-0.0002597049 0.01912476 4.550313 0 0 0 159 155 146 255 
0.02209041 0.465165 4.336897 0 0 0 155 153 141 255 
0.7800462 3.443474 2.441003 0 0 0 196 186 176 255 
0.04700969 -0.2473 4.729591 0 0 0 137 134 127 255 
-0.01915896 0.3352256 4.42463 0 0 0 201 195 183 255 
-0.1364218 -0.4416049 4.854392 0 0 0 192 189 180 255 
-0.1682421 -0.4518622 4.879579 0 0 0 200 197 190 255 
-0.06582852 0.4157394 4.383921 0 0 0 178 172 160 255 
-0.145596 0.30975 4.459177 0 0 0 164 156 145 255 
-0.2259189 -0.2930275 4.813983 0 0 0 164 157 147 255 
-0.2945332 -0.3695808 4.870524 0 0 0 195 187 176 255 
0.4758163 -0.2774838 4.905421 0 0 0 193 184 174 255 
-0.2824584 -0.1460556 4.785675 0 0 0 157 150 139 255 
0.1138812 2.41155 3.570624 0 0 0 131 115 102 255 
-0.3653125 -0.4576095 4.887542 0 0 0 159 156 147 255 
-0.3077706 0.1230091 4.536919 0 0 0 205 202 193 255 
-0.3459491 0.07886537 4.608431 0 0 0 155 153 141 255 
-0.3514105 0.05885184 4.657367 0 0 0 166 161 155 255 
-0.411758 -0.0607308 4.751625 0 0 0 196 188 175 255 
-0.4932354 -0.4020565 4.870102 0 0 0 152 145 129 255 
-0.4737437 -0.3132254 4.851603 0 0 0 162 154 143 255 
-0.4342155 0.0333306 4.683279 0 0 0 207 202 192 255 
-2.858311 1.07262 3.77634 0 0 0 144 134 124 255 
-0.07542238 2.091285 3.893617 0 0 0 181 169 157 255 
-0.5609758 0.06085496 4.579684 0 0 0 216 212 201 255 
-0.5632942 0.0676927 4.567194 0 0 0 144 140 129 255 
-0.5479234 0.02098627 4.699889 0 0 0 151 145 133 255 
-0.7027557 0.04023002 4.574173 0 0 0 151 147 135 255 
-0.6292788 0.6353588 4.253395 0 0 0 161 151 139 255 
-0.5620933 1.021738 4.12576 0 0 0 207 199 188 255 
-0.616039 0.8463689 4.211298 0 0 0 161 153 140 255 
-0.6119029 0.8887385 4.204547 0 0 0 190 182 171 255 
-0.9015041 -0.8361264 5.169671 0 0 0 169 163 149 255 
-0.6639823 1.135832 3.999044 0 0 0 142 134 122 255 
-0.9006915 -0.8363472 5.200115 0 0 0 131 124 108 255 
-0.830779 0.02727335 4.570893 0 0 0 203 196 188 255 
-0.7234051 0.8529753 4.203728 0 0 0 167 159 146 255 
-0.6640901 1.525768 3.832418 0 0 0 153 145 132 255 
-0.9121068 0.01970061 4.604582 0 0 0 159 152 142 255 
-0.9250727 0.1340259 4.437321 0 0 0 199 187 171 255 
-0.9798077 0.01539704 4.630669 0 0 0 156 150 138 255 
-0.7448956 2.106714 3.395461 0 0 0 162 152 142 255 
-1.029576 0.1133675 4.497216 0 0 0 188 185 176 255 
-1.044458 0.111448 4.495144 0 0 0 217 213 204 255 
-1.064562 -0.01034602 4.686499 0 0 0 197 189 178 255 
-0.9932057 0.7246195 4.20512 0 0 0 167 159 146 255 
-1.080031 1.068747 4.059869 0 0 0 190 182 171 255 
-1.373217 0.1458055 4.528145 0 0 0 193 189 178 255 
-1.55601 0.07626323 4.615914 0 0 0 186 180 168 255 
-1.462173 0.9270862 4.083939 0 0 0 170 162 149 255 
-1.462005 0.9270586 4.082218 0 0 0 170 162 149 255 
-1.578755 1.46361 3.702126 0 0 0 154 146 133 255 
-1.688648 2.168365 3.250612 0 0 0 161 152 143 255 
-1.939456 0.2157856 4.527525 0 0 0 142 138 126 255 
-1.801148 1.356632 3.748851 0 0 0 178 166 154 255 
-1.839753 1.454583 3.583428 0 0 0 151 143 132 255 
-1.948145 1.441738 3.599699 0 0 0 160 152 141 255 
-2.146226 0.2259324 4.584648 0 0 0 182 174 161 255 
-2.095982 0.6047112 4.240883 0 0 0 167 157 145 255 
-2.113535 1.498105 3.55303 0 0 0 141 134 124 255 
-2.352176 1.562796 3.606355 0 0 0 175 166 159 255 
-2.292336 2.147251 3.119821 0 0 0 147 135 123 255 
-2.795339 -0.1543505 4.758857 0 0 0 135 129 117 255 
-2.704083 0.84469 3.977127 0 0 0 167 157 145 255 
-2.853012 0.3554481 4.407647 0 0 0 129 123 111 255 
-2.746685 1.124832 3.798042 0 0 0 136 124 108 255 
-2.877587 0.3768817 4.382108 0 0 0 166 158 145 255 
-2.902852 0.3836191 4.343872 0 0 0 202 194 181 255 
-2.806954 1.088786 3.75683 0 0 0 134 125 110 255 
0.3769785 0.5174975 4.412103 0 0 0 202 200 188 255 
-2.881045 1.046328 3.812067 0 0 0 201 193 182 255 
-3.07971 1.014405 3.972741 0 0 0 195 186 177 255 
-3.008281 1.073742 3.821558 0 0 0 144 137 129 255 
-3.078203 1.011625 3.967536 0 0 0 195 186 177 255 
-3.049128 1.11211 3.780087 0 0 0 179 170 161 255 
0.4512891 1.933784 3.923293 0 0 0 111 105 91 255 
-3.091482 1.144465 3.79887 0 0 0 144 136 125 255 
0.1236932 -0.1296515 4.677048 0 0 0 189 180 171 255 
-1.828422 2.184692 3.138119 0 0 0 159 152 142 255 
-2.230434 1.494668 3.587258 0 0 0 199 196 189 255 
-2.24381 1.506751 3.606672 0 0 0 119 116 109 255 
-2.494131 -0.2996037 4.847572 0 0 0 129 119 109 255 
-2.343166 0.9515803 3.975438 0 0 0 140 130 115 255 
-2.272142 1.532591 3.585137 0 0 0 134 127 117 255 
-2.454509 0.4101129 4.357651 0 0 0 195 189 177 255 
2.664155 0.5551753 4.643218 0 0 0 139 126 109 255 
-2.224789 2.189531 3.045464 0 0 0 170 162 151 255 
-2.468755 0.804769 4.093879 0 0 0 203 193 183 255 
-2.517526 0.8293078 4.082432 0 0 0 144 130 119 255 
-2.610832 0.5101857 4.295085 0 0 0 196 188 175 255 
-2.586663 0.7088462 4.167912 0 0 0 164 153 141 255 
-0.2162025 2.518977 3.201782 0 0 0 156 144 132 255 
-2.573602 1.2212 3.718396 0 0 0 198 184 171 255 
-2.61145 1.047851 3.878137 0 0 0 165 155 145 255 
-2.707288 0.7953791 4.048605 0 0 0 130 122 111 255 
1.423016 -0.1184733 5.10025 0 0 0 125 122 117 255 
-2.744344 1.101488 3.833201 0 0 0 149 136 117 255 
-2.740928 1.110127 3.787095 0 0 0 197 185 171 255 
-2.878426 0.3763803 4.383086 0 0 0 166 158 145 255 
2.363452 0.673008 4.544115 0 0 0 86 81 74 255 
-1.512112 0.9048754 4.084943 0 0 0 100 91 80 255 
1.913125 0.9426422 4.287399 0 0 0 105 97 87 255 
-1.670904 2.199099 3.224023 0 0 0 191 181 167 255 
-1.478611 0.9297114 4.074912 0 0 0 137 129 112 255 
-1.434096 1.398496 3.838525 0 0 0 191 185 175 255 
-2.72198 1.583162 3.627716 0 0 0 98 92 82 255 
-1.479297 0.1566843 4.522992 0 0 0 151 148 141 255 
-2.785557 1.589808 3.560266 0 0 0 148 133 116 255 
0.1204503 -0.2915682 4.764283 0 0 0 181 176 167 255 
-2.991518 0.8873781 4.028679 0 0 0 50 43 28 255 
-2.914927 1.058721 3.806547 0 0 0 164 155 146 255 
-2.996416 0.8923267 4.045158 0 0 0 187 179 166 255 
0.9416391 2.626034 3.032109 0 0 0 177 167 158 255 
-2.893108 0.9204251 3.916177 0 0 0 184 178 166 255 
-3.121011 1.157646 3.812695 0 0 0 154 145 136 255 
-2.996757 1.090965 3.788914 0 0 0 152 146 134 255 
2.309615 2.205706 3.295396 0 0 0 160 148 136 255 
1.887284 -1.616445 6.035486 0 0 0 132 129 122 255 
1.941747 1.698087 3.678788 0 0 0 147 135 121 255 
2.446113 0.7473279 4.446462 0 0 0 97 92 84 255 
-2.836229 0.8229116 4.036367 0 0 0 142 136 124 255 
-2.77261 1.96481 3.285835 0 0 0 178 168 156 255 
-3.071487 1.082403 3.989594 0 0 0 142 133 124 255 
-3.194849 1.10414 3.889578 0 0 0 151 141 129 255 
-2.622402 0.5082955 4.313975 0 0 0 149 139 127 255 
2.998365 -0.7314692 5.32203 0 0 0 135 131 122 255 
-0.4261716 1.36311 3.861372 0 0 0 186 178 167 255 
-1.551281 2.187765 3.175881 0 0 0 181 169 155 255 
-1.151307 2.334019 3.116086 0 0 0 226 219 211 255 
0.3533851 2.722585 2.951523 0 0 0 202 192 183 255 
-1.156784 1.137521 3.943158 0 0 0 156 148 135 255 
-1.156784 1.137521 3.943158 0 0 0 156 148 135 255 
-1.004776 1.195654 3.897536 0 0 0 175 167 156 255 
-2.078781 0.8608923 4.014953 0 0 0 147 144 135 255 
-2.839619 0.3296795 4.317017 0 0 0 142 138 129 255 
2.521551 2.951635 3.036876 0 0 0 184 175 168 255 
-1.183605 1.147308 3.90765 0 0 0 149 141 130 255 
-1.47929 2.781374 2.711283 0 0 0 165 157 144 255 
0.4565659 -0.09551523 4.640948 0 0 0 0 0 0 255 
-2.202248 2.983291 2.54317 0 0 0 183 175 161 255 
-1.497811 0.7988747 4.196685 0 0 0 165 157 146 255 
-1.567825 2.81867 2.663203 0 0 0 177 167 155 255 
2.779122 -0.4944538 5.309603 0 0 0 132 129 124 255 
2.189199 0.8969631 4.220071 0 0 0 143 134 125 255 
-2.219352 2.199626 2.995083 0 0 0 195 187 176 255 
3.60878 3.826261 2.424827 0 0 0 122 115 107 255 
-2.231263 1.479559 3.651778 0 0 0 151 144 136 255 
1.121107 1.668663 3.865057 0 0 0 151 136 117 255 
-0.4194515 0.1048256 4.564957 0 0 0 169 165 153 255 
-2.594591 0.8568683 3.974083 0 0 0 150 140 128 255 
-2.453071 0.876812 4.038095 0 0 0 170 163 153 255 
3.388184 3.425145 2.748949 0 0 0 123 112 106 255 
-0.753952 0.00537479 4.615261 0 0 0 157 153 143 255 
0.05412347 1.203863 4.118468 0 0 0 140 136 127 255 
-0.463334 0.01633302 4.685765 0 0 0 190 189 184 255 
0.9512618 3.443063 2.437633 0 0 0 182 166 150 255 
1.975017 2.511974 3.190484 0 0 0 135 122 104 255 
-0.4536929 0.0300897 4.568187 0 0 0 158 154 145 255 
2.817116 1.701993 3.880715 0 0 0 144 129 109 255 
1.821074 0.97066 4.273316 0 0 0 171 164 147 255 
-1.699357 1.446455 3.674387 0 0 0 179 175 166 255 
-2.274762 2.197792 2.99841 0 0 0 193 185 174 255 
-2.701078 3.0156 2.52039 0 0 0 205 195 185 255 
-3.00511 1.929114 3.327036 0 0 0 156 144 128 255 
-2.689828 2.965311 2.590762 0 0 0 184 178 166 255 
1.025218 2.607788 3.047712 0 0 0 157 145 131 255 
-1.698874 1.447972 3.674087 0 0 0 179 175 166 255 
-1.183955 2.589778 2.981395 0 0 0 203 193 183 255 
1.200202 1.733651 3.812336 0 0 0 143 135 122 255 
-1.396578 0.1493916 4.508872 0 0 0 152 149 142 255 
-1.581192 1.453515 3.732665 0 0 0 150 144 132 255 
2.457407 1.828929 3.52032 0 0 0 145 125 100 255 
-2.737723 3.007911 2.662844 0 0 0 0 0 0 255 
-3.12766 1.130553 3.886303 0 0 0 0 0 0 255 
-3.161526 1.158324 3.850099 0 0 0 0 0 0 255 
1.4652 -1.093768 5.780834 0 0 0 130 123 113 255 
0.3177791 2.608148 3.065534 0 0 0 167 154 146 255 
2.883194 1.285633 4.103631 0 0 0 176 158 136 255 
-0.3254051 -0.003831721 4.664556 0 0 0 182 181 176 255 
-3.025309 1.012226 3.924916 0 0 0 159 155 144 255 
0.04362373 0.4080997 4.315702 0 0 0 191 188 183 255 
1.525753 2.499309 3.011818 0 0 0 209 197 181 255 
1.426909 2.49665 3.049059 0 0 0 164 155 146 255 
2.759914 2.843341 3.040462 0 0 0 127 118 109 255 
1.369737 -0.4026639 5.242933 0 0 0 183 174 159 255 
-1.297723 2.7744 2.794181 0 0 0 213 200 191 255 
-1.264814 2.137853 3.310172 0 0 0 161 153 142 255 
-2.783012 1.596749 3.571289 0 0 0 151 139 123 255 
0.1177683 0.93679 4.206363 0 0 0 189 186 177 255 
0.03811373 -0.2360092 4.784646 0 0 0 190 186 177 255 
-1.004933 0.1190739 4.487395 0 0 0 0 0 0 255 
-3.091444 1.111634 3.862452 0 0 0 179 176 169 255 
-3.089321 1.104588 3.853084 0 0 0 179 176 169 255 
1.751257 2.506807 3.028059 0 0 0 160 153 145 255 
1.790933 3.441262 2.362101 0 0 0 172 163 154 255 
1.805378 3.371976 2.453031 0 0 0 205 196 187 255 
1.213896 2.588081 2.979848 0 0 0 189 180 171 255 
0.9788546 3.496709 2.337079 0 0 0 185 178 170 255 
0.6566095 2.670061 3.039826 0 0 0 172 163 156 255 
0.03541409 3.104973 2.685835 0 0 0 202 193 184 255 
-0.4301095 2.565778 2.988975 0 0 0 163 153 141 255 
-0.8973331 0.08663848 4.570356 0 0 0 192 190 183 255 
-1.079474 2.772597 2.836548 0 0 0 207 197 187 255 
-1.573792 2.797193 2.720136 0 0 0 171 163 152 255 
-1.899396 1.375258 3.674148 0 0 0 185 177 164 255 
-2.22222 1.499173 3.60786 0 0 0 188 188 180 255 
-2.334711 1.631666 3.438543 0 0 0 191 181 171 255 
-2.530798 0.8189977 4.056241 0 0 0 147 141 127 255 
-2.460503 2.234703 2.966154 0 0 0 148 141 125 255 
-2.525508 3.055453 2.608264 0 0 0 167 159 148 255 
-2.618646 3.021012 2.58511 0 0 0 205 198 188 255 
-2.782933 1.564681 3.601784 0 0 0 192 184 172 255 
-2.647653 3.01144 2.645783 0 0 0 0 0 0 255 
-2.792739 1.623309 3.650807 0 0 0 203 195 178 255 
-2.71294 3.028751 2.637938 0 0 0 0 0 0 255 
-2.834827 1.562797 3.530065 0 0 0 0 0 0 255 
0.2494054 -0.6071094 4.996273 0 0 0 128 120 101 255 
-2.884621 1.015263 3.847681 0 0 0 152 145 135 255 
-2.865596 1.539248 3.598347 0 0 0 149 141 128 255 
-2.918698 1.59911 3.504068 0 0 0 159 149 137 255 
-3.069602 1.079531 3.891404 0 0 0 185 181 172 255 
-3.142531 1.059426 3.949009 0 0 0 138 132 120 255 
-3.150092 1.534204 3.542023 0 0 0 213 209 198 255 
2.052194 1.581896 3.876604 0 0 0 149 136 128 255 
0.03541409 3.104973 2.685835 0 0 0 202 193 184 255 
-1.11939 3.326119 2.422854 0 0 0 215 206 197 255 
-1.416669 1.454694 3.762463 0 0 0 182 176 164 255 
-1.86253 0.8261689 4.065867 0 0 0 167 161 149 255 
-1.852834 1.389628 3.687889 0 0 0 179 171 160 255 
-2.125622 2.975689 2.603203 0 0 0 201 193 182 255 
-2.68074 2.992996 2.641163 0 0 0 150 142 131 255 
-2.892861 1.00859 3.838869 0 0 0 197 190 180 255 
-3.058174 1.060396 3.858563 0 0 0 185 181 172 255 
-1.177819 0.1469415 4.462977 0 0 0 185 183 171 255 
-1.926487 2.137152 3.174166 0 0 0 164 156 145 255 
-1.73557 1.420967 3.70306 0 0 0 178 171 161 255 
-0.01028486 1.259103 4.106896 0 0 0 183 179 169 255 
0.04163345 1.803572 3.907889 0 0 0 147 146 141 255 
1.232031 2.606759 3.105803 0 0 0 189 182 174 255 
-0.2944984 3.098185 2.665063 0 0 0 210 197 188 255 
-0.5998681 1.039677 4.133769 0 0 0 200 195 189 255 
-0.473418 2.218055 3.415165 0 0 0 203 195 184 255 
-1.625777 2.359733 3.026891 0 0 0 202 192 180 255 
-0.9288247 0.9366674 4.106288 0 0 0 159 155 146 255 
-1.957137 0.8251416 3.979445 0 0 0 168 163 157 255 
-1.801418 2.170174 3.187177 0 0 0 197 191 179 255 
-0.9622024 2.625806 3.051083 0 0 0 186 177 170 255 
-1.516849 2.255609 3.16191 0 0 0 210 203 191 255 
-1.115845 2.179064 3.203647 0 0 0 204 197 189 255 
-1.05145 2.652604 3.016943 0 0 0 192 183 174 255 
-1.350008 0.1453226 4.500393 0 0 0 155 155 147 255 
-1.150141 2.805777 2.769918 0 0 0 168 160 149 255 
-1.560861 1.46614 3.693585 0 0 0 202 199 184 255 
-1.421757 0.945205 4.076778 0 0 0 170 167 158 255 
-1.31486 2.182741 3.227242 0 0 0 218 214 205 255 
1.102338 3.456283 2.346587 0 0 0 211 204 198 255 
-1.332059 2.632712 2.890342 0 0 0 181 171 161 255 
-1.378953 2.17539 3.290008 0 0 0 151 144 134 255 
-2.928341 1.571498 3.476769 0 0 0 169 160 145 255 
-1.600642 2.172431 3.286886 0 0 0 162 154 143 255 
-2.889527 2.324601 3.095503 0 0 0 145 135 123 255 
-3.002383 1.530208 3.539247 0 0 0 199 191 178 255 
-3.018339 1.582185 3.527623 0 0 0 176 168 155 255 
0.8716827 3.490146 2.378596 0 0 0 206 197 190 255 
0.8742987 2.398038 3.361985 0 0 0 133 121 109 255 
1.901556 2.496862 3.168515 0 0 0 185 178 171 255 
1.911435 2.481751 3.139323 0 0 0 196 181 162 255 
0.6773983 2.675339 3.045204 0 0 0 201 192 185 255 
-0.2039694 3.117442 2.6172 0 0 0 172 159 150 255 
-0.5460399 2.439824 3.153594 0 0 0 226 221 217 255 
-1.100434 2.170977 3.221245 0 0 0 170 161 152 255 
-1.190185 1.532505 3.731679 0 0 0 190 183 173 255 
-1.150141 2.805777 2.769918 0 0 0 168 160 149 255 
-1.412052 2.194818 3.273146 0 0 0 165 157 147 255 
-1.516127 2.261545 3.168114 0 0 0 210 203 191 255 
-1.717407 2.241192 3.115644 0 0 0 148 138 126 255 
-1.732598 2.203117 3.163514 0 0 0 148 140 127 255 
-1.855244 2.145786 3.225093 0 0 0 159 151 140 255 
-1.989798 2.146028 3.131414 0 0 0 152 144 133 255 
-2.125208 2.966236 2.617756 0 0 0 176 166 154 255 
-2.335346 3.033917 2.570174 0 0 0 198 192 178 255 
-2.342733 3.072808 2.49847 0 0 0 207 200 184 255 
-2.522724 1.277473 3.75478 0 0 0 202 190 178 255 
-2.447686 2.197754 3.068413 0 0 0 149 145 133 255 
-2.651217 0.4277843 4.290648 0 0 0 191 183 172 255 
-2.577728 3.020069 2.507889 0 0 0 0 0 0 255 
-2.646495 3.087921 2.598621 0 0 0 164 155 146 255 
-2.800299 1.605365 3.515018 0 0 0 146 136 124 255 
-2.780538 1.930653 3.283964 0 0 0 186 178 167 255 
1.011043 -0.4458129 5.1491 0 0 0 187 179 167 255 
-3.002383 1.530208 3.539247 0 0 0 199 191 178 255 
-3.11356 1.11523 3.928722 0 0 0 0 0 0 255 
-3.04994 1.955916 3.364356 0 0 0 187 176 158 255 
-2.26529 1.576427 3.474872 0 0 0 233 230 221 255 
-2.290068 1.494227 3.670404 0 0 0 145 140 129 255 
-2.231055 2.157216 3.112115 0 0 0 155 147 136 255 
-2.155134 3.013196 2.557367 0 0 0 203 193 183 255 
-2.248166 2.202715 2.972209 0 0 0 170 160 150 255 
-2.337469 2.171325 3.045671 0 0 0 201 197 188 255 
-2.335346 3.033917 2.570174 0 0 0 198 192 178 255 
-2.514648 2.212592 3.11481 0 0 0 173 166 156 255 
-2.63358 1.205661 3.766328 0 0 0 155 143 131 255 
-2.505502 3.039456 2.517305 0 0 0 0 0 0 255 
-2.524437 3.031641 2.555834 0 0 0 150 144 130 255 
-2.577728 3.020069 2.507889 0 0 0 0 0 0 255 
-2.767276 1.110245 3.77904 0 0 0 0 0 0 255 
-2.697007 3.014034 2.646118 0 0 0 205 199 187 255 
-2.851855 1.521837 3.59911 0 0 0 179 169 157 255 
-2.813956 2.403134 3.074492 0 0 0 180 174 162 255 
-2.881825 1.592338 3.50209 0 0 0 181 169 155 255 
-2.995245 0.9394643 4.175902 0 0 0 187 180 164 255 
-0.9182804 2.124622 3.312252 0 0 0 210 201 194 255 
-0.9088719 2.597114 3.055112 0 0 0 144 135 126 255 
-0.9246825 2.91482 2.783498 0 0 0 201 193 182 255 
-0.9804752 2.986521 2.632768 0 0 0 216 206 196 255 
-1.092789 2.164278 3.252374 0 0 0 224 217 207 255 
-1.127615 2.149199 3.26517 0 0 0 224 217 209 255 
-1.10626 2.702414 2.921826 0 0 0 207 197 185 255 
-1.184161 2.141265 3.282133 0 0 0 168 160 149 255 
-1.220835 2.139104 3.282188 0 0 0 200 193 183 255 
-1.265355 2.198734 3.220569 0 0 0 210 203 195 255 
-1.207243 2.804958 2.802297 0 0 0 167 159 148 255 
-1.310841 2.516153 2.959846 0 0 0 221 213 200 255 
-1.487417 1.443099 3.766624 0 0 0 148 142 130 255 
-1.529704 1.243002 3.890507 0 0 0 170 162 151 255 
-1.519222 1.464097 3.764047 0 0 0 143 137 125 255 
-1.588933 1.528646 3.552761 0 0 0 187 179 168 255 
-1.553265 2.779523 2.758192 0 0 0 229 221 210 255 
-1.718466 1.324536 3.792373 0 0 0 190 181 172 255 
-1.588809 2.779792 2.746835 0 0 0 165 157 146 255 
-1.72524 1.461214 3.598487 0 0 0 151 145 133 255 
-1.617926 2.783802 2.751406 0 0 0 199 190 181 255 
-1.666814 2.818065 2.682875 0 0 0 210 204 192 255 
-1.811305 1.382252 3.694343 0 0 0 162 156 144 255 
-1.673726 2.890599 2.575597 0 0 0 203 191 177 255 
-1.685915 2.784445 2.759886 0 0 0 206 198 187 255 
-1.681304 2.808018 2.760136 0 0 0 182 173 163 255 
-1.76714 2.000801 3.34498 0 0 0 151 142 133 255 
-1.893628 1.433511 3.587732 0 0 0 182 175 165 255 
-1.825349 2.157139 3.195044 0 0 0 192 184 173 255 
-1.765835 2.783604 2.788363 0 0 0 201 193 182 255 
-1.912714 1.446746 3.545933 0 0 0 145 138 128 255 
0.4120388 -0.2759801 4.843603 0 0 0 171 164 154 255 
-1.801116 2.847368 2.703598 0 0 0 166 158 147 255 
-1.8122 2.867872 2.698039 0 0 0 160 150 138 255 
-1.89706 2.133335 3.187538 0 0 0 169 161 150 255 
-1.906569 2.181589 3.102431 0 0 0 189 181 170 255 
-1.85556 2.895576 2.6501 0 0 0 196 188 177 255 
-1.880797 2.876103 2.700455 0 0 0 199 191 180 255 
-1.951864 2.19136 3.062712 0 0 0 160 152 139 255 
-1.960656 2.15148 3.158815 0 0 0 205 202 187 255 
-1.966065 2.128397 3.163836 0 0 0 203 195 182 255 
1.467699 0.0749703 4.890098 0 0 0 148 142 130 255 
-2.06495 2.341174 3.29864 0 0 0 142 136 124 255 
1.529233 1.025282 4.286507 0 0 0 170 157 140 255 
-2.028777 3.042607 2.476799 0 0 0 155 145 133 255 
-2.129397 2.12806 3.117712 0 0 0 195 187 176 255 
0.3028292 -1.574302 5.874231 0 0 0 129 122 112 255 
-2.252062 1.577592 3.480372 0 0 0 185 182 173 255 
-2.419073 0.8544083 3.975612 0 0 0 166 162 151 255 
0.1693234 -0.5304933 4.890888 0 0 0 146 134 118 255 
-2.342788 2.163987 3.079286 0 0 0 137 131 119 255 
-0.7294928 2.668799 2.903575 0 0 0 168 158 148 255 
-0.2135127 -0.09888322 4.766201 0 0 0 218 219 213 255 
-2.124904 2.1568 3.062989 0 0 0 190 182 171 255 
2.275591 0.8498634 4.359423 0 0 0 166 160 146 255 
-3.086313 2.368608 3.096664 0 0 0 157 150 134 255 
-3.007013 2.626145 2.925949 0 0 0 225 219 207 255 
3.660015 2.883712 3.020876 0 0 0 97 108 119 255 
-2.84521 2.964909 2.694338 0 0 0 150 140 128 255 
-2.711609 3.07608 2.630546 0 0 0 216 208 197 255 
-2.711519 2.996552 2.628274 0 0 0 0 0 0 255 
-2.687893 2.989718 2.637078 0 0 0 201 194 183 255 
-2.809704 1.611904 3.620735 0 0 0 219 211 200 255 
0.8816562 0.04525308 4.859108 0 0 0 133 129 117 255 
-2.617407 3.009218 2.602157 0 0 0 209 203 189 255 
0.9335384 0.1790531 4.74367 0 0 0 183 174 158 255 
-2.544972 2.230007 3.078285 0 0 0 144 136 123 255 
-2.521151 2.195935 3.054096 0 0 0 194 188 176 255 
-2.51931 2.211876 3.128705 0 0 0 147 138 129 255 
2.286345 1.756294 3.646897 0 0 0 174 159 138 255 
-2.445144 2.264173 3.035396 0 0 0 188 182 170 255 
-2.453578 2.175337 3.139562 0 0 0 149 144 132 255 
-2.44313 2.142783 3.157429 0 0 0 208 199 190 255 
-2.515329 1.263044 3.739383 0 0 0 163 151 137 255 
2.348459 0.8964688 4.278566 0 0 0 141 127 114 255 
1.58346 2.493762 3.012317 0 0 0 181 174 168 255 
1.473993 3.337724 2.400286 0 0 0 214 205 196 255 
1.259011 2.522621 3.082976 0 0 0 188 179 170 255 
1.931264 1.667144 3.759453 0 0 0 106 93 74 255 
0.4057378 0.5209883 4.391992 0 0 0 186 187 181 255 
0.246796 3.07568 2.752383 0 0 0 171 163 152 255 
-0.08167413 3.08658 2.703562 0 0 0 220 210 200 255 
-0.5653363 1.112032 4.023663 0 0 0 209 205 196 255 
-0.4259506 3.055573 2.689472 0 0 0 177 167 158 255 
-0.548648 2.517616 3.051001 0 0 0 216 213 208 255 
-0.6893414 2.133421 3.436007 0 0 0 203 195 184 255 
-0.7416896 3.055202 2.662545 0 0 0 195 185 175 255 
-0.8673998 2.68909 2.891531 0 0 0 165 156 147 255 
-0.09295059 0.6886892 4.205874 0 0 0 153 145 132 255 
-1.058958 1.121055 3.981224 0 0 0 177 173 162 255 
-0.9075769 2.600184 3.057637 0 0 0 144 135 126 255 
-1.131373 2.132908 3.248918 0 0 0 224 217 209 255 
-1.485029 2.248197 3.208206 0 0 0 159 151 140 255 
-1.578466 1.457717 3.68848 0 0 0 159 153 141 255 
0.7818028 -1.69566 6.297095 0 0 0 120 116 107 255 
-1.50052 2.797255 2.707707 0 0 0 131 123 112 255 
-1.740802 1.402757 3.753504 0 0 0 187 178 171 255 
-1.93942 0.9497784 3.927548 0 0 0 196 187 178 255 
-1.77375 2.811167 2.750303 0 0 0 200 192 181 255 
-1.870301 2.190193 3.108778 0 0 0 205 197 186 255 
-2.763403 1.538856 3.499393 0 0 0 141 125 112 255 
-1.961431 2.141806 3.14639 0 0 0 205 202 187 255 
2.267686 1.789125 3.57858 0 0 0 180 165 142 255 
-2.117501 2.149037 3.080417 0 0 0 209 203 191 255 
-2.15538 3.024795 2.540542 0 0 0 190 182 169 255 
-2.342783 2.164784 3.080033 0 0 0 137 131 119 255 
-2.348616 2.202697 3.052989 0 0 0 150 147 138 255 
2.189432 1.603709 3.870455 0 0 0 140 127 111 255 
-2.473319 0.8466156 3.965239 0 0 0 136 130 118 255 
-2.461539 2.242685 3.107684 0 0 0 216 212 203 255 
-2.715394 2.262981 3.069517 0 0 0 210 204 190 255 
-2.853925 3.122176 2.496833 0 0 0 203 194 177 255 
-2.970744 2.389686 3.104762 0 0 0 131 122 107 255 
0.1011802 0.7677873 4.246149 0 0 0 201 196 192 255 
-3.079857 2.355747 3.105404 0 0 0 187 180 164 255 
2.713049 2.93312 2.962917 0 0 0 186 177 168 255 
1.673669 2.500654 2.98682 0 0 0 205 198 190 255 
1.707615 3.43851 2.361809 0 0 0 166 157 150 255 
1.566418 0.8734852 4.413567 0 0 0 179 176 171 255 
1.556746 2.477509 3.031145 0 0 0 145 138 130 255 
0.5982328 -1.655992 6.153907 0 0 0 137 134 127 255 
1.487877 2.51702 2.975865 0 0 0 200 191 184 255 
0.1904157 0.918327 4.232429 0 0 0 193 190 183 255 
1.308472 2.528662 3.071841 0 0 0 205 196 189 255 
1.266616 2.54483 3.046924 0 0 0 192 186 174 255 
1.263824 2.526175 3.086121 0 0 0 188 179 170 255 
1.254616 2.551544 3.05761 0 0 0 160 153 145 255 
1.2246 2.548317 3.074757 0 0 0 185 178 170 255 
-0.5864369 1.096884 4.044223 0 0 0 203 199 190 255 
1.156936 2.587229 3.031042 0 0 0 195 186 177 255 
0.8939018 2.638078 3.061827 0 0 0 192 183 174 255 
0.8022312 2.68892 2.92666 0 0 0 195 185 175 255 
0.77386 2.659841 2.993617 0 0 0 192 185 175 255 
0.6305036 2.711608 2.967851 0 0 0 146 136 126 255 
0.2465003 3.066101 2.738644 0 0 0 217 209 198 255 
0.1471532 1.66633 3.994718 0 0 0 119 116 109 255 
0.1987935 2.290962 3.731944 0 0 0 137 133 132 255 
0.007036406 3.112367 2.657861 0 0 0 171 161 151 255 
-2.135359 2.960776 2.616773 0 0 0 90 80 68 255 
0.02195753 2.248414 3.811055 0 0 0 121 120 118 255 
-0.03350204 2.215206 3.841514 0 0 0 146 139 129 255 
-0.2540273 2.303454 3.450735 0 0 0 160 148 132 255 
-0.317028 2.625083 2.902885 0 0 0 175 165 155 255 
-0.3100859 3.08177 2.646037 0 0 0 173 161 149 255 
-0.3892164 2.549967 3.067099 0 0 0 161 153 142 255 
-0.4368614 2.619041 2.896989 0 0 0 216 206 196 255 
-0.421311 2.526805 3.108661 0 0 0 168 160 149 255 
-0.6349528 0.5866459 4.382744 0 0 0 172 165 155 255 
-0.4429496 2.223991 3.459006 0 0 0 159 150 141 255 
-0.548648 2.517616 3.051001 0 0 0 216 213 208 255 
-0.5762207 2.126444 3.395449 0 0 0 159 151 140 255 
-0.6007103 2.513263 3.032329 0 0 0 238 235 230 255 
-0.766169 1.060791 4.059154 0 0 0 158 153 147 255 
-0.667037 2.542896 3.025696 0 0 0 199 196 191 255 
-0.5001675 -0.07920273 4.753695 0 0 0 148 139 130 255 
-0.6967862 2.11374 3.413382 0 0 0 203 195 184 255 
-0.7066564 2.111563 3.418534 0 0 0 166 158 145 255 
-0.7752353 2.543642 3.043419 0 0 0 214 211 202 255 
-0.8226468 2.028133 3.474038 0 0 0 175 166 159 255 
-0.7416896 3.055202 2.662545 0 0 0 195 185 175 255 
-1.535787 2.248113 3.152358 0 0 0 183 171 159 255 
-2.757093 2.407247 3.065883 0 0 0 152 144 133 255 
-0.9637389 1.077858 4.002126 0 0 0 213 208 202 255 
-2.317725 3.069815 2.528093 0 0 0 198 190 177 255 
-1.194152 2.795239 2.807016 0 0 0 213 203 193 255 
-0.827113 0.9486875 4.166224 0 0 0 192 187 181 255 
-0.748512 2.49596 3.099521 0 0 0 244 243 241 255 
-0.6384416 2.958549 2.758513 0 0 0 201 192 183 255 
0.4197863 0.5140871 4.423559 0 0 0 104 100 89 255 
-0.7562416 1.385296 3.879574 0 0 0 163 156 146 255 
-1.497981 2.234106 3.219667 0 0 0 159 151 140 255 
-1.448264 2.786323 2.666785 0 0 0 163 155 144 255 
-1.388908 2.17913 3.319031 0 0 0 158 149 140 255 
-1.136078 2.776652 2.838131 0 0 0 218 207 192 255 
-1.511319 1.51085 3.635286 0 0 0 151 142 129 255 
-1.067319 2.648458 3.017958 0 0 0 152 145 136 255 
2.652133 1.771579 3.704644 0 0 0 156 142 116 255 
1.520939 2.348281 3.165796 0 0 0 106 99 93 255 
-1.076056 2.654685 3.006948 0 0 0 198 190 179 255 
-2.239132 1.484953 3.650478 0 0 0 135 130 116 255 
-0.9426324 2.023733 3.428993 0 0 0 211 204 192 255 
-1.11945 3.322033 2.41961 0 0 0 216 207 197 255 
-1.287332 2.144647 3.311516 0 0 0 171 165 153 255 
-1.902227 2.798893 2.778072 0 0 0 175 166 154 255 
-1.489253 1.463532 3.73928 0 0 0 151 141 122 255 
-2.141088 2.998322 2.569591 0 0 0 156 144 125 255 
-2.366971 2.194101 3.032271 0 0 0 183 176 158 255 
-1.294255 2.184611 3.23047 0 0 0 208 202 194 255 
-1.810261 2.721347 2.82491 0 0 0 139 127 111 255 
-1.612514 2.774951 2.744564 0 0 0 150 139 126 255 
0.5204238 2.528208 3.230772 0 0 0 146 133 124 255 
-2.271656 1.501129 3.644979 0 0 0 140 134 125 255 
-1.069369 2.095842 3.34442 0 0 0 219 215 207 255 
-1.621361 2.529657 2.920329 0 0 0 176 164 148 255 
0.3299674 3.007935 2.762168 0 0 0 162 153 143 255 
-2.390003 3.03897 2.531138 0 0 0 74 70 64 255 
-2.757222 1.943944 3.303486 0 0 0 159 151 138 255 
0.4194122 0.06961221 4.647643 0 0 0 135 126 115 255 
-1.754331 1.476773 3.573607 0 0 0 208 197 182 255 
-2.337336 3.062208 2.509115 0 0 0 94 89 84 255 
1.444203 1.787756 3.709226 0 0 0 190 175 156 255 
-2.453482 3.00485 2.545677 0 0 0 54 52 49 255 
-2.476172 3.045727 2.553591 0 0 0 120 115 109 255 
-2.455459 3.007435 2.601857 0 0 0 96 92 86 255 
-2.358606 3.032612 2.555892 0 0 0 107 103 97 255 
-1.10489 2.08205 3.348908 0 0 0 171 164 151 255 
-2.219522 0.2481964 4.437746 0 0 0 140 134 122 255 
3.483573 3.673924 2.463959 0 0 0 135 125 115 255 
-2.995253 1.512507 3.500696 0 0 0 198 189 180 255 
-2.713645 2.998308 2.622886 0 0 0 168 160 149 255 
3.758591 3.967482 2.369931 0 0 0 126 112 99 255 
-1.805799 1.484046 3.553447 0 0 0 164 154 144 255 
-2.992947 2.033879 3.420656 0 0 0 181 173 160 255 
1.696019 3.428387 2.35112 0 0 0 175 166 159 255 
1.808331 0.6265703 4.576121 0 0 0 194 184 177 255 
-2.988159 2.003706 3.371742 0 0 0 146 134 118 255 
-2.722628 0.8130888 4.005119 0 0 0 144 138 124 255 
-2.551149 2.990832 2.421155 0 0 0 0 0 0 255 
-2.662048 2.976213 2.478385 0 0 0 0 0 0 255 
-2.680905 2.920269 2.57743 0 0 0 0 0 0 255 
-2.788853 1.610135 3.512472 0 0 0 188 179 164 255 
-3.0169 0.8859607 4.02038 0 0 0 171 162 147 255 
-1.852106 1.435989 3.624108 0 0 0 156 146 136 255 
-3.04994 1.955916 3.364356 0 0 0 187 176 158 255 
-2.975836 3.07217 2.48192 0 0 0 151 138 119 255 
-2.362156 3.050202 2.514994 0 0 0 193 186 173 255 
-2.532932 2.98138 2.552274 0 0 0 0 0 0 255 
-2.534255 3.049557 2.522564 0 0 0 204 196 185 255 
-2.810814 3.007154 2.662165 0 0 0 127 117 105 255 
-1.558448 1.467761 3.693629 0 0 0 208 201 190 255 
-3.005669 0.9296235 4.023246 0 0 0 181 173 162 255 
-2.199439 3.031922 2.563322 0 0 0 210 207 192 255 
-2.362156 3.050202 2.514994 0 0 0 193 186 173 255 
-2.82188 0.3202137 4.438524 0 0 0 174 169 163 255 
-2.620728 2.962099 2.485801 0 0 0 0 0 0 255 
-2.653817 3.029761 2.54953 0 0 0 0 0 0 255 
-2.673496 3.065235 2.492087 0 0 0 172 162 150 255 
-2.722786 3.06918 2.511634 0 0 0 0 0 0 255 
-2.715833 3.031102 2.560731 0 0 0 175 167 154 255 
-2.771598 3.018215 2.607404 0 0 0 147 137 125 255 
-2.117359 2.960719 2.627957 0 0 0 208 200 188 255 
-2.224249 3.06839 2.506721 0 0 0 151 142 129 255 
-2.879657 1.921852 3.312439 0 0 0 208 198 188 255 
-2.878978 1.532938 3.562405 0 0 0 193 183 171 255 
-2.687246 3.057312 2.639912 0 0 0 154 148 136 255 
-1.887326 2.192847 3.118844 0 0 0 188 180 169 255 
-2.682143 2.930985 2.544838 0 0 0 0 0 0 255 
-2.498714 2.972503 2.437731 0 0 0 0 0 0 255 
-2.547132 0.1680084 4.494011 0 0 0 181 174 164 255 
-0.6487858 2.96381 2.761011 0 0 0 143 139 132 255 
0.926176 3.497888 2.336286 0 0 0 215 210 201 255 
1.417254 -1.229717 5.885779 0 0 0 90 86 83 255 
0.2423376 2.344696 3.769547 0 0 0 91 85 85 255 
1.952258 3.642138 2.239449 0 0 0 196 182 163 255 
0.4556304 4.437311 1.722367 0 0 0 143 135 126 255 
-1.264318 0.1665653 4.449474 0 0 0 138 128 116 255 
2.686094 1.595798 3.958797 0 0 0 171 161 149 255 
2.808388 1.793428 3.659479 0 0 0 141 127 111 255 
-1.175978 0.07236272 4.578757 0 0 0 157 153 141 255 
2.36572 1.674425 3.839859 0 0 0 159 151 140 255 
-0.5443721 3.468414 2.343723 0 0 0 187 175 163 255 
-1.071 0.1421973 4.438643 0 0 0 182 173 156 255 
1.24254 1.751971 3.755669 0 0 0 142 130 114 255 
1.61162 1.756686 3.740045 0 0 0 140 130 118 255 
0.2511484 3.72362 2.254339 0 0 0 179 166 157 255 
0.4096693 -1.535894 5.635225 0 0 0 129 126 119 255 
-0.0608619 1.962606 3.938919 0 0 0 171 163 152 255 
-0.4067839 0.4771752 4.279993 0 0 0 191 183 172 255 
-0.6656458 0.05730155 4.557425 0 0 0 184 181 172 255 
-1.551016 0.7700582 4.18818 0 0 0 190 182 169 255 
-0.6572664 3.038845 2.666231 0 0 0 176 166 156 255 
-1.027964 0.02920789 4.63696 0 0 0 155 149 135 255 
-0.6656458 0.05730155 4.557425 0 0 0 184 181 172 255 
2.010298 1.69268 3.714082 0 0 0 151 142 127 255 
-1.439394 1.4941 3.668453 0 0 0 152 140 124 255 
-0.3819012 3.509077 2.302138 0 0 0 171 155 141 255 
-0.4687605 -0.9473357 5.157869 0 0 0 173 170 159 255 
0.02918873 3.160459 2.549404 0 0 0 214 202 190 255 
1.18911 1.729548 3.792009 0 0 0 152 140 124 255 
0.8868862 3.202096 2.589785 0 0 0 186 176 166 255 
1.690842 -0.07880118 5.068811 0 0 0 114 115 109 255 
2.697593 0.6264126 4.559614 0 0 0 188 175 159 255 
2.453626 2.911099 2.852666 0 0 0 169 159 144 255 
1.275189 -0.225114 5.151925 0 0 0 107 96 76 255 
0.1842585 2.579547 3.139325 0 0 0 187 174 165 255 
2.818719 1.619034 3.975116 0 0 0 180 167 150 255 
0.1479933 -0.07207589 4.60937 0 0 0 177 171 159 255 
0.01588702 0.4218908 4.384804 0 0 0 175 167 154 255 
1.697433 0.06217607 4.894999 0 0 0 168 161 145 255 
0.1240498 0.4664885 4.339815 0 0 0 200 192 179 255 
-0.8853986 -0.8251181 5.322318 0 0 0 133 126 118 255 
0.1753469 1.421469 4.107414 0 0 0 164 155 146 255 
0.9080762 -0.5546148 5.191499 0 0 0 164 162 150 255 
-0.05340394 2.163246 3.837472 0 0 0 175 169 157 255 
-1.300943 0.1152382 4.577017 0 0 0 131 123 112 255 
0.1839057 2.58006 3.140082 0 0 0 187 174 165 255 
-0.8702403 2.604346 2.986733 0 0 0 162 150 138 255 
-0.04238651 0.02479393 4.486976 0 0 0 184 176 163 255 
-0.6911195 1.123829 3.947985 0 0 0 192 183 168 255 
-0.564059 1.149819 3.935485 0 0 0 152 143 128 255 
1.244873 0.8383926 4.411888 0 0 0 145 135 123 255 
1.906147 0.9273583 4.302472 0 0 0 166 160 146 255 
-0.7223053 3.092788 2.587741 0 0 0 207 195 181 255 
1.24562 1.754501 3.743252 0 0 0 143 131 115 255 
0.1313744 -0.8810506 5.079249 0 0 0 189 181 170 255 
0.4619906 -1.081914 5.678235 0 0 0 165 156 141 255 
2.462679 1.679368 3.888094 0 0 0 127 117 107 255 
1.238935 3.775604 2.367455 0 0 0 192 180 165 255 
2.555509 1.734686 3.790102 0 0 0 132 118 105 255 
0.3364518 -1.416232 5.893646 0 0 0 170 168 156 255 
1.111547 3.474585 2.337317 0 0 0 219 209 199 255 
2.953958 2.883719 3.024216 0 0 0 177 165 151 255 
0.1623244 -1.179404 5.287295 0 0 0 134 134 123 255 
2.85835 2.89376 2.94104 0 0 0 145 131 118 255 
-0.2206274 0.6443335 4.271197 0 0 0 157 146 140 255 
-0.1902455 -0.1695693 4.752014 0 0 0 174 168 156 255 
-0.3467582 0.09867339 4.573662 0 0 0 147 140 130 255 
-1.434524 1.416377 3.816517 0 0 0 185 175 163 255 
0.04154943 -0.007968762 4.526558 0 0 0 161 153 142 255 
1.444275 -1.50589 6.187034 0 0 0 161 154 148 255 
-0.5829878 -0.3488947 4.831608 0 0 0 147 140 124 255 
-1.19996 0.1763609 4.420376 0 0 0 134 126 113 255 
-0.2429483 -0.3531068 4.799623 0 0 0 191 184 174 255 
-1.628693 1.446547 3.711789 0 0 0 190 184 173 255 
0.7224977 -1.491013 5.891797 0 0 0 115 108 98 255 
2.882614 1.687686 3.696992 0 0 0 182 168 148 255 
0.06727283 -0.07489622 4.619957 0 0 0 192 185 175 255 
-1.123378 1.082406 4.070363 0 0 0 160 153 143 255 
2.713499 1.76835 3.746797 0 0 0 143 127 102 255 
0.1332058 -0.1423441 4.671865 0 0 0 152 144 131 255 
-0.09085646 -0.008124311 4.566976 0 0 0 169 162 152 255 
2.545228 1.769618 3.734284 0 0 0 132 114 90 255 
-0.1041525 -0.01136599 4.571801 0 0 0 194 192 180 255 
-0.4923457 0.1320405 4.502263 0 0 0 166 158 145 255 
-0.7722886 -0.01083505 4.633234 0 0 0 193 188 182 255 
-0.3179328 -0.001513995 4.698369 0 0 0 195 188 178 255 
-0.5890246 0.1136258 4.48334 0 0 0 147 138 121 255 
-0.6282257 0.09716734 4.520971 0 0 0 133 126 110 255 
-2.363697 -0.290858 4.976457 0 0 0 127 120 112 255 
-0.6058049 0.07012116 4.554175 0 0 0 184 178 166 255 
0.04828211 -1.533575 5.896228 0 0 0 108 95 87 255 
0.2412536 0.3804831 4.35479 0 0 0 140 128 112 255 
-0.5157841 0.0338695 4.648552 0 0 0 183 177 163 255 
-0.3780929 -0.398287 4.924807 0 0 0 138 136 124 255 
-1.945885 0.8321725 4.072541 0 0 0 182 173 156 255 
1.186029 -0.3863643 5.210683 0 0 0 113 107 95 255 
-1.077327 0.08073489 4.565913 0 0 0 186 180 168 255 
-1.105937 0.0661742 4.602386 0 0 0 181 174 164 255 
-1.0978 0.05949026 4.612324 0 0 0 142 135 125 255 
-2.057769 0.8481318 4.072938 0 0 0 152 145 129 255 
-0.6266268 -0.4269786 4.815377 0 0 0 183 177 163 255 
-1.240247 0.1091341 4.56753 0 0 0 150 142 131 255 
-1.921074 0.6376849 4.208321 0 0 0 170 158 142 255 
-1.335261 0.13615 4.53777 0 0 0 133 123 111 255 
-1.36679 0.1127385 4.585642 0 0 0 181 174 166 255 
-1.707692 0.3539878 4.349286 0 0 0 179 170 155 255 
-1.456725 0.1237483 4.563063 0 0 0 148 142 126 255 
2.825438 1.790177 3.634217 0 0 0 135 121 106 255 
-0.4121496 3.074769 2.649316 0 0 0 176 163 154 255 
-0.8975212 0.8886481 4.166089 0 0 0 189 181 168 255 
2.057112 1.590252 3.862524 0 0 0 185 177 164 255 
1.835043 0.9017947 4.385787 0 0 0 168 160 147 255 
-0.123351 0.9832397 4.078148 0 0 0 198 191 183 255 
-1.712001 2.207717 3.163216 0 0 0 204 195 183 255 
0.09078559 -0.02306298 4.591315 0 0 0 162 153 141 255 
0.05231245 -0.03016408 4.622738 0 0 0 155 149 137 255 
-0.1053835 -0.01338366 4.570745 0 0 0 194 192 180 255 
-0.4493589 0.1481559 4.515713 0 0 0 149 136 120 255 
-0.7169198 0.08305655 4.510063 0 0 0 193 193 185 255 
0.5604895 0.5717173 4.463248 0 0 0 148 142 128 255 
-1.170648 0.6916472 4.196416 0 0 0 211 203 192 255 
2.438998 2.559803 3.16312 0 0 0 194 182 170 255 
2.828898 1.691788 3.829166 0 0 0 136 124 110 255 
0.6370692 3.305494 2.575715 0 0 0 180 171 164 255 
1.716672 1.753707 3.651618 0 0 0 173 164 147 255 
2.057167 1.589646 3.862329 0 0 0 185 177 164 255 
1.418867 -1.487914 6.082809 0 0 0 136 131 125 255 
-0.7763 3.507634 2.3485 0 0 0 185 176 167 255 
1.221088 1.759372 3.731314 0 0 0 186 173 154 255 
2.009346 0.8484164 4.411398 0 0 0 166 160 144 255 
-1.502004 -0.7935831 5.216932 0 0 0 125 118 110 255 
1.65973 1.061434 4.195761 0 0 0 142 132 120 255 
1.521229 1.109962 4.136299 0 0 0 177 169 156 255 
1.155653 1.523707 3.96857 0 0 0 177 167 155 255 
1.263878 1.064174 4.166652 0 0 0 161 157 145 255 
-0.6466933 -0.3585446 4.844727 0 0 0 156 150 138 255 
-0.2815611 2.06405 3.739446 0 0 0 157 146 128 255 
0.9604494 0.7602884 4.463212 0 0 0 146 138 125 255 
-1.152436 2.190058 3.176354 0 0 0 157 143 130 255 
0.863081 0.731446 4.44303 0 0 0 155 152 137 255 
-1.341367 2.262073 3.098151 0 0 0 204 192 178 255 
-1.063076 2.124523 3.302734 0 0 0 157 148 136 255 
0.4161446 0.9718082 4.235315 0 0 0 185 179 165 255 
-1.574611 2.269277 3.103221 0 0 0 192 180 166 255 
-1.596598 2.19273 3.244771 0 0 0 158 146 129 255 
0.4828511 0.5193015 4.478395 0 0 0 156 150 138 255 
-1.711652 2.208944 3.163303 0 0 0 204 195 183 255 
-0.6725334 1.104357 4.020386 0 0 0 179 175 166 255 
0.07475065 0.04837179 4.490925 0 0 0 166 158 145 255 
2.416556 2.81543 2.978878 0 0 0 171 157 132 255 
3.067236 2.928969 2.938867 0 0 0 184 175 158 255 
2.621779 2.809938 3.072444 0 0 0 151 138 129 255 
2.740901 1.80499 3.639663 0 0 0 126 109 93 255 
2.755566 1.785596 3.683427 0 0 0 177 165 151 255 
-2.041872 0.8329871 4.078658 0 0 0 159 151 138 255 
2.830205 1.635771 3.920475 0 0 0 127 114 105 255 
-0.0700243 3.596643 2.318665 0 0 0 179 169 159 255 
0.543373 2.836224 2.830131 0 0 0 203 191 179 255 
-0.9531103 -0.04588676 4.6887 0 0 0 153 145 132 255 
1.03008 2.143073 3.573844 0 0 0 151 136 117 255 
1.252217 1.749217 3.775867 0 0 0 134 121 104 255 
-0.7514854 3.061303 2.641545 0 0 0 179 167 155 255 
1.512762 1.068407 4.209674 0 0 0 143 134 119 255 
1.81272 0.8078887 4.493848 0 0 0 172 164 151 255 
1.210043 1.090871 4.10603 0 0 0 193 184 169 255 
1.659574 1.770138 3.676504 0 0 0 168 153 134 255 
