ply
format ascii 1.0
comment VCGLIB generated
element vertex 904
property float x
property float y
property float z
property float nx
property float ny
property float nz
property uchar red
property uchar green
property uchar blue
property uchar alpha
element face 0
property list uchar int vertex_indices
end_header
-1.542458 2.321317 0.1292831 0 0 0 0 0 0 255 
0.2634777 0.06480625 1.316996 0 0 0 71 47 21 255 
0.2627569 0.02933822 1.166667 0 0 0 167 99 138 255 
-2.029585 -1.357253 0.06048746 0 0 0 170 162 151 255 
3.436494 0.1655212 0.1869716 0 0 0 177 177 169 255 
3.138459 0.5034897 0.2823737 0 0 0 152 144 131 255 
2.886285 -0.4778738 0.07575672 0 0 0 161 154 146 255 
2.886571 -0.1478367 0.1676284 0 0 0 155 145 133 255 
2.67113 -1.067845 -0.1206415 0 0 0 112 106 94 255 
2.634738 -1.046057 -0.1065772 0 0 0 127 118 106 255 
2.421771 0.8470701 0.1145388 0 0 0 205 198 189 255 
2.46305 -1.205284 -0.1518467 0 0 0 104 103 101 255 
2.130806 1.479593 0.03321905 0 0 0 164 154 144 255 
2.251508 -1.36138 -0.1074408 0 0 0 114 108 96 255 
1.713166 -0.263218 -0.02322585 0 0 0 159 153 141 255 
3.520234 -0.262704 0.1800963 0 0 0 182 182 178 255 
1.689777 0.01669243 0.09240119 0 0 0 155 147 134 255 
-0.8492087 0.4727828 -0.0768078 0 0 0 175 165 153 255 
3.218421 -0.02405732 0.2380619 0 0 0 193 186 174 255 
-2.090514 -1.990188 -0.0951336 0 0 0 138 131 123 255 
0.2623743 0.04336523 1.254821 0 0 0 55 44 49 255 
0.2703275 0.04725552 0.8324823 0 0 0 127 72 105 255 
0.1639917 -0.1848712 0.1492833 0 0 0 163 175 175 255 
0.5185724 1.034121 -0.04326827 0 0 0 189 180 170 255 
2.887713 1.841531 0.09976069 0 0 0 174 166 155 255 
-2.280327 -2.565393 -0.02104384 0 0 0 191 183 170 255 
-2.314291 1.648973 -0.01869399 0 0 0 210 200 190 255 
-0.7745745 -1.676493 -0.0517233 0 0 0 146 138 127 255 
0.2584921 -0.01384304 0.6327953 0 0 0 187 108 156 255 
0.2555469 -0.01644923 0.4537673 0 0 0 185 108 154 255 
0.1488883 -1.886766 0.02085203 0 0 0 160 150 138 255 
0.08763578 -0.2294352 0.0881993 0 0 0 169 172 161 255 
0.1743783 -0.1836332 0.1548869 0 0 0 163 175 175 255 
-0.02919107 0.2652597 -0.4334848 0 0 0 132 123 124 255 
1.099041 -1.431587 -0.1180833 0 0 0 141 133 122 255 
0.9943153 1.107251 -0.02734548 0 0 0 168 159 152 255 
0.9974927 1.223789 -0.03107888 0 0 0 217 212 203 255 
1.36024 0.4545571 0.0427124 0 0 0 184 177 169 255 
1.231476 1.71817 -0.007400811 0 0 0 164 149 134 255 
1.943202 0.6153798 0.1303846 0 0 0 164 156 145 255 
2.089131 -0.8684477 -0.03810651 0 0 0 164 156 145 255 
2.279039 -1.231786 -0.1051696 0 0 0 122 114 103 255 
2.231164 0.4755868 0.08869879 0 0 0 178 175 168 255 
2.557704 -1.405469 -0.1501964 0 0 0 97 96 94 255 
2.973205 -0.2425036 0.1535436 0 0 0 186 182 173 255 
3.053394 -0.04534972 0.1851069 0 0 0 139 131 120 255 
3.162333 0.4467506 0.2892306 0 0 0 165 158 147 255 
3.15522 0.7509853 0.2521706 0 0 0 133 129 120 255 
3.29901 -0.1366599 0.1967422 0 0 0 162 153 138 255 
3.270131 0.3157568 0.1829604 0 0 0 177 174 165 255 
-2.200812 -2.548718 -0.04025371 0 0 0 198 192 180 255 
-2.782652 2.53175 0.02184409 0 0 0 183 174 165 255 
-2.115083 -1.831929 -0.0008195043 0 0 0 193 187 175 255 
-2.014392 -0.8107868 0.02865333 0 0 0 204 195 186 255 
-2.30946 1.800556 0.05908389 0 0 0 216 207 198 255 
-2.271869 1.605725 -0.03422696 0 0 0 217 207 198 255 
0.2428141 -0.0813347 1.359367 0 0 0 118 115 105 255 
-1.318337 -1.544248 0.06769222 0 0 0 208 201 191 255 
-1.288134 -1.467041 0.09070794 0 0 0 211 204 196 255 
0.2728199 0.0588408 1.268189 0 0 0 44 38 38 255 
-1.073138 -1.873307 0.04026551 0 0 0 178 168 155 255 
-0.9369013 -1.445469 0.1237566 0 0 0 190 186 175 255 
-0.9258407 -1.419489 0.1295153 0 0 0 197 193 182 255 
0.2628155 0.01059663 1.109081 0 0 0 101 41 77 255 
-1.44418 2.436 0.03781838 0 0 0 168 159 150 255 
-0.8529023 -1.151669 0.06677312 0 0 0 192 185 175 255 
-0.8314823 -2.045619 -0.05991369 0 0 0 190 182 169 255 
0.2519341 0.08780267 0.7572348 0 0 0 171 185 178 255 
-0.3774264 -1.221754 0.0276782 0 0 0 174 164 154 255 
-0.6780375 1.909724 0.04140992 0 0 0 210 200 191 255 
0.223622 -0.11291 0.5647941 0 0 0 92 100 92 255 
0.2563514 0.005615658 0.4222496 0 0 0 196 112 162 255 
0.2415683 -0.06919876 0.2373743 0 0 0 165 175 167 255 
0.2398617 -0.0838996 0.203679 0 0 0 177 183 178 255 
0.2585806 0.002392046 0.1897804 0 0 0 178 97 145 255 
0.2587512 0.0002123122 0.1304804 0 0 0 184 102 148 255 
0.2380272 -0.9242084 -0.1310127 0 0 0 124 116 105 255 
0.4295768 -1.505265 -0.0860942 0 0 0 152 144 133 255 
0.2306343 -0.06362962 -0.1469076 0 0 0 143 148 151 255 
0.3449472 -0.1643515 -0.3305705 0 0 0 147 140 130 255 
0.3962958 2.457892 0.02370066 0 0 0 145 140 134 255 
1.232798 2.656607 -0.02100689 0 0 0 170 163 155 255 
1.613246 -0.2495728 -0.008006871 0 0 0 149 142 126 255 
1.78969 -0.1642253 0.02813477 0 0 0 149 137 123 255 
1.828452 0.6178004 0.1803497 0 0 0 201 192 182 255 
2.024411 2.142695 -0.006731808 0 0 0 137 128 121 255 
2.002834 -0.2773384 0.06443448 0 0 0 191 182 173 255 
2.263403 -0.5539876 -0.01867897 0 0 0 171 164 154 255 
2.180225 -1.424279 -0.0538705 0 0 0 120 112 101 255 
1.890791 1.98863 0.1053502 0 0 0 189 180 171 255 
3.436922 0.008452244 0.2336933 0 0 0 176 173 166 255 
3.403734 0.1855521 0.1399163 0 0 0 109 106 101 255 
3.319691 1.092189 0.09095018 0 0 0 152 143 128 255 
3.381239 0.5141616 0.2226233 0 0 0 196 192 182 255 
3.403499 0.04300306 0.2399366 0 0 0 192 189 182 255 
3.340339 0.2278528 0.1827625 0 0 0 171 169 159 255 
3.365846 -0.1238989 0.27584 0 0 0 183 175 164 255 
3.250212 0.8410687 0.1512586 0 0 0 137 132 122 255 
3.200077 0.2269475 0.2258033 0 0 0 102 90 84 255 
3.170686 0.2550467 0.2456505 0 0 0 166 160 148 255 
3.166673 0.312942 0.2597361 0 0 0 115 110 91 255 
3.166343 0.2663858 0.2508671 0 0 0 122 114 101 255 
3.096879 0.1604041 0.2458172 0 0 0 124 116 108 255 
3.102323 -0.01183776 0.2132189 0 0 0 174 164 154 255 
2.916941 1.729228 0.1115934 0 0 0 157 147 137 255 
2.965306 1.283154 0.1530148 0 0 0 142 138 129 255 
2.73971 -0.9069606 -0.05077655 0 0 0 107 99 88 255 
2.725803 -0.891396 -0.03103358 0 0 0 169 161 146 255 
2.625838 -0.9803894 -0.07362396 0 0 0 131 123 112 255 
2.188443 0.6530845 0.05686302 0 0 0 139 130 121 255 
2.318907 1.929858 -0.03236801 0 0 0 190 183 175 255 
2.463192 -1.253417 -0.156617 0 0 0 102 101 97 255 
2.504993 -1.702482 -0.136597 0 0 0 169 159 147 255 
2.430659 -1.158859 -0.1265224 0 0 0 118 110 99 255 
2.218792 1.734789 0.02379484 0 0 0 171 163 152 255 
-2.30946 1.800556 0.05908389 0 0 0 216 207 198 255 
0.2584857 -0.02266649 1.414074 0 0 0 132 142 134 255 
-0.8615795 -1.154691 0.05909414 0 0 0 192 185 175 255 
0.2575045 0.003435143 0.3049588 0 0 0 188 106 155 255 
-0.2432914 2.312397 0.04944939 0 0 0 185 176 167 255 
0.2593562 0.02407023 0.2474475 0 0 0 185 103 151 255 
0.3331115 -1.583833 -0.07634145 0 0 0 166 162 150 255 
0.2562642 0.0001979554 -0.1635669 0 0 0 175 96 144 255 
0.2547557 -0.002039813 -0.2227152 0 0 0 160 94 130 255 
1.123116 -1.395273 -0.1394714 0 0 0 130 122 111 255 
1.098154 0.3173101 0.02006501 0 0 0 190 183 175 255 
0.9894453 1.447613 -0.05485922 0 0 0 150 136 125 255 
2.134815 0.7856917 0.1004171 0 0 0 138 126 112 255 
-1.493329 1.035448 -0.03810579 0 0 0 193 184 175 255 
2.369325 -0.9041495 -0.0776189 0 0 0 121 113 100 255 
-1.994504 -1.743405 -0.02798659 0 0 0 159 150 143 255 
0.1855088 -0.1623643 0.07816022 0 0 0 52 61 60 255 
1.633457 -0.02145408 0.07759231 0 0 0 204 198 188 255 
3.049115 0.9040297 0.2452226 0 0 0 193 183 173 255 
2.688564 -0.02215086 0.2051713 0 0 0 128 118 106 255 
2.628317 -1.067928 -0.1130345 0 0 0 153 145 132 255 
2.6888 -0.0223078 0.2053172 0 0 0 128 118 106 255 
1.050179 -1.294694 -0.1204446 0 0 0 124 116 105 255 
0.6446558 0.258835 -0.1390193 0 0 0 145 137 124 255 
0.1728144 -0.1802503 0.6916277 0 0 0 140 154 157 255 
1.034207 -0.9622194 -0.07561523 0 0 0 167 161 147 255 
3.319528 -0.3078205 0.1650425 0 0 0 121 112 105 255 
3.411626 0.5212489 0.1785795 0 0 0 193 187 178 255 
1.845166 0.5616352 0.2029626 0 0 0 203 193 183 255 
3.320067 -0.3075185 0.1669208 0 0 0 121 112 105 255 
2.163947 0.001739424 0.1992044 0 0 0 191 181 170 255 
2.17754 0.03398158 0.2091552 0 0 0 209 202 190 255 
2.16348 0.1777388 0.1883024 0 0 0 210 204 195 255 
2.263364 -1.254181 -0.1034773 0 0 0 161 153 140 255 
2.238322 -0.7151303 -0.06241328 0 0 0 183 176 166 255 
2.183177 0.8302913 0.1023339 0 0 0 154 146 134 255 
2.264126 -0.4984516 -0.00183779 0 0 0 102 96 82 255 
2.311898 -0.05268444 0.1758987 0 0 0 208 204 195 255 
2.295023 -1.053316 -0.0630632 0 0 0 138 130 117 255 
2.33282 -0.07714292 0.1774875 0 0 0 207 203 194 255 
2.30988 -1.108652 -0.07453901 0 0 0 146 138 125 255 
2.335248 -1.071554 -0.07747155 0 0 0 169 161 150 255 
2.338861 -0.3518745 0.06865281 0 0 0 125 119 105 255 
2.307416 -0.6926323 -0.08491689 0 0 0 100 96 87 255 
2.369009 -0.1348973 0.1566991 0 0 0 199 196 186 255 
2.131721 1.854065 0.01698894 0 0 0 128 123 117 255 
2.350593 -0.9307314 -0.07581693 0 0 0 175 167 156 255 
2.287863 0.6706606 0.0585813 0 0 0 149 140 133 255 
2.408898 -0.03367707 0.1740641 0 0 0 198 194 185 255 
2.411868 -0.113166 0.1575874 0 0 0 159 155 144 255 
2.388148 -0.9906844 -0.09587746 0 0 0 133 127 116 255 
2.435476 0.2993494 0.2174248 0 0 0 211 204 194 255 
2.397038 -0.5544771 -0.04844172 0 0 0 127 120 110 255 
2.434496 -0.3514656 0.05302853 0 0 0 127 120 109 255 
2.474354 -0.08912095 0.1633297 0 0 0 183 174 165 255 
2.325057 1.15728 0.07903593 0 0 0 193 189 179 255 
2.304959 1.714224 0.004890384 0 0 0 184 177 169 255 
2.466339 0.9410861 0.1373686 0 0 0 175 171 162 255 
2.395011 1.533046 0.03805966 0 0 0 192 185 177 255 
2.600643 -0.2550819 0.1052369 0 0 0 130 122 111 255 
2.603957 -0.4241317 0.04006142 0 0 0 132 124 113 255 
2.573318 0.5869185 0.1274284 0 0 0 197 193 182 255 
2.633872 -0.5554556 0.0134272 0 0 0 186 177 168 255 
2.691082 0.1329287 0.2792151 0 0 0 164 156 145 255 
2.485398 1.611378 0.03758735 0 0 0 194 185 178 255 
2.701093 -0.002764747 0.2158763 0 0 0 173 163 151 255 
2.68734 -0.8326357 -0.02169997 0 0 0 145 137 126 255 
2.611009 0.7490844 0.1171798 0 0 0 154 144 134 255 
2.518238 1.588925 0.05713148 0 0 0 196 189 181 255 
2.670887 0.4566253 0.166329 0 0 0 194 191 184 255 
2.709022 -0.9530681 -0.06354076 0 0 0 108 98 86 255 
2.702077 0.6624581 0.1235482 0 0 0 180 173 163 255 
2.778084 -0.9643027 -0.09076673 0 0 0 82 76 64 255 
2.804984 -0.07155308 0.182392 0 0 0 130 120 111 255 
2.747967 0.4886574 0.1385867 0 0 0 198 195 190 255 
2.958572 -0.1706518 0.1302513 0 0 0 180 180 170 255 
3.001671 -0.04988676 0.1889852 0 0 0 116 109 99 255 
3.008533 -0.7593178 -0.006170094 0 0 0 114 106 95 255 
3.013823 -0.4311792 0.05436463 0 0 0 164 158 146 255 
3.039364 0.118386 0.2585235 0 0 0 124 116 105 255 
3.070071 0.1674181 0.2692299 0 0 0 126 118 105 255 
3.074004 -0.3527469 0.1171102 0 0 0 109 101 90 255 
3.074575 -0.0640613 0.1836463 0 0 0 180 173 163 255 
3.076709 0.1691616 0.2543194 0 0 0 115 110 98 255 
3.092402 0.3553089 0.272857 0 0 0 197 193 184 255 
3.101585 0.226807 0.2624934 0 0 0 100 92 81 255 
3.061705 0.7258176 0.2669532 0 0 0 149 143 131 255 
3.090598 0.4198683 0.2797055 0 0 0 134 125 116 255 
3.039163 0.9726021 0.2279553 0 0 0 193 189 180 255 
3.11038 0.2616974 0.265569 0 0 0 116 107 98 255 
3.125547 0.03953718 0.2253203 0 0 0 185 177 166 255 
3.035092 1.077362 0.1789707 0 0 0 193 190 181 255 
3.125192 0.2403298 0.2463589 0 0 0 177 174 165 255 
2.961724 2.057199 0.09639326 0 0 0 162 152 142 255 
2.969339 1.999509 0.09630028 0 0 0 163 153 141 255 
3.174077 0.2842257 0.2456236 0 0 0 113 105 92 255 
3.174209 0.7240489 0.2310116 0 0 0 179 177 165 255 
3.284765 -1.076708 -0.2730625 0 0 0 175 169 157 255 
3.272005 0.5166758 0.1968941 0 0 0 185 183 171 255 
3.309272 0.1648949 0.1766774 0 0 0 147 137 125 255 
3.24322 0.9264485 0.09464256 0 0 0 110 103 95 255 
3.343176 0.09660567 0.230046 0 0 0 193 190 185 255 
3.316493 0.2501 0.1441847 0 0 0 102 94 79 255 
1.682637 -0.3698074 -0.06300741 0 0 0 168 161 153 255 
3.354075 0.2689292 0.1302666 0 0 0 113 106 99 255 
2.442555 -0.7671801 -0.07661945 0 0 0 152 148 139 255 
3.796242 1.407249 0.002037229 0 0 0 115 106 97 255 
0.1281628 -1.328719 -0.08658582 0 0 0 169 161 150 255 
-2.721479 1.705637 -0.02263791 0 0 0 176 168 157 255 
3.035281 1.134304 0.1709968 0 0 0 126 119 108 255 
3.093939 1.105216 0.1220373 0 0 0 126 123 114 255 
0.2215357 -0.1142758 1.10466 0 0 0 124 144 147 255 
2.190855 0.2078045 0.1850811 0 0 0 196 189 179 255 
-2.024803 -1.547417 0.08103531 0 0 0 172 163 153 255 
-1.906391 -1.282703 0.02950067 0 0 0 218 211 201 255 
-2.241405 2.024382 0.0181107 0 0 0 174 165 156 255 
0.240199 -0.08425543 1.387313 0 0 0 152 159 147 255 
-1.524982 -2.21229 -0.02403409 0 0 0 166 157 150 255 
0.2241832 0.08299448 1.362874 0 0 0 161 166 162 255 
-1.287973 -2.116751 0.003247442 0 0 0 192 184 173 255 
0.24517 -0.08625472 1.262804 0 0 0 145 154 153 255 
0.267788 0.01119903 1.290937 0 0 0 72 66 63 255 
-1.255164 -2.228246 -0.0380922 0 0 0 184 177 166 255 
-1.264723 -2.190183 -0.04990322 0 0 0 194 186 173 255 
0.2665657 0.008241657 1.217867 0 0 0 94 37 70 255 
0.2692094 -0.01781426 1.197373 0 0 0 173 107 145 255 
-1.097869 -2.099115 -0.02591139 0 0 0 194 185 176 255 
-1.521536 2.809 0.06481785 0 0 0 199 191 181 255 
-0.9468859 -1.038992 0.0708341 0 0 0 162 154 143 255 
-0.8286297 -2.255037 -0.06783563 0 0 0 143 133 121 255 
-0.8127368 -1.574713 0.006992521 0 0 0 136 128 115 255 
-1.36904 2.504135 -0.003118336 0 0 0 196 187 178 255 
-0.7727048 -1.53777 -0.0009375215 0 0 0 194 190 181 255 
-1.402567 3.005185 -0.02239639 0 0 0 201 192 185 255 
-0.7637605 -1.577767 -0.02097661 0 0 0 190 186 174 255 
-0.8761557 -0.7050037 -0.06722957 0 0 0 195 187 176 255 
0.2636111 0.01586537 0.768218 0 0 0 111 46 89 255 
-0.6044098 -0.612422 -0.1315334 0 0 0 189 181 168 255 
-0.5402938 1.936844 0.04590315 0 0 0 195 183 169 255 
-0.2611332 -0.60043 -0.2540644 0 0 0 191 181 169 255 
-0.200221 -0.6675162 -0.2391981 0 0 0 179 170 157 255 
0.2205275 -1.922006 -0.02807576 0 0 0 115 105 93 255 
0.2494645 -1.884267 -0.03779227 0 0 0 115 105 93 255 
0.2318358 -1.660565 -0.02924711 0 0 0 136 126 114 255 
0.2813904 -1.957014 -0.0628503 0 0 0 139 131 120 255 
0.2901741 -2.062955 -0.09543734 0 0 0 105 96 87 255 
0.2315085 -0.09696583 0.07630246 0 0 0 113 122 121 255 
0.4184987 -2.225728 -0.1406329 0 0 0 169 165 154 255 
0.3963546 -1.507995 -0.08120376 0 0 0 142 134 123 255 
0.2498268 0.05969178 -0.07668716 0 0 0 160 143 140 255 
0.3370347 -0.8383569 -0.1426046 0 0 0 200 191 182 255 
0.0916869 -0.2305066 -0.3782294 0 0 0 165 167 161 255 
0.2048152 -0.1438365 -0.3092034 0 0 0 136 160 162 255 
0.6014398 -1.53867 -0.09136658 0 0 0 199 192 182 255 
0.4537372 -0.8751326 -0.1608485 0 0 0 176 171 165 255 
0.3502146 0.1288701 -0.2815478 0 0 0 138 132 120 255 
0.4374999 0.8588274 -0.1309507 0 0 0 168 159 150 255 
0.5553928 2.397889 0.04422063 0 0 0 186 179 171 255 
0.6509071 1.646577 -0.05504376 0 0 0 164 157 151 255 
0.6984357 0.02803829 -0.2433532 0 0 0 144 139 133 255 
1.03969 -1.417259 -0.08073455 0 0 0 116 108 97 255 
0.8052472 2.120032 0.0621068 0 0 0 203 193 184 255 
1.058405 -1.117087 -0.1050547 0 0 0 164 155 146 255 
1.162271 -1.627411 -0.08173352 0 0 0 166 159 149 255 
0.8828184 1.341968 -0.02546174 0 0 0 149 136 127 255 
0.9526697 0.08374634 -0.1210664 0 0 0 196 191 185 255 
1.188393 -1.678843 -0.08814174 0 0 0 136 127 118 255 
1.120311 -1.071108 -0.1196206 0 0 0 178 170 159 255 
1.120454 -0.7820023 -0.1032551 0 0 0 158 150 139 255 
1.100572 0.2121625 -0.001455843 0 0 0 192 184 173 255 
1.099413 0.1629884 -0.0246833 0 0 0 180 173 165 255 
1.024152 1.166956 -0.02622897 0 0 0 209 202 196 255 
1.20195 -1.292603 -0.1605562 0 0 0 136 129 123 255 
1.280921 -1.558119 -0.1613577 0 0 0 128 123 117 255 
1.09276 2.207181 0.09559862 0 0 0 193 184 174 255 
1.079358 2.297297 0.07458776 0 0 0 149 142 136 255 
1.329682 -1.445128 -0.1613186 0 0 0 183 176 168 255 
1.363019 -1.31537 -0.1236918 0 0 0 156 149 141 255 
1.424872 -1.423934 -0.1202033 0 0 0 193 186 176 255 
1.43869 -0.6106119 -0.09341317 0 0 0 174 167 157 255 
1.445236 0.6239241 0.09437649 0 0 0 204 197 187 255 
1.573952 -0.08669911 0.04988927 0 0 0 114 106 95 255 
2.000832 -1.313098 0.02355975 0 0 0 180 172 161 255 
1.931699 0.5464754 0.1612867 0 0 0 189 182 171 255 
2.089954 -1.387201 -0.003980219 0 0 0 174 166 155 255 
-2.721479 1.705637 -0.02263791 0 0 0 176 168 157 255 
1.822758 -0.008161154 0.1136982 0 0 0 196 189 179 255 
-1.336238 -1.377148 0.07758372 0 0 0 179 172 162 255 
-1.3113 -2.263192 -0.05054934 0 0 0 137 129 116 255 
0.2686749 0.01117002 1.291352 0 0 0 72 66 63 255 
0.2657242 0.008955793 1.178773 0 0 0 116 51 89 255 
1.99763 1.037303 0.165811 0 0 0 138 134 122 255 
-0.8859223 -1.476536 0.08489316 0 0 0 194 185 176 255 
-1.388299 2.085507 0.05585355 0 0 0 173 164 155 255 
-0.9322443 -0.9664053 0.03938741 0 0 0 192 186 174 255 
-0.9057631 0.5516788 -0.03170592 0 0 0 154 140 127 255 
0.2599516 0.01685037 0.5849972 0 0 0 100 34 80 255 
2.069319 -0.8310362 -0.04106457 0 0 0 157 149 138 255 
0.1863888 -1.722549 -0.01354271 0 0 0 162 154 140 255 
0.2376227 -0.08615749 -0.1272667 0 0 0 176 190 194 255 
0.393931 0.9662785 -0.05302507 0 0 0 179 167 155 255 
0.9419166 -1.082127 -0.03449113 0 0 0 137 129 116 255 
1.07791 -0.8966405 -0.09829693 0 0 0 165 157 144 255 
1.290554 -1.5779 -0.1469219 0 0 0 160 157 150 255 
1.225535 0.689539 -0.01594168 0 0 0 202 195 187 255 
1.130532 1.674614 -0.02609259 0 0 0 190 181 174 255 
1.247567 0.9935753 -0.01631648 0 0 0 182 173 164 255 
1.39188 -0.7121845 -0.1167887 0 0 0 130 123 107 255 
1.392605 0.4827034 0.06396217 0 0 0 180 172 161 255 
1.742331 -0.3158844 -0.04437882 0 0 0 155 148 140 255 
2.000441 -1.313511 0.02325529 0 0 0 180 172 161 255 
1.993116 0.7716392 0.1498574 0 0 0 216 212 203 255 
1.997489 1.037435 0.1652316 0 0 0 138 134 122 255 
2.122247 0.09101731 0.2171265 0 0 0 190 183 173 255 
1.978115 1.414421 0.111709 0 0 0 138 131 123 255 
2.158229 -1.352957 -0.05287415 0 0 0 143 137 124 255 
2.159587 -1.350968 -0.04879529 0 0 0 143 137 124 255 
2.077631 0.9377091 0.1383063 0 0 0 204 197 189 255 
2.015906 0.6357127 0.107365 0 0 0 145 132 115 255 
2.152188 0.7703176 0.0907201 0 0 0 131 123 112 255 
2.265099 -0.5180075 -0.009028019 0 0 0 115 109 97 255 
2.323534 -0.709276 -0.09429484 0 0 0 94 87 79 255 
2.33593 -0.7292564 -0.09766989 0 0 0 120 115 109 255 
2.371874 -0.620525 -0.07064039 0 0 0 128 121 111 255 
2.414741 -0.3655867 0.04371638 0 0 0 195 189 181 255 
2.382987 0.6543184 0.07722776 0 0 0 199 192 182 255 
2.476447 -0.5019234 -0.01143676 0 0 0 126 116 106 255 
2.530599 -0.2018468 0.1290382 0 0 0 131 123 110 255 
2.552625 0.04194368 0.2136335 0 0 0 183 175 162 255 
2.601017 -0.2547796 0.1064581 0 0 0 130 122 111 255 
2.691958 -0.03916073 0.1963576 0 0 0 143 131 117 255 
2.691857 0.4749647 0.1519777 0 0 0 197 196 190 255 
2.814567 0.7476047 0.2118656 0 0 0 173 165 154 255 
2.845583 0.9567674 0.2283351 0 0 0 162 152 143 255 
2.982476 0.3247872 0.2716541 0 0 0 177 170 162 255 
3.173756 0.6664508 0.2453942 0 0 0 128 124 113 255 
3.188375 0.7715267 0.2009324 0 0 0 129 126 114 255 
3.105648 1.697524 0.06795734 0 0 0 102 95 85 255 
3.255922 0.3530203 0.1903972 0 0 0 188 185 176 255 
3.358894 -0.4144065 0.1745571 0 0 0 171 162 153 255 
3.421841 -0.1300183 0.24229 0 0 0 115 109 97 255 
1.051704 2.4026 0.04989261 0 0 0 143 131 115 255 
3.167125 0.5973127 0.2814395 0 0 0 176 168 151 255 
0.4641567 2.070255 0.05412478 0 0 0 150 139 125 255 
0.8310815 0.760276 -0.004016221 0 0 0 185 175 160 255 
1.197043 2.013597 0.03789467 0 0 0 153 143 133 255 
0.4051163 2.514892 -0.008679926 0 0 0 152 144 131 255 
0.2604601 0.02528711 1.427138 0 0 0 168 179 173 255 
3.406438 0.1297787 0.1745001 0 0 0 191 192 186 255 
3.115472 -0.7507378 0.027816 0 0 0 140 132 121 255 
1.095273 2.310078 0.06285257 0 0 0 143 136 128 255 
2.514769 0.9598098 0.155337 0 0 0 179 175 164 255 
3.186913 -1.043767 -0.0008955598 0 0 0 92 85 77 255 
1.754082 2.162068 0.1124415 0 0 0 190 183 177 255 
-1.844977 0.5345476 -0.0002773404 0 0 0 215 206 197 255 
3.916517 2.067885 0.1101183 0 0 0 149 147 142 255 
2.403637 -0.422401 0.01856321 0 0 0 153 148 137 255 
-0.3536328 0.7958243 -0.1685689 0 0 0 180 172 158 255 
3.859933 2.004524 -0.01773769 0 0 0 165 156 144 255 
2.918693 -0.793619 -0.04614598 0 0 0 109 101 90 255 
2.304574 -0.8296489 -0.07358676 0 0 0 165 158 148 255 
2.549083 0.8919395 0.1425311 0 0 0 208 202 190 255 
3.7067 1.63726 0.06374568 0 0 0 106 96 86 255 
3.765172 1.703581 0.07279605 0 0 0 119 111 98 255 
-0.07249473 -2.36436 0.09315459 0 0 0 0 0 0 255 
0.2136082 0.09861843 -0.2274564 0 0 0 172 201 211 255 
4.213853 1.519479 -0.06681186 0 0 0 157 151 139 255 
3.869402 2.170835 0.02544875 0 0 0 123 119 110 255 
3.640735 1.708098 -0.06938297 0 0 0 155 146 136 255 
3.069988 1.181092 0.1625685 0 0 0 166 165 160 255 
1.180033 -2.07742 0.001835288 0 0 0 0 0 0 255 
1.621722 2.404378 0.03921837 0 0 0 152 140 131 255 
-0.5815457 0.2921003 -0.2075442 0 0 0 171 155 142 255 
0.2446921 -0.0658981 0.3131864 0 0 0 177 196 202 255 
2.483121 -1.643982 -0.1099275 0 0 0 0 0 0 255 
3.356562 0.05122435 0.252275 0 0 0 190 185 181 255 
0.1041566 -1.727046 0.04842586 0 0 0 146 129 111 255 
4.314356 1.616509 -0.04215652 0 0 0 90 85 79 255 
4.322868 1.40072 -0.04213435 0 0 0 117 114 107 255 
4.299677 1.671651 -0.1341246 0 0 0 154 147 138 255 
4.280717 1.112356 -0.244232 0 0 0 125 116 107 255 
2.099988 0.544884 0.08970182 0 0 0 199 199 191 255 
1.60025 0.2099772 0.08263748 0 0 0 200 195 191 255 
0.8153163 0.7409597 0.001532258 0 0 0 160 151 142 255 
0.2131728 -0.12887 -0.07427245 0 0 0 113 127 130 255 
0.2160177 -0.1286008 -0.07047445 0 0 0 113 127 130 255 
-0.3074384 0.769472 -0.1614497 0 0 0 0 0 0 255 
4.173429 1.121472 0.06777257 0 0 0 152 145 136 255 
1.198859 1.723381 -0.01086265 0 0 0 196 188 175 255 
2.421946 -1.777863 -0.1240066 0 0 0 144 134 122 255 
3.012475 0.6752381 0.2548933 0 0 0 187 179 168 255 
2.929834 -0.7649007 -0.03840072 0 0 0 124 115 106 255 
0.3836633 2.046191 0.08944814 0 0 0 160 148 138 255 
-0.4084055 -0.8819143 -0.09054643 0 0 0 183 173 163 255 
2.868281 -0.6990278 0.01117891 0 0 0 165 162 155 255 
4.300144 1.586962 -0.01011115 0 0 0 107 103 94 255 
4.226702 2.169245 -0.2397164 0 0 0 169 163 151 255 
4.150456 0.9416121 -0.09739666 0 0 0 117 107 97 255 
4.197448 0.9556445 -0.1579221 0 0 0 180 170 160 255 
4.188955 1.144073 -0.1946848 0 0 0 145 142 133 255 
4.130814 2.261891 -0.2328647 0 0 0 131 121 111 255 
4.310615 1.301002 -0.2096151 0 0 0 120 116 104 255 
-2.405223 -2.979704 0.01080102 0 0 0 151 142 133 255 
3.173353 1.760249 0.04069085 0 0 0 158 149 140 255 
0.2288422 0.1196374 0.03430743 0 0 0 181 194 187 255 
0.2596529 0.007427488 1.130469 0 0 0 170 99 142 255 
3.219769 0.7017342 0.2012889 0 0 0 126 117 110 255 
3.098134 2.067713 -0.04185469 0 0 0 98 89 80 255 
4.075519 1.288492 0.02694625 0 0 0 175 166 157 255 
3.497904 0.05764426 0.2468364 0 0 0 187 186 180 255 
3.98736 1.856306 -0.1084192 0 0 0 111 102 93 255 
-0.8478725 -2.188071 -0.05433351 0 0 0 188 171 145 255 
-1.048312 -0.5612133 -0.006442368 0 0 0 180 170 161 255 
0.8862796 0.5988166 -0.005197585 0 0 0 168 160 152 255 
2.087353 0.7756106 0.1173378 0 0 0 141 133 122 255 
2.165386 -0.7976014 -0.06770092 0 0 0 126 118 105 255 
2.440892 -1.229275 -0.1552799 0 0 0 83 82 77 255 
3.438075 0.1286842 0.1536354 0 0 0 132 127 117 255 
-1.548647 0.5549291 -0.02654249 0 0 0 171 161 149 255 
-1.490643 0.5690536 -0.05485827 0 0 0 199 190 181 255 
0.2528459 -0.0533949 1.165394 0 0 0 135 141 133 255 
0.2596843 -0.01671886 1.13369 0 0 0 175 106 150 255 
-0.9385434 -0.7403927 -0.02514226 0 0 0 157 149 138 255 
1.293329 -1.441964 -0.1688589 0 0 0 178 174 165 255 
-0.07715677 0.2520861 0.09287255 0 0 0 192 210 213 255 
3.764743 1.670791 -0.1934723 0 0 0 103 94 85 255 
3.21228 2.00162 -0.004741728 0 0 0 140 131 122 255 
3.264445 0.2273574 0.1696674 0 0 0 137 127 117 255 
3.288236 -0.2359565 0.1523887 0 0 0 149 141 130 255 
3.033515 1.124899 0.1648146 0 0 0 166 163 152 255 
3.103521 0.3125569 0.2874446 0 0 0 186 182 173 255 
1.282161 2.037712 0.03886003 0 0 0 200 191 182 255 
-1.83437 1.442608 0.01774973 0 0 0 197 188 179 255 
0.2646177 0.05807219 1.261478 0 0 0 47 43 44 255 
-1.507084 2.797771 0.06522006 0 0 0 163 154 145 255 
-1.483553 2.706392 -0.06856662 0 0 0 0 0 0 255 
0.2565052 0.006835443 0.8929584 0 0 0 187 107 160 255 
2.330369 1.392755 0.0351078 0 0 0 181 175 163 255 
3.2508 0.4975067 0.2358806 0 0 0 165 161 151 255 
3.725001 1.521316 -0.05589992 0 0 0 97 90 80 255 
4.20195 1.574165 0.02004451 0 0 0 152 145 135 255 
4.246707 1.189498 -0.0841158 0 0 0 99 93 81 255 
4.213476 1.84366 -0.1826766 0 0 0 185 179 167 255 
4.319796 0.9889989 -0.1399329 0 0 0 167 160 150 255 
4.367857 1.266245 -0.2631086 0 0 0 168 161 151 255 
4.365105 0.9453384 -0.1140645 0 0 0 181 175 163 255 
4.248119 1.583264 -0.08841735 0 0 0 174 169 162 255 
4.256553 1.465331 -0.007456601 0 0 0 101 97 86 255 
4.246707 1.189498 -0.0841158 0 0 0 99 93 81 255 
4.021493 1.986729 -0.06836611 0 0 0 128 120 109 255 
4.010801 1.936963 -0.2396535 0 0 0 117 108 99 255 
3.934023 2.299958 -0.2159117 0 0 0 153 149 140 255 
3.921525 1.874255 0.01769704 0 0 0 127 117 108 255 
3.901716 2.038113 -0.1857656 0 0 0 81 73 62 255 
3.721382 1.460849 -0.04833729 0 0 0 109 103 91 255 
4.149344 1.100441 -0.1069239 0 0 0 106 98 87 255 
1.29108 -1.29279 -0.1510676 0 0 0 192 185 179 255 
3.823034 1.662042 0.02511901 0 0 0 155 148 136 255 
2.297242 -0.5424065 -0.02246219 0 0 0 165 157 144 255 
3.133985 1.718432 0.01984448 0 0 0 115 106 97 255 
1.944467 0.7039265 0.169556 0 0 0 157 147 135 255 
2.123656 -1.237529 -0.02806431 0 0 0 129 120 105 255 
1.921047 1.686574 0.1334266 0 0 0 121 109 97 255 
1.939167 1.454226 0.1127647 0 0 0 172 165 155 255 
2.284266 -1.186013 -0.07333356 0 0 0 154 147 131 255 
2.164984 0.6008272 0.0602252 0 0 0 188 179 170 255 
2.433195 -0.1841445 0.1305272 0 0 0 138 130 117 255 
2.83233 -0.9779988 -0.1315067 0 0 0 138 130 119 255 
2.941102 -0.2851391 0.1361882 0 0 0 180 172 161 255 
2.814132 1.225993 0.1870121 0 0 0 188 180 169 255 
2.784095 1.814263 0.02846212 0 0 0 181 173 162 255 
3.048141 0.05359029 0.2359547 0 0 0 131 123 112 255 
3.065274 -0.08314984 0.1773886 0 0 0 190 181 172 255 
3.230095 0.4584829 0.208317 0 0 0 122 118 109 255 
3.098453 1.740255 0.02958936 0 0 0 136 129 121 255 
3.274623 0.5263874 0.1904682 0 0 0 127 120 112 255 
3.125566 1.706358 -0.02880198 0 0 0 115 106 97 255 
3.238117 1.002273 0.09077112 0 0 0 169 164 158 255 
3.154934 1.993831 0.01057691 0 0 0 134 125 116 255 
3.464538 -0.06376329 0.2753396 0 0 0 173 170 163 255 
3.575081 -1.50182 -0.1092022 0 0 0 131 124 116 255 
3.845377 1.705798 -0.1533135 0 0 0 157 148 139 255 
3.903198 1.343848 -0.03657968 0 0 0 193 185 174 255 
3.874906 1.715865 -0.08010131 0 0 0 120 111 102 255 
3.970824 1.942778 -0.02708227 0 0 0 175 167 157 255 
4.168004 1.046583 -0.1388324 0 0 0 93 85 74 255 
4.186696 1.016953 -0.2204865 0 0 0 183 179 170 255 
4.110034 2.03463 -0.2425526 0 0 0 140 134 121 255 
4.141273 1.87635 -0.04010136 0 0 0 181 175 163 255 
4.199051 1.275205 -0.0182057 0 0 0 92 86 74 255 
4.240404 0.9739804 -0.1947354 0 0 0 115 103 91 255 
4.159599 2.160114 -0.2447876 0 0 0 131 123 112 255 
4.342867 1.138465 -0.1382969 0 0 0 101 92 83 255 
4.399911 0.5882724 -0.1555222 0 0 0 169 161 149 255 
4.300095 1.989257 -0.2015809 0 0 0 134 125 108 255 
2.095626 1.714351 0.04394407 0 0 0 129 120 111 255 
-2.027808 0.7157024 0.007690134 0 0 0 188 179 170 255 
4.001695 1.749079 0.02734536 0 0 0 193 184 177 255 
2.081048 0.7378197 0.1144117 0 0 0 127 119 104 255 
1.087383 2.411508 0.03972024 0 0 0 143 136 130 255 
4.246739 1.244334 0.06936973 0 0 0 142 138 127 255 
-1.083791 -0.5631728 0.03308577 0 0 0 200 190 180 255 
0.05431436 -2.410174 -0.006170571 0 0 0 144 137 121 255 
-0.3833028 0.6562921 -0.2182687 0 0 0 174 164 155 255 
0.2628709 -1.016453 -0.1447743 0 0 0 166 158 147 255 
0.2550904 -0.01676094 -0.1681546 0 0 0 170 93 139 255 
0.2562044 -0.02199489 -0.2446602 0 0 0 144 102 121 255 
0.732337 0.2910981 -0.09136277 0 0 0 168 162 150 255 
0.8517022 0.835505 -0.01185471 0 0 0 153 144 135 255 
0.9886235 0.4625244 0.02938551 0 0 0 181 174 165 255 
0.9277722 1.534508 0.01002521 0 0 0 212 205 197 255 
0.7225631 -0.3195515 -0.1975378 0 0 0 195 188 178 255 
0.282554 0.05800722 1.263072 0 0 0 102 92 93 255 
-0.8748461 -1.539911 0.06313366 0 0 0 148 140 127 255 
0.2596869 -0.003714476 0.9819274 0 0 0 191 112 167 255 
0.9899358 0.4621156 0.03136367 0 0 0 181 174 165 255 
2.33367 -0.07712702 0.1829311 0 0 0 211 208 203 255 
2.105264 1.678884 0.03841061 0 0 0 131 121 109 255 
2.396732 -1.357316 -0.1695174 0 0 0 110 110 102 255 
2.313093 2.07277 -0.0509258 0 0 0 169 160 151 255 
2.68399 0.07773347 0.2639942 0 0 0 151 141 131 255 
2.768353 -0.1519054 0.1811673 0 0 0 196 189 182 255 
2.888335 -0.04447057 0.2101685 0 0 0 153 143 131 255 
2.999249 1.147452 0.1772491 0 0 0 147 138 129 255 
3.064725 0.7770673 0.2700582 0 0 0 159 152 142 255 
3.174904 1.77156 -0.008088171 0 0 0 115 105 96 255 
1.628732 -0.06383981 0.05042142 0 0 0 149 142 132 255 
3.653131 0.6980395 0.2039279 0 0 0 194 186 173 255 
3.595064 1.637469 0.01428098 0 0 0 122 112 102 255 
3.80251 1.393884 0.0002991557 0 0 0 168 160 149 255 
3.804411 1.48958 -0.02141673 0 0 0 163 155 144 255 
3.925931 1.148898 0.01127118 0 0 0 191 183 172 255 
4.217954 1.132806 -0.1858142 0 0 0 139 136 128 255 
4.238532 0.9718834 -0.1886514 0 0 0 115 103 91 255 
4.238544 0.9742781 -0.2043871 0 0 0 115 103 91 255 
4.274997 1.422314 -0.1553481 0 0 0 161 158 149 255 
-0.8961307 -0.8873135 -0.02411944 0 0 0 99 91 84 255 
-0.9680125 -0.8363798 0.01312489 0 0 0 106 100 95 255 
-1.05572 -0.5606787 0.017806 0 0 0 166 158 147 255 
0.6113515 -1.157545 -0.03918917 0 0 0 94 89 85 255 
0.2594311 -0.01077368 0.810889 0 0 0 180 113 155 255 
1.016938 0.5756227 -0.01092535 0 0 0 116 115 112 255 
0.7854463 2.182134 0.0866081 0 0 0 162 152 142 255 
0.8206058 0.701854 -0.0001571774 0 0 0 120 112 100 255 
2.061888 0.2339713 0.2317512 0 0 0 102 98 91 255 
0.2234984 -0.07555676 0.3839619 0 0 0 165 184 182 255 
0.8801398 1.011946 0.005782785 0 0 0 132 123 112 255 
0.2301776 2.479793 0.08109372 0 0 0 155 151 142 255 
4.316231 1.659435 -0.02498538 0 0 0 157 151 139 255 
3.069558 1.996559 0.02587265 0 0 0 106 99 91 255 
1.131111 2.683848 0.0179345 0 0 0 135 125 114 255 
0.2239997 0.001272552 1.846995 0 0 0 0 0 0 255 
0.03438744 0.2674671 0.5168631 0 0 0 232 164 215 255 
1.102128 1.766162 0.02739305 0 0 0 196 190 180 255 
-0.2537689 0.0544392 1.783957 0 0 0 202 190 169 255 
1.504219 -1.647919 -0.1371868 0 0 0 167 161 154 255 
2.562512 1.291599 0.09887902 0 0 0 194 185 176 255 
-0.1097644 2.374521 0.03512783 0 0 0 201 192 185 255 
3.324891 0.5654327 0.2090856 0 0 0 175 166 161 255 
2.042927 2.035696 -0.1457027 0 0 0 135 131 121 255 
3.967336 0.5592228 0.1270024 0 0 0 161 158 149 255 
2.139781 0.7806783 0.1000966 0 0 0 138 130 119 255 
0.5701916 1.537585 -0.0442403 0 0 0 191 184 178 255 
0.4797374 1.466195 -0.09857207 0 0 0 195 188 180 255 
3.936856 0.4873188 0.1172759 0 0 0 135 131 122 255 
0.5731841 2.654999 0.05684514 0 0 0 177 169 158 255 
0.2471577 2.460635 0.08660714 0 0 0 0 0 0 255 
3.857999 0.2497691 0.2346353 0 0 0 127 120 110 255 
1.997494 1.027024 0.1797789 0 0 0 160 156 144 255 
-0.3768795 -0.9254401 -0.09443503 0 0 0 146 134 122 255 
3.089046 0.4058988 0.2933605 0 0 0 160 151 142 255 
-0.3768795 -0.9254401 -0.09443503 0 0 0 146 134 122 255 
-0.4565378 1.54669 -0.009929242 0 0 0 191 184 174 255 
1.614715 2.353836 -0.05184275 0 0 0 172 163 154 255 
3.188476 0.5197142 0.2700853 0 0 0 119 111 98 255 
3.726401 0.09922799 0.2830217 0 0 0 129 120 111 255 
3.747102 0.06401799 0.2764986 0 0 0 182 175 167 255 
4.185992 -0.09509774 -0.04782993 0 0 0 138 132 120 255 
0.2261386 0.1240407 1.397175 0 0 0 123 120 111 255 
-2.621848 0.3919432 -0.03473455 0 0 0 0 0 0 255 
-0.09107754 0.2832039 0.1425129 0 0 0 153 141 128 255 
3.137668 0.3258001 0.283561 0 0 0 192 188 179 255 
3.072698 0.6635136 0.2546299 0 0 0 163 153 141 255 
3.093169 0.2137354 0.2619019 0 0 0 129 122 112 255 
2.056471 1.761111 -0.03288943 0 0 0 177 168 159 255 
4.054403 -0.5581569 0.07944029 0 0 0 138 129 120 255 
4.043886 0.7080752 0.01415891 0 0 0 120 112 100 255 
-1.52566 2.073176 -0.03197867 0 0 0 0 0 0 255 
2.973202 1.699039 0.02815122 0 0 0 155 149 137 255 
3.878859 0.3863408 0.212289 0 0 0 178 175 166 255 
4.05003 0.2049901 0.01237101 0 0 0 120 113 103 255 
3.524791 1.226251 0.125954 0 0 0 138 129 120 255 
3.988762 2.139732 -0.08432704 0 0 0 130 122 111 255 
4.240666 -0.2209431 -0.1031144 0 0 0 162 158 146 255 
3.949694 0.4171855 0.1326772 0 0 0 164 161 156 255 
2.977656 1.621958 0.1055774 0 0 0 169 161 150 255 
-0.08861033 0.2764955 0.403497 0 0 0 152 142 137 255 
4.167286 -0.241877 -0.02064234 0 0 0 171 168 163 255 
4.167286 -0.241877 -0.02064234 0 0 0 171 168 163 255 
2.014745 2.16602 -0.003988802 0 0 0 137 133 124 255 
2.70332 2.353813 0.02591914 0 0 0 129 122 114 255 
2.92644 1.633433 0.06969017 0 0 0 142 134 123 255 
3.388335 0.4720972 0.2133378 0 0 0 140 128 116 255 
3.64486 0.4353427 0.2084092 0 0 0 160 151 142 255 
3.846825 0.01798692 0.229192 0 0 0 180 177 170 255 
3.87252 2.198149 -0.01058203 0 0 0 106 102 91 255 
4.192333 -0.2589241 -0.05332428 0 0 0 144 141 134 255 
4.047356 0.3868624 0.02856917 0 0 0 178 175 168 255 
2.215649 0.4716635 0.08969371 0 0 0 0 0 0 255 
0.2883601 0.0289942 1.201799 0 0 0 167 99 138 255 
0.1831107 0.1460683 1.71726 0 0 0 0 0 0 255 
3.175637 0.540579 0.2792645 0 0 0 161 152 142 255 
0.9950463 2.6382 0.1366917 0 0 0 149 136 127 255 
-1.31048 1.792315 -0.01314169 0 0 0 175 165 155 255 
3.614878 1.161994 0.07775133 0 0 0 104 100 89 255 
3.637357 1.083484 0.1087457 0 0 0 162 155 147 255 
3.617676 1.332681 0.04616732 0 0 0 141 134 124 255 
3.704969 1.724919 -0.05815989 0 0 0 139 129 117 255 
3.943074 -0.0776624 0.1999713 0 0 0 163 163 153 255 
3.953954 0.3609239 0.1476346 0 0 0 129 124 118 255 
4.030989 0.08325648 0.08013337 0 0 0 108 103 97 255 
4.147063 -0.007843718 -0.007511199 0 0 0 198 195 186 255 
1.251975 -1.212669 -0.1462467 0 0 0 164 157 149 255 
4.281761 -0.2432477 -0.1240213 0 0 0 117 109 96 255 
4.278269 -0.2073217 0.01617593 0 0 0 153 145 134 255 
0.9499258 0.850012 -0.02051527 0 0 0 151 145 134 255 
3.879316 0.8632005 0.1171113 0 0 0 158 151 145 255 
2.948395 0.2692403 0.2559769 0 0 0 182 173 164 255 
2.983881 0.9170189 0.2394058 0 0 0 148 141 125 255 
3.252332 -0.1576812 0.2216477 0 0 0 171 165 153 255 
3.052325 1.493196 0.09000246 0 0 0 114 107 99 255 
3.15113 1.837753 -0.01062042 0 0 0 129 119 109 255 
3.560656 0.1245666 0.2407327 0 0 0 188 182 171 255 
3.549828 0.4538459 0.2264902 0 0 0 174 165 156 255 
3.630289 0.4623831 0.2426839 0 0 0 155 147 134 255 
4.107921 1.715212 -0.1847213 0 0 0 151 143 132 255 
4.147222 -0.008292899 -0.01471597 0 0 0 198 195 186 255 
4.035629 0.8320152 0.04466862 0 0 0 100 91 82 255 
4.030989 0.08325648 0.08013337 0 0 0 108 103 97 255 
3.988876 0.4001481 0.0897495 0 0 0 143 140 133 255 
3.966562 0.02238075 0.1630329 0 0 0 190 190 182 255 
3.617676 1.332681 0.04616732 0 0 0 141 134 124 255 
3.801239 -0.004323278 0.2239418 0 0 0 184 184 176 255 
3.150304 1.593265 0.0444066 0 0 0 157 145 133 255 
3.214693 0.5004039 0.2266264 0 0 0 130 126 114 255 
3.21568 0.5008708 0.2355046 0 0 0 130 126 114 255 
2.258424 -1.190374 -0.08364373 0 0 0 103 95 82 255 
2.733442 0.3715924 0.2074928 0 0 0 201 198 191 255 
2.870106 0.3211991 0.2291336 0 0 0 176 169 159 255 
2.909597 0.6231282 0.2267956 0 0 0 171 161 149 255 
3.019409 0.908503 0.2544415 0 0 0 177 169 158 255 
3.176884 0.6181692 0.2722962 0 0 0 133 126 116 255 
3.13171 0.9706557 0.1615414 0 0 0 167 160 150 255 
3.130121 0.9846732 0.1554915 0 0 0 134 126 116 255 
0.0463476 0.2529466 0.8229251 0 0 0 187 212 219 255 
4.181946 0.09760273 -0.04141933 0 0 0 134 124 112 255 
-2.926928 -3.230579 -0.1009834 0 0 0 120 111 104 255 
0.2333632 0.1559836 1.946846 0 0 0 0 0 0 255 
0.2500385 -0.06405643 1.483382 0 0 0 182 203 208 255 
0.07071047 0.2725488 1.382249 0 0 0 143 135 142 255 
4.057376 0.1258634 0.03564162 0 0 0 165 162 155 255 
4.057638 0.09292535 0.06473226 0 0 0 108 104 95 255 
3.962908 0.6514958 0.06213874 0 0 0 169 167 158 255 
3.982458 0.08399652 0.1311082 0 0 0 132 128 117 255 
3.985979 0.05985171 0.1475164 0 0 0 169 166 159 255 
3.978166 0.09593496 0.1558956 0 0 0 172 172 164 255 
3.962114 0.2063724 0.1283082 0 0 0 158 155 148 255 
3.943729 0.2013042 0.1544794 0 0 0 167 162 156 255 
3.925987 0.3394873 0.1693922 0 0 0 163 158 152 255 
3.880902 0.6849117 0.1299361 0 0 0 171 168 159 255 
3.924188 0.2697315 0.1683787 0 0 0 163 159 150 255 
3.954288 -0.07224292 0.1902031 0 0 0 129 129 121 255 
3.932747 0.006932236 0.2106218 0 0 0 101 97 88 255 
3.83598 0.2474089 0.202614 0 0 0 164 157 149 255 
3.662064 0.519914 0.2505319 0 0 0 159 149 137 255 
-0.9631232 -1.168511 0.1338982 0 0 0 204 195 186 255 
4.249665 0.01728792 -0.08835059 0 0 0 136 126 115 255 
4.122717 1.142268 -0.03518564 0 0 0 127 119 106 255 
-0.4989182 0.3163251 -0.285857 0 0 0 172 162 153 255 
0.1573914 -0.2224617 -0.01449853 0 0 0 181 190 185 255 
0.165969 2.697937 0.06073613 0 0 0 156 147 138 255 
0.563662 0.9779078 -0.08022147 0 0 0 203 196 190 255 
0.4721524 2.308305 0.0725252 0 0 0 202 195 189 255 
4.308017 -0.2374857 0.0077073 0 0 0 173 167 155 255 
4.223197 -0.2409136 0.1882926 0 0 0 130 129 124 255 
4.067914 0.9126836 -0.03188307 0 0 0 140 134 122 255 
4.046594 0.5501367 -0.003561795 0 0 0 167 163 155 255 
3.985472 0.7306087 0.04890794 0 0 0 165 159 145 255 
4.011722 0.3233046 0.0714156 0 0 0 112 107 101 255 
4.042838 0.0366082 0.1252333 0 0 0 147 144 137 255 
3.985719 0.2086723 0.1189021 0 0 0 114 109 103 255 
3.978166 0.09593496 0.1558956 0 0 0 172 172 164 255 
3.976223 -0.05786761 0.1572076 0 0 0 172 172 164 255 
3.880421 0.6855034 0.1234738 0 0 0 171 168 159 255 
3.840144 0.2476951 0.2554009 0 0 0 164 157 149 255 
3.549412 0.7374719 0.1820339 0 0 0 149 140 131 255 
1.269196 1.729989 -0.03045518 0 0 0 187 181 169 255 
0.2568825 0.007054171 0.6577597 0 0 0 185 105 156 255 
0.2594521 0.03473287 0.9544067 0 0 0 181 109 160 255 
-2.161752 0.3082241 0.02280278 0 0 0 184 174 164 255 
3.562121 0.1941297 0.2018737 0 0 0 163 153 141 255 
3.265021 1.388544 0.04802341 0 0 0 154 146 135 255 
3.042744 0.9201344 0.2181599 0 0 0 164 156 143 255 
3.91135 0.2041769 0.1879956 0 0 0 156 156 146 255 
2.552714 1.510993 0.05417699 0 0 0 196 189 179 255 
3.09833 0.471978 0.2374918 0 0 0 179 170 161 255 
3.876559 0.1090542 0.2130117 0 0 0 190 187 180 255 
3.125443 1.796149 0.05633754 0 0 0 127 118 111 255 
1.835782 2.26128 0.03217859 0 0 0 169 166 159 255 
2.179565 1.096448 0.08619635 0 0 0 166 159 149 255 
2.21575 1.542352 -0.05317789 0 0 0 167 160 150 255 
2.180444 2.069179 -0.07398826 0 0 0 188 179 172 255 
2.680881 -0.979497 -0.07422811 0 0 0 112 102 90 255 
2.516709 0.8704261 0.1455707 0 0 0 164 155 146 255 
2.645538 0.331145 0.2039584 0 0 0 173 169 160 255 
2.51419 1.777773 -0.01887352 0 0 0 170 163 153 255 
2.913347 -0.3925453 0.09328286 0 0 0 148 142 130 255 
2.590076 2.477989 0.07458061 0 0 0 145 138 128 255 
3.049412 0.2936986 0.2878277 0 0 0 169 165 156 255 
2.859624 1.856557 0.097917 0 0 0 171 163 152 255 
3.123219 0.4991496 0.2694211 0 0 0 197 190 182 255 
3.17183 0.2815572 0.2763467 0 0 0 163 160 153 255 
3.173242 0.3846794 0.2486577 0 0 0 142 140 125 255 
3.170935 0.5809847 0.2735693 0 0 0 173 166 155 255 
3.204374 0.2326628 0.2031426 0 0 0 91 79 69 255 
3.183309 0.5334578 0.2685637 0 0 0 105 98 80 255 
3.123198 0.9342898 0.1892783 0 0 0 111 105 94 255 
3.173443 0.7915874 0.2321362 0 0 0 180 177 170 255 
3.283676 0.7637703 0.1443361 0 0 0 125 118 108 255 
3.363621 0.5085369 0.1890308 0 0 0 190 183 173 255 
3.285932 1.018062 0.1028837 0 0 0 113 106 90 255 
1.905494 1.432341 0.1487342 0 0 0 133 126 118 255 
3.299154 1.2937 0.07413572 0 0 0 150 140 128 255 
3.293925 1.272075 -0.007367194 0 0 0 179 169 159 255 
3.16484 2.114152 -0.09639149 0 0 0 117 109 98 255 
3.448 0.4822014 0.2210881 0 0 0 196 189 179 255 
3.484025 0.4699449 0.2739854 0 0 0 125 116 107 255 
3.476853 0.5312332 0.2271418 0 0 0 138 132 120 255 
3.540278 0.3020943 0.1600877 0 0 0 202 194 181 255 
3.620799 0.03084014 0.137119 0 0 0 153 146 136 255 
3.667413 0.03334364 0.2562172 0 0 0 188 186 180 255 
3.652611 0.587219 0.2367091 0 0 0 185 176 167 255 
3.730768 0.02160725 0.2804492 0 0 0 200 197 190 255 
3.547949 1.380024 0.05877513 0 0 0 107 98 89 255 
3.738741 0.1406237 0.2709987 0 0 0 131 123 112 255 
3.670294 1.108736 0.05622143 0 0 0 115 111 102 255 
3.825298 0.2000392 0.2086663 0 0 0 199 194 188 255 
3.860269 0.07129002 0.2519858 0 0 0 96 88 77 255 
3.753957 1.152946 -0.004332364 0 0 0 162 156 142 255 
3.851011 0.4899539 0.1771172 0 0 0 110 103 95 255 
3.729048 1.552317 -0.06643301 0 0 0 141 135 123 255 
3.942764 0.02047199 0.186706 0 0 0 98 95 88 255 
3.805145 1.085626 0.04137439 0 0 0 180 172 161 255 
3.944182 0.01038995 0.1897098 0 0 0 185 182 173 255 
3.88587 0.7117829 0.1291806 0 0 0 114 105 95 255 
3.838856 1.068103 0.01732749 0 0 0 187 184 175 255 
3.966414 0.07407697 0.1530234 0 0 0 64 59 54 255 
3.952792 0.3096302 0.1408962 0 0 0 177 177 169 255 
3.94048 0.4353892 0.1044296 0 0 0 118 115 108 255 
3.991322 0.08924516 0.1067657 0 0 0 189 188 184 255 
3.98248 0.2430753 0.1107334 0 0 0 78 75 68 255 
3.966727 0.3799875 0.07890218 0 0 0 109 105 96 255 
4.028751 -0.07091308 0.1291562 0 0 0 170 169 164 255 
4.038306 -0.06876557 0.1198718 0 0 0 119 118 113 255 
4.01856 0.1576081 0.08243554 0 0 0 107 103 92 255 
3.982766 0.7030817 0.02601237 0 0 0 169 166 157 255 
4.046678 0.2484469 0.04138083 0 0 0 95 85 75 255 
4.103012 -0.04670812 -0.02129871 0 0 0 137 133 127 255 
4.13636 -0.2009806 -0.007264197 0 0 0 183 178 172 255 
4.05185 0.5287986 -0.0125764 0 0 0 109 101 90 255 
4.072059 0.4242983 0.03205819 0 0 0 134 126 115 255 
4.075375 0.5400203 0.003963174 0 0 0 133 125 114 255 
4.050022 0.790427 -0.03590948 0 0 0 114 110 99 255 
4.153583 -0.03775778 -0.02027423 0 0 0 180 176 167 255 
4.08569 0.5710673 0.03263444 0 0 0 154 148 136 255 
4.064619 0.8330965 -0.0339864 0 0 0 170 164 152 255 
4.201411 -0.2528081 -0.05489022 0 0 0 180 177 172 255 
4.084075 0.7664482 -0.06588584 0 0 0 178 170 157 255 
4.055107 1.060936 -0.02828461 0 0 0 131 121 109 255 
3.991492 1.608083 -0.1271456 0 0 0 181 175 163 255 
3.917014 2.22443 -0.06643397 0 0 0 116 112 101 255 
4.214487 -0.22365 0.1986856 0 0 0 131 130 125 255 
4.242486 -0.2274461 -0.1069754 0 0 0 180 176 164 255 
3.963928 2.154886 -0.05250484 0 0 0 177 171 157 255 
4.21305 0.1567718 -0.06801039 0 0 0 179 169 159 255 
4.264989 -0.2357802 -0.08569938 0 0 0 114 106 95 255 
4.021621 1.918658 -0.06223828 0 0 0 167 162 150 255 
4.199674 0.9420019 -0.1365746 0 0 0 116 109 90 255 
4.306236 0.246665 -0.1174496 0 0 0 146 134 120 255 
1.925115 0.9480565 0.1996295 0 0 0 176 169 159 255 
1.921669 0.4932359 0.192402 0 0 0 195 186 177 255 
2.078489 -1.303368 -0.004693091 0 0 0 118 110 97 255 
2.077455 -1.350767 -0.00177151 0 0 0 121 113 100 255 
1.584097 1.87376 0.0440411 0 0 0 202 193 184 255 
2.071274 -1.335055 0.0194127 0 0 0 107 99 86 255 
1.948939 -1.087046 -0.01201159 0 0 0 160 151 142 255 
1.001548 1.353083 -0.08594638 0 0 0 166 159 151 255 
1.075406 -1.358362 -0.1124785 0 0 0 168 162 148 255 
0.525243 -0.137086 -0.2610978 0 0 0 156 148 137 255 
0.009703481 1.063049 -0.089773 0 0 0 185 176 167 255 
0.221715 -0.1017701 0.1895076 0 0 0 179 189 181 255 
0.07410166 -1.179245 -0.04966528 0 0 0 127 115 99 255 
-0.3405896 1.567883 0.1259819 0 0 0 191 183 172 255 
0.07937412 -1.39695 -0.02768594 0 0 0 153 141 129 255 
0.2596612 -0.01887248 0.4854167 0 0 0 185 112 158 255 
0.2626714 -0.01867864 0.722986 0 0 0 180 106 155 255 
-0.5828202 -1.332052 0.03554172 0 0 0 181 173 162 255 
0.2486758 -0.0580795 1.186727 0 0 0 141 146 141 255 
-1.291708 -1.533931 0.06808442 0 0 0 186 179 169 255 
-1.334363 -1.501771 0.08406394 0 0 0 156 144 132 255 
-1.369138 -2.358615 -0.001018345 0 0 0 132 120 104 255 
-2.199516 -2.418235 -0.01256114 0 0 0 161 152 137 255 
-2.974448 0.3903848 0.01180619 0 0 0 214 204 192 255 
0.1634772 -0.1136945 1.312575 0 0 0 98 106 102 255 
1.379788 0.4682726 0.0642435 0 0 0 169 162 152 255 
1.849294 0.8360039 0.1877076 0 0 0 167 160 154 255 
2.218565 -0.2706967 0.1106955 0 0 0 168 159 150 255 
1.827496 2.268434 0.01676292 0 0 0 169 166 159 255 
2.138006 0.7190644 0.08412235 0 0 0 138 131 121 255 
2.528177 0.9535472 0.1584987 0 0 0 211 203 194 255 
2.580479 1.061472 0.113423 0 0 0 203 196 186 255 
2.896862 1.310264 0.1775941 0 0 0 158 150 139 255 
3.092538 0.2988341 0.2737489 0 0 0 121 114 104 255 
3.125713 0.03917771 0.222778 0 0 0 186 177 168 255 
2.990239 1.750347 0.1189631 0 0 0 179 171 160 255 
3.042742 1.371221 0.07859533 0 0 0 173 169 160 255 
3.216067 0.5459079 0.2067601 0 0 0 116 112 103 255 
3.236286 0.6113935 0.2331307 0 0 0 206 199 189 255 
3.397685 0.4434391 0.1981057 0 0 0 112 100 87 255 
3.377583 0.5680445 0.1350511 0 0 0 136 129 121 255 
3.270041 1.594251 0.04277367 0 0 0 139 127 115 255 
3.452846 0.456336 0.1902248 0 0 0 131 123 112 255 
3.475962 0.4716291 0.2329969 0 0 0 125 116 107 255 
3.550631 0.4823208 0.222871 0 0 0 183 177 165 255 
3.68985 0.05992185 0.2108828 0 0 0 126 119 109 255 
3.464571 2.022205 -0.08881456 0 0 0 120 110 98 255 
3.651837 0.790455 0.111241 0 0 0 161 153 142 255 
3.797175 0.05996349 0.2699409 0 0 0 119 111 98 255 
3.62419 1.304261 -0.02449638 0 0 0 107 103 92 255 
3.825352 0.2000635 0.209413 0 0 0 199 194 188 255 
3.850392 0.1451773 0.2620926 0 0 0 141 134 126 255 
3.907943 0.0304075 0.2408352 0 0 0 133 130 121 255 
3.889168 0.1886551 0.2114274 0 0 0 86 81 73 255 
3.871104 0.55875 0.189139 0 0 0 107 103 94 255 
3.85531 0.8449513 0.1167718 0 0 0 193 184 177 255 
3.939242 0.3623883 0.1163575 0 0 0 166 161 155 255 
3.940532 0.3615982 0.1489607 0 0 0 166 161 155 255 
3.933725 0.7249205 0.1064209 0 0 0 112 108 99 255 
4.028751 -0.07091308 0.1291562 0 0 0 170 169 164 255 
3.940639 0.7271667 0.09513537 0 0 0 172 169 160 255 
4.072059 0.4242983 0.03205819 0 0 0 134 126 115 255 
4.169708 -0.204464 -0.01557952 0 0 0 105 99 89 255 
4.227608 -0.1863469 -0.06656891 0 0 0 179 170 161 255 
4.135565 0.9306125 -0.09692364 0 0 0 106 97 82 255 
-0.9145236 0.8755215 0.02506513 0 0 0 195 184 169 255 
-0.6268352 2.337251 0.06010384 0 0 0 198 189 180 255 
1.616102 2.523936 0.05156488 0 0 0 109 103 96 255 
-0.9195741 -1.249888 0.1146652 0 0 0 154 141 129 255 
-1.076643 -1.955451 0.03087134 0 0 0 161 154 138 255 
4.077966 -0.1241888 0.07125825 0 0 0 183 180 175 255 
4.136152 -0.02743894 -0.005161345 0 0 0 108 100 89 255 
4.238453 -0.3403451 -0.0518685 0 0 0 164 162 150 255 
4.102482 -0.00791958 0.1188857 0 0 0 180 176 166 255 
4.003466 -0.168171 0.1313979 0 0 0 158 151 143 255 
4.031012 -0.1078319 0.1236636 0 0 0 178 177 172 255 
4.071527 -0.0569825 0.1099247 0 0 0 121 120 115 255 
4.149036 -0.2609463 -0.002045453 0 0 0 180 175 169 255 
-0.1665931 0.2836047 1.437935 0 0 0 216 206 204 255 
3.92394 -0.07871015 0.05377931 0 0 0 96 93 85 255 
4.058997 -0.2126182 0.07674926 0 0 0 176 172 163 255 
4.071527 -0.0569825 0.1099247 0 0 0 121 120 115 255 
4.090252 0.2244997 0.05684633 0 0 0 138 129 120 255 
2.599583 0.8959018 0.2333829 0 0 0 201 193 182 255 
2.599583 0.8959018 0.2333829 0 0 0 201 193 182 255 
3.056687 0.9732022 0.3177052 0 0 0 178 173 169 255 
3.650189 -0.03134448 0.2446546 0 0 0 148 138 126 255 
4.094568 -0.1393452 -0.05256349 0 0 0 113 106 99 255 
3.507085 -0.2613125 0.2155482 0 0 0 168 168 159 255 
3.522531 0.07771362 0.2590258 0 0 0 156 152 143 255 
4.357882 -0.7831559 -0.2341002 0 0 0 162 153 144 255 
3.918387 -1.035774 -0.2086381 0 0 0 160 153 145 255 
1.706849 2.429064 0.001374187 0 0 0 178 171 165 255 
-2.191648 -2.25587 -0.02034289 0 0 0 173 163 151 255 
3.496541 -1.187413 -0.09753781 0 0 0 155 148 136 255 
3.971798 -0.1771353 0.1918482 0 0 0 131 124 116 255 
3.541464 -1.277913 -0.08127004 0 0 0 143 139 130 255 
3.604919 -1.269959 -0.1648081 0 0 0 85 81 72 255 
3.468062 -0.2232905 0.2342462 0 0 0 106 103 94 255 
3.506659 -1.131053 -0.1009296 0 0 0 105 101 92 255 
