ply
format ascii 1.0
comment Created by CloudCompare v2.11 alpha (Anoia)
comment Created 2025/12/9 17:12
obj_info Generated by CloudCompare!
element vertex 1453
property float x
property float y
property float z
property float scalar_Scalar_field
end_header
0.471289 0.0480618 0.0926264 109 
0.469646 0.0481031 0.0938351 110 
0.468973 0.0481188 0.0948399 101 
0.469205 0.0481108 0.0956598 109 
0.468817 0.048119 0.0966036 107 
0.468938 0.0481139 0.0974451 115 
0.469003 0.0481102 0.0982976 113 
0.468673 0.048117 0.099226 118 
0.468401 0.0481222 0.100142 116 
0.469596 0.0480888 0.100778 115 
0.467861 0.0481326 0.101968 116 
0.467648 0.0481362 0.102868 120 
0.469122 0.0480954 0.103457 110 
0.46728 0.048142 0.104654 115 
0.467126 0.0481442 0.10554 121 
0.466805 0.0481507 0.106455 113 
0.467043 0.0481425 0.107269 122 
0.466055 0.0481666 0.108298 128 
0.466516 0.0481525 0.109073 123 
0.466866 0.0481413 0.109868 121 
0.466326 0.0481537 0.110814 126 
0.466622 0.0481439 0.111618 125 
0.46664 0.0481415 0.112468 126 
0.466993 0.0481303 0.113264 126 
0.466456 0.0481426 0.114204 127 
0.466476 0.0481401 0.115053 132 
0.466886 0.0481273 0.11584 137 
0.467018 0.0481219 0.116671 129 
0.46615 0.048143 0.117657 129 
0.467509 0.0481051 0.1183 129 
0.466584 0.0481276 0.119291 132 
0.467109 0.0481118 0.120063 133 
0.466743 0.0481196 0.120967 127 
0.467325 0.0481023 0.121733 131 
0.467183 0.0481041 0.122604 129 
0.467712 0.0480882 0.123379 134 
0.467627 0.0480885 0.124241 133 
0.467152 0.0480992 0.125156 136 
0.467459 0.0480891 0.125963 123 
0.467153 0.0480953 0.126852 132 
0.467015 0.0480971 0.127718 129 
0.466767 0.0481017 0.128598 137 
0.467353 0.0480843 0.12937 134 
0.46705 0.0480904 0.130255 129 
0.467305 0.0480817 0.13107 124 
0.466836 0.0480923 0.131974 131 
0.467649 0.0480688 0.132722 129 
0.467292 0.0480763 0.13361 131 
0.466937 0.0480839 0.134497 129 
0.467584 0.0480648 0.135268 129 
0.467731 0.048059 0.136097 128 
0.467544 0.048062 0.136963 135 
0.467525 0.0480606 0.13781 134 
0.466506 0.0480858 0.138764 133 
0.466212 0.0480917 0.139637 136 
0.466916 0.0480711 0.140407 141 
0.466955 0.0480681 0.141245 135 
0.466219 0.0480858 0.142161 133 
0.466869 0.0480666 0.142939 135 
0.466245 0.0480813 0.14384 136 
0.466231 0.0480798 0.144682 134 
0.466495 0.0480708 0.145498 140 
0.467427 0.0480442 0.146255 134 
0.465587 0.0480912 0.147259 136 
0.466018 0.0480779 0.14806 141 
0.465455 0.0480909 0.148947 138 
0.465391 0.0480907 0.14979 143 
0.465989 0.048073 0.150579 142 
0.46587 0.0480742 0.151426 143 
0.465255 0.0480887 0.152312 145 
0.465579 0.0480782 0.153124 144 
0.466069 0.0480632 0.153925 143 
0.464687 0.0480982 0.154861 143 
0.465066 0.0480862 0.15567 143 
0.464458 0.0481005 0.156547 142 
0.46418 0.048106 0.157399 146 
0.464177 0.0481042 0.158233 143 
0.463627 0.048117 0.1591 144 
0.463626 0.0481151 0.159932 146 
0.464226 0.0480972 0.160729 152 
0.463679 0.04811 0.161593 148 
0.463406 0.0481154 0.16244 155 
0.463298 0.0481164 0.163277 155 
0.463517 0.0481086 0.164097 158 
0.463957 0.048095 0.164906 155 
0.463905 0.0480945 0.16574 153 
0.462654 0.048126 0.166629 160 
0.462984 0.0481153 0.167444 158 
0.463371 0.0481032 0.168257 158 
0.463431 0.0480997 0.169085 158 
0.463218 0.0481035 0.169923 159 
0.463225 0.0481014 0.170753 158 
0.464052 0.0480775 0.171554 159 
0.46324 0.0480973 0.172412 158 
0.462868 0.0481054 0.173253 155 
0.463095 0.0480974 0.174075 160 
0.463814 0.0480763 0.174885 162 
0.463115 0.0480931 0.175733 163 
0.4628 0.0480997 0.17657 165 
0.463847 0.0480698 0.177376 165 
0.463696 0.048072 0.178209 166 
0.463764 0.0480683 0.179038 166 
0.464215 0.0480543 0.179861 169 
0.464558 0.0480433 0.180687 169 
0.464518 0.0480425 0.181519 164 
0.463714 0.0480621 0.182359 165 
0.463348 0.0480701 0.183192 169 
0.464678 0.0480326 0.184012 166 
0.464531 0.0480346 0.184845 169 
0.464385 0.0480367 0.185676 166 
0.463966 0.048046 0.186508 164 
0.464862 0.0480201 0.187339 165 
0.464773 0.0480206 0.188171 170 
0.464684 0.0480211 0.189002 169 
0.464377 0.0480275 0.189832 173 
0.464673 0.0480177 0.190666 168 
0.464477 0.0480211 0.191495 165 
0.46483 0.0480097 0.192331 167 
0.464909 0.0480057 0.193164 168 
0.464715 0.0480091 0.193994 168 
0.465015 0.0479991 0.194831 169 
0.464657 0.0480069 0.195656 169 
0.464465 0.0480101 0.196484 168 
0.466143 0.0479632 0.197355 164 
0.465675 0.0479739 0.198178 170 
0.466698 0.0479445 0.199039 166 
0.466507 0.0479478 0.19987 166 
0.465048 0.0479851 0.200661 175 
0.466845 0.0479349 0.201553 173 
0.466877 0.0479322 0.20239 172 
0.466799 0.0479324 0.203224 168 
0.466224 0.047946 0.204039 164 
0.465816 0.047955 0.204859 166 
0.465244 0.0479685 0.20567 169 
0.466604 0.0479301 0.206563 170 
0.465976 0.0479451 0.207371 172 
0.466455 0.0479303 0.20823 172 
0.465608 0.0479512 0.209025 172 
0.465866 0.0479424 0.209873 167 
0.467345 0.0479007 0.210787 175 
0.46744 0.0478963 0.211631 170 
0.467035 0.0479052 0.212448 172 
0.466688 0.0479127 0.213266 169 
0.467339 0.0478933 0.214143 176 
0.46666 0.0479097 0.21494 177 
0.467647 0.0478812 0.215842 174 
0.46719 0.0478916 0.216652 173 
0.467512 0.047881 0.217513 172 
0.467501 0.0478794 0.218353 172 
0.466049 0.0479167 0.21909 101 
0.467759 0.0478687 0.220053 171 
0.469035 0.0478324 0.220991 171 
0.468635 0.0478413 0.221804 178 
0.468628 0.0478396 0.222647 182 
0.468789 0.0478333 0.223503 178 
0.470637 0.0477816 0.2245 180 
0.469169 0.0478192 0.225224 181 
0.470232 0.0477887 0.226161 180 
0.47051 0.0477792 0.227033 176 
0.470281 0.0477835 0.227861 178 
0.470222 0.0477832 0.228704 173 
0.469657 0.0477965 0.229499 182 
0.470331 0.0477764 0.230411 180 
0.470838 0.0477608 0.231309 179 
0.470725 0.0477619 0.232148 180 
0.470952 0.0477539 0.233022 179 
0.470558 0.0477626 0.233832 177 
0.470503 0.0477622 0.234677 181 
0.470506 0.0477602 0.235528 177 
0.470961 0.0477459 0.236428 178 
0.470513 0.0477561 0.237231 177 
0.470518 0.0477541 0.238083 180 
0.470919 0.0477413 0.23898 177 
0.470529 0.0477499 0.239788 176 
0.470818 0.0477402 0.240674 178 
0.470882 0.0477365 0.241535 179 
0.470098 0.0477558 0.242294 177 
0.469712 0.0477643 0.243099 180 
0.470568 0.0477393 0.244058 181 
0.471144 0.0477217 0.244986 186 
0.470758 0.0477302 0.245792 182 
0.470713 0.0477295 0.246641 188 
0.469708 0.0477548 0.247363 185 
0.47102 0.0477173 0.248394 190 
0.47109 0.0477135 0.24926 191 
0.470368 0.0477312 0.250017 190 
0.470665 0.0477212 0.250915 182 
0.468426 0.0477799 0.251453 182 
0.468329 0.0477806 0.252292 187 
0.467841 0.047792 0.253075 181 
0.467521 0.0477987 0.25388 185 
0.467259 0.0478039 0.254694 189 
0.467109 0.047806 0.255524 181 
0.467072 0.0478051 0.256371 184 
0.467146 0.0478012 0.257235 183 
0.466385 0.0478199 0.257969 184 
0.465905 0.047831 0.258745 184 
0.465426 0.0478421 0.25952 187 
0.465835 0.0478291 0.260438 181 
0.464527 0.0478626 0.261075 184 
0.464384 0.0478646 0.261902 183 
0.464296 0.0478651 0.262738 180 
0.463492 0.047885 0.263452 180 
0.462911 0.0478989 0.264202 181 
0.463815 0.0478724 0.265209 181 
0.461756 0.0479264 0.265697 183 
0.461235 0.0479387 0.266453 175 
0.460933 0.047945 0.267246 176 
0.460633 0.0479512 0.268039 180 
0.460116 0.0479634 0.268791 174 
0.460468 0.0479519 0.269703 178 
0.462022 0.0479077 0.270843 185 
0.459115 0.0479849 0.271143 183 
0.46028 0.0479513 0.272212 182 
0.458685 0.0479928 0.272753 180 
0.458283 0.0480018 0.273521 186 
0.457667 0.0480166 0.274246 182 
0.457643 0.0480154 0.275087 180 
0.457889 0.0480068 0.275982 184 
0.457543 0.0480143 0.276759 180 
0.457628 0.0480101 0.277623 182 
0.457285 0.0480175 0.278399 182 
0.455234 0.0480715 0.278819 185 
0.454629 0.0480861 0.279535 181 
0.454821 0.048079 0.280419 179 
0.454483 0.0480863 0.281191 182 
0.454569 0.048082 0.282053 178 
0.453968 0.0480965 0.282767 169 
0.453685 0.0481023 0.283549 176 
0.452928 0.0481211 0.284225 163 
0.453016 0.0481168 0.285087 171 
0.45321 0.0481096 0.285975 167 
0.453352 0.0481038 0.286852 169 
0.452861 0.0481153 0.287585 166 
0.451898 0.0481397 0.288208 165 
0.451045 0.0481611 0.288852 157 
0.451711 0.048141 0.289852 162 
0.451854 0.0481351 0.29073 162 
0.451631 0.0481393 0.291522 161 
0.451198 0.0481493 0.292264 164 
0.45129 0.0481448 0.293131 162 
0.451802 0.0481289 0.294103 162 
0.451213 0.0481431 0.294805 158 
0.451517 0.0481329 0.295728 160 
0.451506 0.0481313 0.296574 161 
0.453023 0.0480878 0.297806 154 
0.451275 0.0481338 0.298213 156 
0.451161 0.048135 0.299034 152 
0.451414 0.0481261 0.299949 159 
0.451248 0.0481287 0.300757 153 
0.451293 0.0481256 0.30162 153 
0.451653 0.0481138 0.302568 153 
0.451331 0.0481207 0.303335 151 
0.451429 0.0481161 0.304215 153 
0.452161 0.0480941 0.305267 155 
0.451628 0.0481068 0.305979 148 
0.451412 0.0481108 0.306776 154 
0.451407 0.048109 0.30763 157 
0.45193 0.0480927 0.308633 156 
0.452244 0.0480822 0.309579 151 
0.451976 0.0480876 0.310363 152 
0.452026 0.0480842 0.311237 150 
0.452024 0.0480824 0.312097 155 
0.451969 0.0480819 0.312943 158 
0.451809 0.0480844 0.313758 156 
0.452761 0.0480563 0.314898 152 
0.452019 0.0480747 0.315545 149 
0.452974 0.0480465 0.316691 147 
0.452974 0.0480446 0.317558 148 
0.452338 0.0480601 0.318235 141 
0.452711 0.0480479 0.319214 149 
0.452766 0.0480444 0.320099 147 
0.453035 0.0480351 0.32105 149 
0.454534 0.0479919 0.322381 148 
0.453254 0.0480251 0.322858 151 
0.453418 0.0480186 0.323781 145 
0.453689 0.0480092 0.32474 147 
0.454069 0.0479968 0.325734 150 
0.453539 0.0480094 0.326441 148 
0.453705 0.0480028 0.327369 143 
0.454354 0.047983 0.328455 144 
0.45533 0.0479542 0.329649 149 
0.454799 0.0479668 0.330357 154 
0.454806 0.0479646 0.33124 145 
0.455084 0.047955 0.332213 146 
0.455147 0.0479513 0.333117 143 
0.455426 0.0479416 0.334094 146 
0.455868 0.0479274 0.335127 143 
0.455879 0.0479251 0.336017 146 
0.455456 0.0479347 0.336761 139 
0.456226 0.0479115 0.337912 140 
0.456237 0.0479092 0.338805 129 
0.45723 0.0478798 0.340039 139 
0.45648 0.0478985 0.340671 131 
0.457365 0.0478721 0.341873 134 
0.457707 0.0478606 0.342888 136 
0.457448 0.0478657 0.343693 138 
0.457901 0.0478512 0.344751 134 
0.457313 0.0478654 0.345439 137 
0.458096 0.0478418 0.346619 126 
0.458552 0.0478272 0.347684 131 
0.458293 0.0478323 0.348492 132 
0.45842 0.0478267 0.349441 135 
0.459487 0.0477952 0.350737 130 
0.45956 0.0477912 0.351671 130 
0.459801 0.0477825 0.352668 129 
0.459986 0.0477753 0.353646 131 
0.459673 0.0477819 0.354438 130 
0.460081 0.0477685 0.355503 131 
0.460213 0.0477628 0.356464 131 
0.46029 0.0477587 0.357407 128 
0.460757 0.0477437 0.3585 126 
0.460835 0.0477395 0.359446 120 
0.460801 0.0477383 0.360349 123 
0.46088 0.0477341 0.361298 126 
0.460959 0.0477298 0.362247 117 
0.462105 0.047696 0.363618 121 
0.461904 0.0476995 0.364462 117 
0.46148 0.0477092 0.365216 116 
0.462461 0.0476799 0.366532 117 
0.4626 0.047674 0.367514 115 
0.463022 0.0476602 0.368612 115 
0.46271 0.0476667 0.369414 121 
0.461778 0.0476905 0.369962 127 
0.462313 0.0476735 0.37111 124 
0.46251 0.047666 0.372122 115 
0.463048 0.047649 0.373276 118 
0.463815 0.0476256 0.37453 115 
0.462427 0.047662 0.374884 118 
0.463023 0.0476433 0.376069 114 
0.461864 0.0476733 0.376515 117 
0.462686 0.0476484 0.377799 117 
0.461925 0.0476674 0.378411 116 
0.462352 0.0476535 0.379531 109 
0.461817 0.0476662 0.380239 118 
0.462472 0.0476459 0.381461 108 
0.463356 0.0476192 0.382787 115 
0.46214 0.0476509 0.383198 125 
0.4624 0.0476415 0.384254 114 
0.461923 0.0476527 0.384986 110 
0.461843 0.0476527 0.385894 114 
0.461198 0.0476685 0.38655 139 
0.461232 0.0476655 0.387509 114 
0.461946 0.0476435 0.388775 121 
0.460285 0.0476875 0.388971 123 
0.454623 0.0522471 -0.0234693 9 
0.451402 0.0523025 -0.0210033 9 
0.455905 0.05222 -0.0221983 9 
0.453488 0.0522611 -0.0201233 10 
0.451804 0.052289 -0.0184023 11 
0.452301 0.0522781 -0.0177053 13 
0.456874 0.0521942 -0.0188953 11 
0.45445 0.0522354 -0.0168393 14 
0.455504 0.0522145 -0.0163923 15 
0.455788 0.0522073 -0.0155893 12 
0.455355 0.0522129 -0.0144593 12 
0.456137 0.0521968 -0.0138833 13 
0.455319 0.0522094 -0.0125823 17 
0.458265 0.0521545 -0.0129763 16 
0.456441 0.0521851 -0.0112283 15 
0.456562 0.0521808 -0.0103523 12 
0.459971 0.0521176 -0.0109323 15 
0.455811 0.0521901 -0.00816527 16 
0.456484 0.0521759 -0.00753528 20 
0.457436 0.0521568 -0.00702427 16 
0.4599 0.0521105 -0.00716828 15 
0.456409 0.052171 -0.00472827 17 
0.460764 0.0520907 -0.00567828 19 
0.459822 0.0521056 -0.00434427 17 
0.4609 0.0520841 -0.00387527 18 
0.46125 0.0520757 -0.00309427 16 
0.457192 0.0521466 -0.000452281 18 
0.462064 0.0520569 -0.00157827 15 
0.459329 0.052104 0.00049372 18 
0.459957 0.0520906 0.00115572 16 
0.462104 0.0520499 0.00119072 14 
0.463136 0.0520292 0.00169273 21 
0.463661 0.0520177 0.00240572 23 
0.462204 0.0520418 0.00392772 15 
0.461039 0.0520607 0.00532472 19 
0.462912 0.0520249 0.00548972 20 
0.463494 0.0520123 0.00618072 22 
0.464646 0.0519894 0.00664473 22 
0.462792 0.0520208 0.00830772 28 
0.466679 0.0519486 0.00769272 22 
0.465037 0.0519761 0.00926672 27 
0.464485 0.051984 0.0104077 26 
0.465299 0.0519672 0.0110127 24 
0.463671 0.0519945 0.0125667 29 
0.465165 0.0519655 0.0129107 28 
0.469783 0.05188 0.0120617 26 
0.466744 0.0519328 0.0141497 31 
0.46705 0.0519252 0.0149577 26 
0.466611 0.051931 0.0160457 24 
0.467951 0.0519047 0.0164637 26 
0.466766 0.0519241 0.0178287 30 
0.46874 0.0518863 0.0180157 31 
0.46957 0.0518692 0.0186327 29 
0.470113 0.0518573 0.0193577 34 
0.470482 0.0518485 0.0201467 32 
0.469461 0.0518649 0.0214417 30 
0.470933 0.0518362 0.0218317 32 
0.474768 0.0517646 0.0213777 33 
0.471619 0.0518196 0.0234327 31 
0.472343 0.0518044 0.0240987 37 
0.472366 0.0518019 0.0250147 34 
0.472039 0.0518057 0.0260517 34 
0.47506 0.0517488 0.0259197 38 
0.472555 0.0517922 0.0277157 36 
0.473459 0.0517737 0.0283247 37 
0.469932 0.0518356 0.0304577 39 
0.474392 0.0517526 0.0298507 38 
0.475363 0.0517329 0.0304437 41 
0.473446 0.0517656 0.0320137 40 
0.473943 0.0517545 0.0327667 35 
0.476332 0.051709 0.0328907 38 
0.474527 0.0517397 0.0344117 38 
0.475204 0.0517254 0.0351077 40 
0.473821 0.0517484 0.0364797 38 
0.472098 0.0517777 0.0379567 44 
0.472827 0.0517624 0.0386327 39 
0.474321 0.0517331 0.0390657 42 
0.474411 0.0517294 0.0399527 37 
0.473037 0.0517524 0.0413027 38 
0.472952 0.0517519 0.0422407 32 
0.472228 0.051763 0.0433777 38 
0.471101 0.0517815 0.0446367 39 
0.471945 0.0517641 0.0452807 47 
0.471689 0.0517667 0.0462657 42 
0.471724 0.051764 0.0471597 43 
0.4702 0.0517898 0.0485267 44 
0.471389 0.0517661 0.0490687 43 
0.470502 0.0517802 0.0502367 40 
0.473377 0.0517257 0.0502807 47 
0.47046 0.0517769 0.0520477 46 
0.470728 0.05177 0.0528667 45 
0.471747 0.0517494 0.0534677 54 
0.470401 0.0517719 0.0547577 53 
0.471593 0.0517481 0.0553107 50 
0.471574 0.0517464 0.0562137 54 
0.471441 0.0517468 0.0571487 51 
0.472464 0.0517261 0.0577567 51 
0.472389 0.0517254 0.0586757 55 
0.472083 0.051729 0.0596567 55 
0.472704 0.0517156 0.0603817 63 
0.472805 0.0517118 0.0612497 63 
0.472153 0.0517217 0.0623227 64 
0.472196 0.0517189 0.0632047 63 
0.471548 0.0517287 0.0642727 61 
0.4724 0.0517111 0.0649367 56 
0.471637 0.0517231 0.0660307 61 
0.472028 0.0517139 0.0668177 66 
0.47219 0.0517089 0.0676667 69 
0.472872 0.0516944 0.0683797 74 
0.472572 0.0516979 0.0693477 77 
0.473373 0.0516812 0.0700337 77 
0.473595 0.0516751 0.0708677 72 
0.472255 0.0516977 0.0720947 78 
0.472362 0.0516937 0.0729547 78 
0.472643 0.0516866 0.0737727 75 
0.472808 0.0516815 0.0746187 76 
0.471477 0.051704 0.0758287 80 
0.472161 0.0516894 0.0765467 81 
0.471752 0.0516949 0.0775287 79 
0.471518 0.0516973 0.0784667 82 
0.471571 0.0516943 0.0793367 88 
0.471567 0.0516924 0.0802187 84 
0.471564 0.0516904 0.0810997 82 
0.471446 0.0516906 0.0820067 85 
0.471215 0.0516929 0.0829387 96 
0.470129 0.0517109 0.0840627 94 
0.470698 0.0516985 0.0848107 88 
0.470527 0.0516996 0.0857247 94 
0.470128 0.051705 0.0866877 91 
0.470928 0.0516883 0.0873877 90 
0.469563 0.0517115 0.0885579 96 
0.469451 0.0517116 0.0894536 98 
0.469171 0.0517148 0.0903844 100 
0.469515 0.0517065 0.0911822 99 
0.469122 0.0517118 0.0921344 101 
0.46924 0.0517076 0.092979 116 
0.468793 0.0517139 0.0939394 111 
0.468178 0.0517233 0.0949315 109 
0.467678 0.0517306 0.0958977 110 
0.467966 0.0517233 0.0967045 105 
0.468031 0.0517202 0.0975563 107 
0.467926 0.0517202 0.0984406 107 
0.467992 0.051717 0.0992913 107 
0.468734 0.0517013 0.100012 113 
0.467562 0.0517211 0.101098 114 
0.468698 0.0516981 0.101746 115 
0.467304 0.0517219 0.102868 113 
0.466533 0.0517343 0.10387 116 
0.467777 0.0517093 0.104501 109 
0.466614 0.0517289 0.10557 119 
0.466684 0.0517257 0.106415 122 
0.466531 0.0517266 0.107299 117 
0.466045 0.0517337 0.10824 124 
0.46645 0.0517242 0.109025 127 
0.466188 0.0517271 0.109925 124 
0.466261 0.0517239 0.110767 119 
0.467507 0.0516988 0.111413 124 
0.466742 0.0517111 0.112395 120 
0.466705 0.0517098 0.113255 122 
0.466725 0.0517075 0.114105 127 
0.46641 0.0517115 0.115009 128 
0.467716 0.0516853 0.115655 129 
0.466786 0.0517006 0.116654 127 
0.466585 0.0517024 0.117537 130 
0.466886 0.0516949 0.118343 135 
0.467077 0.0516895 0.119166 132 
0.468051 0.0516694 0.119873 138 
0.467124 0.0516847 0.120862 130 
0.467596 0.051674 0.121644 139 
0.467958 0.0516654 0.122444 129 
0.468376 0.0516557 0.123237 136 
0.468235 0.0516564 0.124109 135 
0.468655 0.0516466 0.124903 135 
0.467954 0.0516578 0.12585 135 
0.46843 0.051647 0.126637 138 
0.46846 0.0516445 0.127484 141 
0.468433 0.0516431 0.128338 140 
0.468464 0.0516406 0.129185 139 
0.468103 0.0516454 0.13008 135 
0.467798 0.0516492 0.130966 136 
0.468615 0.051632 0.131715 138 
0.468368 0.0516347 0.132594 137 
0.468626 0.051628 0.133412 144 
0.468884 0.0516212 0.134231 140 
0.468976 0.0516176 0.13507 138 
0.468955 0.0516161 0.135921 139 
0.468879 0.0516156 0.136778 138 
0.469816 0.0515962 0.137524 135 
0.469122 0.0516072 0.138448 145 
0.468431 0.0516182 0.139369 138 
0.468413 0.0516166 0.140217 139 
0.469182 0.0516004 0.140985 136 
0.469054 0.0516008 0.141845 143 
0.468646 0.0516066 0.142732 139 
0.469248 0.0515934 0.14352 146 
0.469066 0.0515949 0.144384 140 
0.469109 0.0515922 0.145226 138 
0.468815 0.0515958 0.146099 135 
0.468411 0.0516014 0.14698 140 
0.46812 0.051605 0.147849 141 
0.468054 0.0516043 0.148698 137 
0.468379 0.0515963 0.149515 138 
0.467923 0.051603 0.150395 140 
0.467691 0.0516054 0.151256 140 
0.467906 0.0515995 0.152081 141 
0.467731 0.0516008 0.152936 144 
0.468227 0.0515896 0.153742 144 
0.466828 0.051614 0.154684 144 
0.467546 0.0515986 0.155474 148 
0.466708 0.0516125 0.156371 153 
0.466759 0.0516096 0.157207 151 
0.466867 0.0516057 0.158039 145 
0.466254 0.0516153 0.158916 155 
0.466252 0.0516134 0.159753 146 
0.466362 0.0516095 0.160585 156 
0.467305 0.0515899 0.161369 152 
0.465863 0.0516151 0.162287 153 
0.467194 0.0515882 0.163053 149 
0.465203 0.0516237 0.163993 149 
0.465536 0.0516156 0.164812 148 
0.464988 0.051624 0.165673 144 
0.466593 0.0515919 0.166434 145 
0.464445 0.0516305 0.167365 153 
0.464231 0.0516326 0.168207 151 
0.464675 0.0516224 0.169022 154 
0.464901 0.0516162 0.169846 154 
0.464139 0.0516287 0.170708 155 
0.464695 0.0516164 0.171521 156 
0.464923 0.0516102 0.172346 160 
0.464657 0.0516133 0.173188 161 
0.464556 0.0516133 0.174023 163 
0.464511 0.0516123 0.174857 165 
0.464138 0.0516175 0.175699 164 
0.464368 0.0516112 0.176525 172 
0.464216 0.0516122 0.17736 165 
0.464174 0.0516112 0.178193 164 
0.464791 0.0515976 0.179014 166 
0.46453 0.0516007 0.17985 172 
0.464489 0.0515996 0.180683 168 
0.46434 0.0516005 0.181517 172 
0.46463 0.0515932 0.182346 180 
0.464812 0.0515878 0.183176 175 
0.464884 0.0515846 0.184009 172 
0.464682 0.0515865 0.184842 170 
0.464975 0.0515791 0.185674 169 
0.465159 0.0515737 0.186506 167 
0.465179 0.0515715 0.18734 178 
0.46443 0.0515838 0.188171 170 
0.464836 0.0515742 0.189005 170 
0.465078 0.0515678 0.189839 172 
0.464605 0.0515748 0.190668 170 
0.464134 0.0515819 0.191495 169 
0.464487 0.0515733 0.192331 169 
0.465833 0.0515459 0.193182 171 
0.466744 0.0515268 0.194031 170 
0.465939 0.0515401 0.194853 169 
0.465524 0.0515461 0.19568 167 
0.466214 0.0515312 0.196529 168 
0.465304 0.0515466 0.197343 174 
0.466271 0.0515263 0.198201 168 
0.465913 0.0515312 0.199028 172 
0.466552 0.0515172 0.199881 169 
0.466749 0.0515116 0.200724 175 
0.466337 0.0515175 0.201547 171 
0.466701 0.0515087 0.202396 175 
0.466235 0.0515157 0.203216 168 
0.466601 0.0515068 0.204066 170 
0.466912 0.051499 0.204916 175 
0.466891 0.0514975 0.205753 173 
0.46604 0.0515118 0.206553 170 
0.465965 0.0515114 0.207386 174 
0.466888 0.0514919 0.208266 180 
0.466815 0.0514914 0.209101 176 
0.466631 0.051493 0.20993 176 
0.467336 0.0514777 0.210805 175 
0.468212 0.0514591 0.211692 169 
0.46842 0.0514533 0.212545 184 
0.467178 0.051475 0.213314 176 
0.467275 0.0514713 0.21416 181 
0.46704 0.0514739 0.214985 175 
0.467138 0.0514701 0.215831 179 
0.467126 0.0514684 0.21667 178 
0.467448 0.0514604 0.217532 176 
0.467772 0.0514523 0.218396 176 
0.467371 0.0514581 0.219209 171 
0.467473 0.0514542 0.220057 171 
0.467855 0.051445 0.220928 174 
0.468014 0.0514401 0.221782 179 
0.468622 0.0514266 0.222673 169 
0.469738 0.0514033 0.223608 172 
0.468665 0.0514219 0.224366 174 
0.469614 0.0514019 0.225291 172 
0.470004 0.0513925 0.226171 176 
0.470225 0.0513864 0.227038 175 
0.470391 0.0513813 0.227902 180 
0.469824 0.0513902 0.228699 174 
0.470499 0.0513754 0.22961 175 
0.470442 0.0513746 0.230454 174 
0.470328 0.0513748 0.231293 176 
0.469933 0.0513805 0.232104 173 
0.469877 0.0513796 0.232947 171 
0.470499 0.0513658 0.233861 172 
0.470388 0.051366 0.2347 177 
0.469094 0.0513889 0.235413 179 
0.470168 0.0513664 0.236379 175 
0.470568 0.0513568 0.237274 178 
0.469669 0.0513721 0.238026 180 
0.470125 0.0513614 0.238929 174 
0.47047 0.0513529 0.239821 180 
0.470477 0.0513508 0.240674 181 
0.470768 0.0513433 0.241563 181 
0.470323 0.0513499 0.242363 182 
0.470275 0.0513489 0.24321 183 
0.469437 0.0513631 0.243959 177 
0.470407 0.0513425 0.244935 182 
0.470417 0.0513404 0.245792 183 
0.470202 0.0513426 0.246619 181 
0.469592 0.0513524 0.247393 178 
0.470736 0.0513285 0.248401 180 
0.47024 0.0513361 0.24919 182 
0.46997 0.0513393 0.250009 184 
0.469138 0.0513534 0.250748 185 
0.468702 0.0513599 0.251541 185 
0.468774 0.0513566 0.252406 187 
0.46834 0.051363 0.253197 182 
0.468132 0.0513651 0.254021 188 
0.467925 0.0513671 0.254845 187 
0.467943 0.0513649 0.255702 188 
0.466674 0.0513874 0.256362 188 
0.466861 0.0513819 0.257244 186 
0.466824 0.0513807 0.258092 187 
0.464898 0.0514159 0.258639 186 
0.464973 0.0514125 0.259502 184 
0.464773 0.0514145 0.260321 187 
0.464905 0.05141 0.261194 184 
0.464705 0.0514119 0.262013 184 
0.463568 0.0514319 0.262673 180 
0.463205 0.051437 0.263462 182 
0.463449 0.0514304 0.264354 183 
0.463804 0.0514216 0.265267 182 
0.463057 0.0514341 0.265987 181 
0.46402 0.0514136 0.26701 185 
0.461354 0.0514632 0.267383 182 
0.460671 0.0514745 0.268108 184 
0.460589 0.0514742 0.268941 184 
0.46067 0.0514707 0.269804 182 
0.459882 0.051484 0.270505 184 
0.460235 0.0514753 0.27142 180 
0.458962 0.051498 0.272026 176 
0.458289 0.0515091 0.272743 180 
0.457887 0.051515 0.273511 180 
0.458779 0.0514958 0.274533 180 
0.458 0.051509 0.275226 182 
0.457815 0.0515107 0.276036 177 
0.457523 0.0515144 0.276824 179 
0.457017 0.0515223 0.277568 176 
0.45662 0.0515281 0.278333 178 
0.457458 0.0515099 0.279354 178 
0.457115 0.0515147 0.280131 176 
0.456987 0.0515152 0.280952 174 
0.45611 0.0515304 0.281613 169 
0.456305 0.0515247 0.282503 169 
0.455004 0.051548 0.283068 172 
0.455626 0.051534 0.284051 169 
0.454755 0.051549 0.284706 167 
0.454419 0.0515536 0.285478 166 
0.453395 0.0515716 0.286094 165 
0.453749 0.0515628 0.287021 164 
0.453309 0.0515695 0.287767 168 
0.453453 0.0515648 0.288647 155 
0.453226 0.0515673 0.289442 162 
0.453106 0.0515677 0.290261 159 
0.453145 0.051565 0.291118 157 
0.452286 0.0515798 0.291762 153 
0.452484 0.051574 0.292657 160 
0.451629 0.0515888 0.293297 160 
0.453094 0.0515583 0.294504 149 
0.451921 0.0515793 0.295065 155 
0.452437 0.0515673 0.296043 154 
0.45211 0.0515718 0.296811 156 
0.452469 0.0515628 0.297753 154 
0.453041 0.0515497 0.298751 151 
0.452715 0.0515542 0.299521 158 
0.452336 0.0515597 0.300276 157 
0.452804 0.0515486 0.301252 153 
0.452425 0.0515541 0.302008 152 
0.452524 0.0515502 0.302889 151 
0.451989 0.0515587 0.303602 153 
0.452352 0.0515497 0.304555 155 
0.452346 0.0515479 0.30541 152 
0.4525 0.0515429 0.30631 148 
0.452124 0.0515483 0.307065 153 
0.452173 0.0515455 0.307937 151 
0.453336 0.0515208 0.309119 156 
0.453546 0.0515147 0.31004 158 
0.452321 0.0515367 0.310557 154 
0.453861 0.0515047 0.311856 155 
0.4529 0.0515215 0.312446 152 
0.453538 0.0515071 0.313493 148 
0.45311 0.0515135 0.314235 145 
0.453003 0.0515136 0.315069 146 
0.453483 0.0515023 0.316076 145 
0.453537 0.0514993 0.316959 144 
0.452845 0.0515109 0.317622 150 
0.453325 0.0514995 0.318633 153 
0.453327 0.0514975 0.319503 151 
0.453757 0.0514871 0.320504 147 
0.453492 0.0514903 0.321294 149 
0.454031 0.0514778 0.322332 146 
0.454625 0.0514642 0.323389 149 
0.453985 0.0514747 0.324065 157 
0.455119 0.0514505 0.325295 142 
0.45437 0.0514632 0.325937 148 
0.454914 0.0514506 0.326986 140 
0.454974 0.0514474 0.327884 145 
0.455737 0.0514304 0.329009 145 
0.455745 0.0514283 0.329894 146 
0.455698 0.0514272 0.330761 146 
0.455815 0.0514229 0.331683 147 
0.456095 0.0514154 0.332659 148 
0.45643 0.0514068 0.333656 148 
0.456113 0.0514111 0.334437 147 
0.456341 0.0514046 0.3354 147 
0.456623 0.051397 0.336384 141 
0.458275 0.0513625 0.337835 145 
0.4567 0.0513915 0.33819 145 
0.457258 0.0513785 0.339273 137 
0.457052 0.0513805 0.340095 139 
0.457777 0.0513642 0.341241 141 
0.458285 0.0513522 0.342314 140 
0.458134 0.0513531 0.343158 140 
0.458534 0.0513432 0.344198 133 
0.459045 0.0513311 0.345279 140 
0.459559 0.0513189 0.346364 135 
0.459188 0.0513242 0.347134 133 
0.459315 0.0513197 0.348084 138 
0.459942 0.0513052 0.349216 135 
0.459294 0.051316 0.349886 133 
0.460089 0.0512982 0.351084 122 
0.460441 0.0512892 0.352123 125 
0.460795 0.0512802 0.353164 126 
0.460703 0.0512799 0.354041 129 
0.460835 0.0512753 0.355003 128 
0.460688 0.0512761 0.35586 132 
0.46082 0.0512714 0.356825 123 
0.461121 0.0512634 0.357854 126 
0.462097 0.051242 0.359145 124 
0.461221 0.0512573 0.359726 124 
0.461469 0.0512503 0.360741 126 
0.462392 0.05123 0.36202 123 
0.462642 0.0512229 0.363041 120 
0.462723 0.0512192 0.363996 117 
0.462917 0.0512133 0.364998 113 
0.462096 0.0512275 0.365597 112 
0.463082 0.0512058 0.366917 109 
0.463562 0.0511942 0.368038 108 
0.462852 0.0512062 0.36868 112 
0.461974 0.0512215 0.369253 114 
0.462793 0.0512032 0.370516 109 
0.462651 0.0512039 0.371389 114 
0.462623 0.0512024 0.372308 111 
0.462595 0.0512008 0.373229 107 
0.463021 0.0511903 0.37434 107 
0.464189 0.0511649 0.375765 114 
0.463592 0.0511747 0.376452 114 
0.464251 0.0511595 0.377668 111 
0.462687 0.0511884 0.377944 110 
0.4634 0.0511721 0.379187 110 
0.463946 0.0511591 0.380361 110 
0.462895 0.0511779 0.38085 115 
0.462132 0.051191 0.381461 113 
0.462562 0.0511803 0.382589 123 
0.462424 0.0511809 0.383471 119 
0.462742 0.0511725 0.384554 116 
0.462093 0.0511833 0.385212 118 
0.4619 0.051185 0.38607 122 
0.46148 0.0511912 0.386828 141 
0.461175 0.0511952 0.387636 116 
0.46121 0.0511923 0.388597 119 
0.460114 0.0512121 0.389047 118 
0.490406 0.055369 -0.0406953 9 
0.45619 0.0557089 -0.0234513 12 
0.456362 0.055705 -0.0225913 11 
0.454872 0.0557178 -0.0209493 8 
0.458496 0.0556794 -0.0217073 11 
0.450623 0.0557562 -0.0170983 10 
0.455168 0.0557085 -0.0182793 9 
0.45468 0.0557113 -0.0171183 7 
0.458241 0.0556735 -0.0178213 11 
0.454476 0.0557091 -0.0151603 14 
0.458815 0.0556635 -0.0162053 13 
0.454769 0.055702 -0.0134333 9 
0.459448 0.0556529 -0.0146143 17 
0.455173 0.0556937 -0.0117573 17 
0.456953 0.0556737 -0.0116243 14 
0.461958 0.0556212 -0.0129183 10 
0.455259 0.0556866 -0.00901328 17 
0.459943 0.0556373 -0.0101503 16 
0.461079 0.0556237 -0.00971428 16 
0.458898 0.0556436 -0.00782628 14 
0.458072 0.0556499 -0.00653727 12 
0.458976 0.0556386 -0.00600028 19 
0.462764 0.0555983 -0.00670028 17 
0.460345 0.0556206 -0.00472827 16 
0.460132 0.0556207 -0.00370827 12 
0.458523 0.0556348 -0.00209728 13 
0.460438 0.0556134 -0.00198028 16 
0.46017 0.055614 -0.000940279 18 
0.461477 0.0555987 -0.000560284 24 
0.461942 0.0555919 0.000174716 16 
0.462805 0.055581 0.000745728 22 
0.461462 0.0555925 0.00222772 20 
0.461759 0.0555874 0.00303172 20 
0.461323 0.0555898 0.00413372 19 
0.463998 0.0555605 0.00397272 23 
0.459785 0.0556012 0.00660072 18 
0.464085 0.0555555 0.00579272 18 
0.464158 0.0555526 0.00669073 20 
0.465315 0.0555388 0.00715673 20 
0.464931 0.0555406 0.00823572 19 
0.466608 0.0555214 0.00850172 24 
0.466395 0.0555215 0.00951372 22 
0.464925 0.0555344 0.0110127 31 
0.466717 0.055514 0.0112417 26 
0.46887 0.05549 0.0113387 28 
0.467386 0.055503 0.0128377 28 
0.468211 0.0554925 0.0134487 28 
0.466619 0.0555067 0.0149787 26 
0.46727 0.0554979 0.0156557 23 
0.469021 0.055478 0.0159227 27 
0.471779 0.0554477 0.0158197 23 
0.467445 0.0554899 0.0183577 28 
0.469487 0.0554669 0.0185257 27 
0.47102 0.0554491 0.0188877 28 
0.471391 0.0554432 0.0196787 33 
0.471471 0.0554403 0.0205767 32 
0.470269 0.0554506 0.0219367 36 
0.471048 0.0554405 0.0225797 36 
0.471304 0.0554358 0.0234117 38 
0.473909 0.0554069 0.0234107 38 
0.473107 0.0554131 0.0246207 35 
0.471316 0.0554294 0.0261747 36 
0.472979 0.0554102 0.0265157 35 
0.473238 0.0554055 0.0273497 35 
0.474618 0.0553892 0.0277967 39 
0.473994 0.0553935 0.0289357 36 
0.474197 0.0553894 0.0297907 42 
0.473282 0.0553967 0.0310237 43 
0.474485 0.0553822 0.0315377 39 
0.474571 0.0553792 0.0324317 38 
0.474304 0.0553799 0.0334417 41 
0.474626 0.0553745 0.0342557 36 
0.474655 0.0553722 0.0351657 43 
0.475451 0.0553618 0.0358247 38 
0.474772 0.0553668 0.0369657 37 
0.476102 0.055351 0.0374537 36 
0.476132 0.0553486 0.0383647 39 
0.475452 0.0553535 0.0395007 36 
0.475957 0.0553462 0.0402587 37 
0.476938 0.055334 0.0408667 41 
0.474251 0.0553598 0.0426267 41 
0.475107 0.0553488 0.0432737 43 
0.474199 0.0553562 0.0444677 45 
0.474292 0.0553532 0.0453507 36 
0.474326 0.0553508 0.0462517 38 
0.475125 0.0553404 0.0469187 47 
0.47463 0.0553435 0.0479787 44 
0.475844 0.0553288 0.0485247 48 
0.474408 0.0553417 0.0498627 42 
0.474915 0.0553344 0.0506207 40 
0.475011 0.0553313 0.0515007 51 
0.472825 0.0553521 0.0530447 51 
0.473213 0.055346 0.0538347 52 
0.474186 0.0553338 0.0544577 58 
0.473582 0.0553381 0.0555337 55 
0.473039 0.0553417 0.0565897 56 
0.474657 0.0553228 0.0570337 53 
0.473295 0.0553349 0.0583177 57 
0.473045 0.0553355 0.0592867 60 
0.473669 0.055327 0.0600117 58 
0.473945 0.0553221 0.0608357 58 
0.472707 0.055333 0.0620707 61 
0.473565 0.055322 0.0627347 62 
0.47355 0.0553201 0.0636347 62 
0.473769 0.0553158 0.0644727 70 
0.473756 0.0553139 0.0653717 67 
0.47421 0.0553072 0.0661477 65 
0.473906 0.0553083 0.0671227 69 
0.472211 0.0553241 0.0684547 70 
0.473418 0.0553094 0.0690357 76 
0.473698 0.0553045 0.0698557 80 
0.473571 0.0553038 0.0707797 69 
0.473504 0.0553025 0.0716877 72 
0.47251 0.0553109 0.0728257 69 
0.473023 0.0553035 0.0735867 79 
0.471917 0.0553131 0.0747457 84 
0.471335 0.0553173 0.0757727 84 
0.471559 0.0553129 0.0766027 77 
0.471323 0.0553134 0.0775427 81 
0.471031 0.0553145 0.0784947 75 
0.470454 0.0553186 0.0795117 86 
0.470622 0.0553148 0.0803527 91 
0.470047 0.0553189 0.0813647 94 
0.469873 0.0553187 0.0822827 85 
0.469815 0.0553174 0.0831727 95 
0.469586 0.0553178 0.0841007 84 
0.469984 0.0553116 0.0848877 90 
0.469073 0.0553193 0.0859647 95 
0.469472 0.0553131 0.0867507 105 
0.469132 0.0553147 0.0876982 102 
0.469873 0.0553049 0.0884103 107 
0.469477 0.0553071 0.0893684 102 
0.470734 0.0552919 0.0899734 105 
0.468576 0.0553128 0.0913015 97 
0.467789 0.0553191 0.0923347 102 
0.468076 0.0553141 0.0931426 98 
0.46859 0.0553067 0.0939046 106 
0.467918 0.0553119 0.0949086 104 
0.468546 0.0553033 0.0956484 112 
0.46692 0.0553186 0.0968388 109 
0.466759 0.0553183 0.0977335 112 
0.466992 0.0553139 0.0985503 104 
0.466945 0.0553125 0.0994216 112 
0.465948 0.0553212 0.100474 110 
0.466182 0.0553167 0.101289 116 
0.465244 0.0553248 0.102324 115 
0.465981 0.055315 0.103045 116 
0.466105 0.0553117 0.10388 120 
0.466788 0.0553025 0.104613 119 
0.467082 0.0552974 0.105419 123 
0.466424 0.0553025 0.106395 123 
0.466048 0.0553046 0.107319 122 
0.467406 0.0552882 0.107938 122 
0.467029 0.0552903 0.108861 124 
0.466709 0.0552917 0.109772 121 
0.466614 0.0552908 0.110644 125 
0.466297 0.0552923 0.111553 122 
0.467266 0.05528 0.112247 124 
0.467284 0.0552779 0.1131 130 
0.467191 0.0552769 0.11397 129 
0.467267 0.0552742 0.114813 135 
0.467176 0.0552732 0.115682 125 
0.467701 0.0552657 0.116454 135 
0.467443 0.0552665 0.117348 128 
0.467858 0.0552601 0.118139 130 
0.467768 0.0552592 0.119006 133 
0.468129 0.0552534 0.119807 135 
0.467984 0.055253 0.120682 135 
0.467785 0.0552532 0.121564 134 
0.468991 0.0552383 0.122244 134 
0.469186 0.0552343 0.123071 134 
0.469665 0.0552272 0.12386 136 
0.469128 0.0552311 0.124788 132 
0.468874 0.0552319 0.125676 131 
0.469523 0.055223 0.126442 133 
0.469213 0.0552244 0.127337 134 
0.469412 0.0552203 0.128164 143 
0.469499 0.0552174 0.129005 142 
0.4697 0.0552133 0.129833 143 
0.470241 0.0552056 0.130619 147 
0.469425 0.0552125 0.131571 139 
0.469515 0.0552096 0.132412 141 
0.469323 0.0552097 0.133286 142 
0.469583 0.055205 0.134107 138 
0.469505 0.0552039 0.134967 141 
0.469654 0.0552004 0.135801 144 
0.470538 0.0551889 0.136554 150 
0.471143 0.0551804 0.13734 145 
0.470386 0.0551867 0.138273 145 
0.470821 0.0551801 0.139079 148 
0.470747 0.0551789 0.139938 153 
0.47039 0.0551809 0.140825 147 
0.470714 0.0551755 0.141644 155 
0.470925 0.0551713 0.142474 143 
0.469891 0.0551806 0.143423 148 
0.470782 0.055169 0.144189 151 
0.471392 0.0551604 0.144983 146 
0.470529 0.0551679 0.145911 152 
0.471594 0.0551544 0.146666 143 
0.47181 0.0551501 0.147499 148 
0.47072 0.0551601 0.148442 146 
0.470993 0.0551552 0.149268 137 
0.470927 0.055154 0.150123 143 
0.470635 0.0551552 0.150994 145 
0.470966 0.0551497 0.151817 142 
0.470732 0.0551503 0.152683 138 
0.470386 0.0551522 0.153556 143 
0.470662 0.0551473 0.154384 138 
0.470204 0.0551504 0.155263 144 
0.469974 0.055151 0.156125 138 
0.46997 0.0551491 0.156971 149 
0.470644 0.0551398 0.157773 144 
0.469231 0.0551534 0.158708 145 
0.469004 0.0551539 0.159565 148 
0.469003 0.0551521 0.160409 144 
0.468553 0.0551551 0.161277 146 
0.468329 0.0551556 0.162132 148 
0.46833 0.0551537 0.162973 147 
0.468555 0.0551494 0.163803 146 
0.468221 0.0551511 0.164661 151 
0.467888 0.0551529 0.165518 155 
0.467334 0.0551571 0.166384 154 
0.468119 0.0551465 0.167189 153 
0.466897 0.0551581 0.16808 151 
0.466791 0.0551573 0.168923 152 
0.466076 0.0551633 0.169788 153 
0.466971 0.0551516 0.170592 154 
0.466645 0.0551533 0.171441 157 
0.466653 0.0551513 0.172278 158 
0.466384 0.0551524 0.173123 161 
0.465728 0.0551577 0.173979 165 
0.465738 0.0551557 0.174814 169 
0.465418 0.0551573 0.175658 170 
0.465153 0.0551584 0.176498 171 
0.465054 0.0551576 0.177335 170 
0.465122 0.0551549 0.178167 169 
0.464695 0.0551578 0.179009 170 
0.464819 0.0551545 0.17984 170 
0.465164 0.0551488 0.180669 170 
0.465014 0.0551486 0.181504 168 
0.464699 0.0551502 0.182341 168 
0.464881 0.0551463 0.183173 168 
0.465119 0.0551418 0.184005 168 
0.465413 0.0551367 0.184837 171 
0.465045 0.0551389 0.185672 173 
0.465395 0.0551331 0.186506 168 
0.465581 0.0551292 0.18734 170 
0.465657 0.0551264 0.188175 165 
0.465126 0.0551304 0.189008 168 
0.465092 0.0551289 0.189841 169 
0.465225 0.0551256 0.190676 172 
0.465028 0.0551259 0.191508 171 
0.465217 0.0551219 0.192344 166 
0.466126 0.0551099 0.193191 169 
0.465819 0.0551114 0.194022 171 
0.464907 0.0551197 0.194841 165 
0.464933 0.0551175 0.195676 165 
0.465236 0.0551123 0.196516 163 
0.464988 0.0551131 0.197345 172 
0.46579 0.0551023 0.198199 169 
0.466041 0.0550977 0.199041 168 
0.465904 0.0550973 0.199873 169 
0.466212 0.055092 0.200719 169 
0.466632 0.0550854 0.201569 173 
0.466664 0.0550832 0.202407 174 
0.466363 0.0550846 0.203234 171 
0.465953 0.0550873 0.204056 170 
0.465987 0.055085 0.204894 169 
0.466355 0.0550791 0.205746 173 
0.46639 0.0550768 0.206585 177 
0.46626 0.0550763 0.207416 171 
0.466074 0.0550765 0.208245 176 
0.465282 0.0550835 0.209044 175 
0.466205 0.0550713 0.209927 176 
0.466855 0.0550621 0.210799 176 
0.466727 0.0550616 0.211631 172 
0.467213 0.0550543 0.212498 180 
0.46692 0.0550557 0.213321 174 
0.466961 0.0550533 0.214163 177 
0.466669 0.0550547 0.214985 179 
0.467102 0.055048 0.215852 180 
0.466756 0.05505 0.21667 178 
0.467301 0.0550419 0.217547 177 
0.467234 0.0550408 0.218384 172 
0.467615 0.0550346 0.219253 178 
0.467717 0.0550316 0.220102 179 
0.467708 0.0550298 0.220944 173 
0.467198 0.0550336 0.221748 174 
0.467693 0.0550261 0.222629 182 
0.469763 0.0550009 0.223639 176 
0.468576 0.0550124 0.224389 174 
0.468122 0.0550156 0.225196 177 
0.470255 0.0549897 0.226225 183 
0.46963 0.0549948 0.227018 176 
0.470135 0.0549872 0.227912 175 
0.468611 0.0550024 0.228621 171 
0.468272 0.0550044 0.229436 177 
0.470298 0.0549796 0.230476 175 
0.470185 0.0549789 0.231315 180 
0.470015 0.0549789 0.232148 185 
0.469959 0.0549777 0.232993 181 
0.470073 0.0549744 0.233855 180 
0.470358 0.0549693 0.234736 181 
0.469513 0.0549769 0.235497 179 
0.469122 0.0549794 0.236305 180 
0.469803 0.0549698 0.237231 179 
0.469807 0.0549678 0.238083 179 
0.469926 0.0549646 0.238948 180 
0.470271 0.0549587 0.23984 183 
0.469317 0.0549676 0.240581 179 
0.469945 0.0549586 0.241508 184 
0.469671 0.0549598 0.242328 177 
0.468946 0.0549661 0.243092 183 
0.469915 0.0549532 0.244065 179 
0.469021 0.0549614 0.244806 181 
0.469596 0.0549529 0.245733 175 
0.469494 0.0549522 0.246574 181 
0.46821 0.0549648 0.247258 180 
0.468784 0.0549564 0.248188 182 
0.470154 0.0549389 0.249229 180 
0.469658 0.0549426 0.250017 182 
0.469842 0.0549385 0.250899 182 
0.468052 0.054957 0.251501 187 
0.470043 0.0549324 0.252642 183 
0.468196 0.0549515 0.25323 190 
0.467819 0.0549539 0.25403 180 
0.4675 0.0549556 0.254836 189 
0.467349 0.0549554 0.255668 188 
0.467256 0.0549545 0.256508 190 
0.467107 0.0549543 0.25734 189 
0.466846 0.0549553 0.258153 188 
0.466754 0.0549545 0.258994 184 
0.464659 0.0549765 0.259511 186 
0.464736 0.0549737 0.260375 189 
0.464424 0.0549753 0.261176 190 
0.465501 0.0549611 0.262207 183 
0.464082 0.0549754 0.262822 180 
0.465492 0.0549573 0.263915 187 
0.463355 0.0549799 0.264401 180 
0.463104 0.0549808 0.265209 183 
0.462303 0.0549881 0.265919 183 
0.462273 0.0549865 0.266765 178 
0.461039 0.0549988 0.267393 181 
0.46112 0.0549959 0.268257 175 
0.461529 0.0549893 0.269182 182 
0.460572 0.0549984 0.269855 183 
0.460709 0.0549949 0.27073 187 
0.460464 0.0549958 0.271534 176 
0.459948 0.0549998 0.272285 180 
0.459923 0.0549982 0.27313 175 
0.45968 0.0549991 0.273933 178 
0.458409 0.0550118 0.274533 173 
0.457953 0.0550151 0.27529 172 
0.458416 0.0550079 0.276231 169 
0.459532 0.0549931 0.277307 174 
0.458967 0.0549977 0.278043 167 
0.457702 0.0550104 0.278633 171 
0.456927 0.0550174 0.27932 171 
0.457121 0.0550132 0.28021 168 
0.456939 0.0550134 0.281021 172 
0.456759 0.0550136 0.281831 168 
0.455935 0.0550212 0.282503 166 
0.456506 0.0550127 0.283476 164 
0.455898 0.0550178 0.284193 162 
0.456632 0.0550074 0.285205 165 
0.455809 0.055015 0.285873 162 
0.455686 0.0550145 0.286695 158 
0.455188 0.0550183 0.287433 161 
0.455815 0.0550091 0.288428 163 
0.454251 0.0550254 0.288918 164 
0.454822 0.0550168 0.289901 159 
0.454755 0.0550157 0.290736 163 
0.454794 0.0550133 0.291598 161 
0.454141 0.0550189 0.292294 163 
0.454235 0.0550159 0.293169 159 
0.454063 0.055016 0.293979 158 
0.453998 0.0550148 0.294816 152 
0.454093 0.0550118 0.295693 159 
0.45387 0.0550125 0.296492 163 
0.454339 0.0550051 0.297464 155 
0.453956 0.0550076 0.298223 151 
0.453893 0.0550064 0.299062 159 
0.453831 0.0550052 0.299902 157 
0.45361 0.0550058 0.300702 153 
0.453815 0.0550015 0.301612 156 
0.453382 0.0550046 0.302356 156 
0.454014 0.0549953 0.303381 155 
0.453688 0.0549972 0.304154 158 
0.453522 0.0549972 0.304969 153 
0.45357 0.0549947 0.305841 151 
0.453245 0.0549965 0.306613 147 
0.453987 0.0549859 0.307677 148 
0.453343 0.0549915 0.308362 147 
0.453499 0.0549877 0.309267 151 
0.453016 0.0549914 0.309995 144 
0.453067 0.0549889 0.310872 146 
0.453919 0.054977 0.311977 145 
0.45365 0.0549782 0.312766 146 
0.453862 0.0549737 0.313693 141 
0.453969 0.0549705 0.314591 138 
0.454505 0.0549623 0.315615 144 
0.454505 0.0549603 0.316485 146 
0.454721 0.0549558 0.317419 146 
0.454884 0.0549519 0.318339 138 
0.455047 0.0549481 0.31926 147 
0.454888 0.054948 0.320086 146 
0.455754 0.0549358 0.321222 144 
0.455271 0.0549395 0.321951 147 
0.455816 0.0549311 0.322994 148 
0.455874 0.0549284 0.32389 147 
0.456205 0.0549226 0.324872 145 
0.455776 0.0549256 0.325617 139 
0.456868 0.0549108 0.326842 145 
0.455896 0.0549202 0.327416 147 
0.45612 0.0549156 0.328369 141 
0.456889 0.0549046 0.329498 143 
0.4557 0.0549166 0.329999 146 
0.456088 0.05491 0.331008 142 
0.456587 0.0549021 0.332056 138 
0.456596 0.0549 0.332946 142 
0.457096 0.0548921 0.333999 144 
0.458092 0.0548783 0.33522 140 
0.457281 0.0548859 0.33584 140 
0.458389 0.0548708 0.337105 142 
0.458346 0.0548693 0.337984 136 
0.457918 0.0548723 0.338732 140 
0.458371 0.0548649 0.339782 139 
0.458659 0.0548595 0.340778 140 
0.45906 0.0548527 0.341815 132 
0.459074 0.0548505 0.342719 141 
0.459365 0.054845 0.343721 131 
0.459879 0.0548369 0.344804 138 
0.460284 0.0548301 0.345851 135 
0.460245 0.0548285 0.346742 134 
0.460261 0.0548262 0.347653 134 
0.460334 0.0548233 0.348586 136 
0.460854 0.0548151 0.349682 139 
0.460593 0.0548162 0.350495 135 
0.460221 0.0548185 0.351268 137 
0.46119 0.0548049 0.352536 136 
0.461321 0.0548013 0.353497 134 
0.461341 0.054799 0.354417 140 
0.460914 0.0548021 0.355171 141 
0.461327 0.0547951 0.356241 140 
0.4609 0.0547981 0.356995 138 
0.461089 0.0547938 0.357983 131 
0.46201 0.0547807 0.359253 126 
0.462654 0.0547709 0.360422 123 
0.462508 0.0547706 0.361287 125 
0.462419 0.0547696 0.362174 129 
0.462387 0.0547679 0.363085 127 
0.462637 0.0547628 0.364108 128 
0.462832 0.0547584 0.36511 126 
0.462631 0.0547587 0.365957 110 
0.463736 0.0547434 0.367326 107 
0.463251 0.0547471 0.368061 116 
0.463619 0.0547406 0.36914 113 
0.463419 0.0547409 0.36999 113 
0.463163 0.0547418 0.370817 109 
0.463077 0.0547408 0.371715 117 
0.463334 0.0547356 0.372754 114 
0.463192 0.0547352 0.37363 113 
0.463906 0.0547245 0.374862 118 
0.464508 0.0547151 0.376052 118 
0.46351 0.054725 0.376572 112 
0.463312 0.0547253 0.377427 114 
0.463572 0.05472 0.378476 113 
0.464004 0.0547127 0.379601 112 
0.463008 0.0547226 0.380116 107 
0.463554 0.0547139 0.381293 112 
0.462673 0.0547223 0.381855 113 
0.463162 0.0547143 0.38301 109 
0.462625 0.0547187 0.38372 110 
0.46209 0.054723 0.384428 116 
0.462693 0.0547136 0.385639 115 
0.461987 0.05472 0.386272 116 
0.461113 0.0547284 0.386828 143 
0.461261 0.0547245 0.387839 115 
0.461125 0.054724 0.388724 113 
0.461558 0.0547166 0.389867 116 
0.454728 0.0592088 -0.0238903 8 
0.453025 0.0592103 -0.0221423 9 
0.463598 0.0591854 -0.0261963 10 
0.454745 0.0592024 -0.0210793 11 
0.45299 0.059204 -0.0193213 9 
0.455922 0.0591956 -0.0197533 10 
0.455984 0.0591933 -0.0188433 10 
0.456158 0.0591908 -0.0179863 11 
0.459749 0.0591809 -0.0186993 11 
0.460604 0.0591769 -0.0181463 12 
0.45535 0.0591863 -0.0148113 14 
0.452994 0.0591893 -0.0128123 9 
0.464334 0.0591623 -0.0169993 10 
0.458773 0.0591724 -0.0135543 9 
0.459119 0.0591696 -0.0127713 10 
0.460085 0.0591653 -0.0122643 16 
0.459362 0.0591648 -0.0110073 11 
0.459709 0.0591619 -0.0102253 14 
0.457815 0.059164 -0.00845927 17 
0.461252 0.0591542 -0.00902929 16 
0.460359 0.0591541 -0.00770527 18 
0.457904 0.0591575 -0.00571027 16 
0.46151 0.0591473 -0.00633428 16 
0.457594 0.059154 -0.00372328 17 
0.459225 0.0591483 -0.00349328 17 
0.463306 0.059137 -0.00429528 19 
0.463374 0.0591347 -0.00338928 16 
0.468459 0.059121 -0.00459027 14 
0.466093 0.0591243 -0.00265728 16 
0.463412 0.0591283 -0.000604272 18 
0.461554 0.0591304 0.00109672 17 
0.462246 0.0591267 0.00173873 18 
0.462601 0.0591238 0.00252172 19 
0.464952 0.0591163 0.00249073 15 
0.467326 0.0591088 0.00245972 20 
0.460783 0.0591218 0.00603573 18 
0.467181 0.0591049 0.00438872 23 
0.463642 0.059111 0.00673573 22 
0.470236 0.0590936 0.00504072 17 
0.467979 0.0590967 0.00687173 19 
0.464147 0.0591035 0.00931172 25 
0.466396 0.0590962 0.00935572 24 
0.46384 0.0591001 0.0112787 23 
0.466143 0.0590926 0.0113087 21 
0.467947 0.0590863 0.0115397 26 
0.467214 0.0590859 0.0127487 29 
0.465225 0.0590885 0.0144337 22 
0.466504 0.0590834 0.0148697 30 
0.465778 0.059083 0.0160667 26 
0.46683 0.0590785 0.0165937 30 
0.469625 0.0590698 0.0164727 29 
0.469878 0.0590671 0.0173067 28 
0.469027 0.059067 0.0185467 30 
0.469628 0.0590635 0.0192507 33 
0.469533 0.0590616 0.0202097 34 
0.469787 0.0590589 0.0210417 30 
0.471208 0.0590534 0.0214517 34 
0.471406 0.0590509 0.0223067 31 
0.470903 0.05905 0.0234117 35 
0.473271 0.0590422 0.0234937 33 
0.472765 0.0590413 0.0245997 38 
0.471967 0.0590412 0.0258057 40 
0.471991 0.059039 0.0267207 31 
0.475259 0.059029 0.0265087 31 
0.474809 0.059028 0.0275927 38 
0.477156 0.0590202 0.0277137 42 
0.474859 0.0590237 0.0294277 41 
0.474412 0.0590227 0.0305047 36 
0.476218 0.0590162 0.0308187 39 
0.474465 0.0590184 0.0323327 47 
0.475974 0.0590126 0.0327517 45 
0.479054 0.0590029 0.0326567 43 
0.476327 0.0590075 0.0344837 43 
0.476654 0.0590047 0.0353007 37 
0.475613 0.0590052 0.0365627 45 
0.478686 0.0589954 0.0364897 43 
0.475732 0.0590007 0.0383647 45 
0.476534 0.0589966 0.0390277 40 
0.475024 0.0589983 0.0404277 45 
0.475884 0.0589941 0.0410727 43 
0.478419 0.0589857 0.0411957 44 
0.477673 0.0589855 0.0423497 40 
0.480047 0.0589774 0.0425347 42 
0.478098 0.0589802 0.0440577 39 
0.47676 0.0589816 0.0453857 39 
0.476498 0.0589801 0.0463807 49 
0.477067 0.0589766 0.0471237 46 
0.477579 0.0589733 0.0478847 46 
0.477674 0.058971 0.0487717 42 
0.475693 0.058974 0.0502727 45 
0.476499 0.0589698 0.0509457 54 
0.476952 0.0589666 0.0517247 45 
0.475687 0.0589678 0.0530027 48 
0.47608 0.0589648 0.0537977 44 
0.476119 0.0589626 0.0546947 48 
0.475509 0.0589621 0.0557747 56 
0.475255 0.0589607 0.0567527 56 
0.47377 0.0589625 0.0580727 61 
0.474455 0.0589587 0.0587827 59 
0.474614 0.0589563 0.0596407 63 
0.473195 0.0589579 0.0609317 58 
0.475051 0.0589511 0.0613237 57 
0.473222 0.0589538 0.0627187 64 
0.473208 0.0589518 0.0636197 61 
0.472903 0.0589506 0.0645967 64 
0.473239 0.0589477 0.0654027 67 
0.474043 0.0589436 0.0660867 69 
0.473739 0.0589424 0.0670617 70 
0.474077 0.0589394 0.0678687 70 
0.472959 0.0589404 0.0690507 67 
0.472253 0.0589402 0.0701217 65 
0.472706 0.058937 0.0708977 69 
0.471887 0.0589372 0.0719927 72 
0.472283 0.0589341 0.0727827 75 
0.471063 0.0589354 0.0739717 73 
0.471805 0.0589314 0.0746747 77 
0.471395 0.0589305 0.0756607 76 
0.470871 0.0589299 0.0766717 85 
0.470521 0.0589288 0.0776387 92 
0.47 0.0589282 0.0786437 83 
0.469939 0.0589264 0.0795387 83 
0.470107 0.058924 0.0803787 88 
0.469704 0.0589231 0.0813517 93 
0.46896 0.0589231 0.0824007 91 
0.469471 0.0589198 0.0831597 94 
0.469584 0.0589175 0.0840107 90 
0.469812 0.0589149 0.0848357 101 
0.469185 0.0589146 0.0858517 99 
0.469185 0.0589126 0.0867257 105 
0.468845 0.0589116 0.0876734 105 
0.46953 0.0589077 0.088398 103 
0.468566 0.0589084 0.0894779 102 
0.469193 0.0589047 0.0902156 107 
0.46778 0.0589066 0.0913848 101 
0.467841 0.0589045 0.0922406 101 
0.466887 0.0589052 0.0933057 102 
0.466892 0.0589032 0.0941703 106 
0.46673 0.0589017 0.0950685 103 
0.466344 0.0589008 0.0960105 106 
0.465903 0.0589001 0.0969615 113 
0.466415 0.0588967 0.0977224 113 
0.466648 0.0588941 0.0985393 106 
0.465873 0.0588943 0.0995516 110 
0.465995 0.0588921 0.100389 111 
0.465725 0.0588909 0.1013 113 
0.466128 0.0588878 0.102084 112 
0.466644 0.0588844 0.102847 118 
0.4666 0.0588826 0.103716 115 
