0.413354,-0.204581,0.0830703,175
0.412665,-0.204135,0.0837839,182
0.413497,-0.204679,0.0848355,176
0.412335,-0.203925,0.0854402,176
0.412692,-0.20416,0.0863872,174
0.412291,-0.203901,0.0871614,178
0.413171,-0.204476,0.088233,177
0.413627,-0.204775,0.0892091,175
0.413893,-0.204951,0.0901427,170
0.41183,-0.20361,0.0905193,175
0.412236,-0.203877,0.0914851,180
0.411744,-0.203559,0.0922336,174
0.41201,-0.203734,0.0931673,181
0.411708,-0.20354,0.0939615,181
0.412449,-0.204025,0.0950167,184
0.412005,-0.203738,0.0957756,186
0.411894,-0.203668,0.0966181,179
0.411169,-0.203199,0.0973021,181
0.411862,-0.203653,0.0983528,184
0.412132,-0.20383,0.0992959,190
0.412117,-0.203823,0.100165,185
0.412103,-0.203816,0.101036,180
0.412137,-0.203841,0.101919,182
0.41184,-0.203649,0.102713,182
0.412064,-0.203798,0.10365,179
0.411294,-0.203299,0.104313,180
0.410621,-0.202863,0.105001,178
0.41061,-0.202858,0.105871,182
0.410835,-0.203007,0.10681,178
0.410118,-0.202543,0.10748,180
0.410343,-0.202692,0.10842,173
0.409816,-0.202351,0.109142,181
0.409854,-0.202378,0.110028,175
0.409422,-0.202099,0.110777,176
0.409602,-0.202218,0.111706,174
0.409688,-0.202277,0.112608,178
0.409586,-0.202213,0.113454,176
0.409344,-0.202058,0.114258,182
0.409291,-0.202026,0.11512,182
0.409144,-0.201932,0.115953,175
0.409044,-0.20187,0.1168,181
0.40843,-0.201472,0.117486,171
0.407819,-0.201076,0.118171,173
0.407116,-0.200621,0.118825,180
0.406833,-0.200439,0.119611,174
0.406597,-0.200288,0.120411,178
0.406408,-0.200167,0.121226,178
0.406127,-0.199987,0.122011,172
0.405939,-0.199867,0.122825,174
0.405337,-0.199477,0.123502,172
0.404507,-0.198939,0.124101,167
0.404596,-0.199,0.125006,169
0.404319,-0.198821,0.125788,173
0.404364,-0.198853,0.126679,172
0.403447,-0.198258,0.12724,169
0.403447,-0.19826,0.128115,175
0.403309,-0.198173,0.128943,172
0.40208,-0.197375,0.129388,170
0.401673,-0.197112,0.130118,168
0.401401,-0.196938,0.130895,171
0.40095,-0.196646,0.131608,169
0.400455,-0.196326,0.132303,171
0.400546,-0.196388,0.133209,170
0.399157,-0.195485,0.133576,167
0.399247,-0.195547,0.13448,171
0.398936,-0.195347,0.135237,170
0.398938,-0.19535,0.13611,164
0.397915,-0.194686,0.1366,167
0.398854,-0.1953,0.137825,165
0.398589,-0.19513,0.138599,164
0.398727,-0.195222,0.139525,167
0.398597,-0.195139,0.140351,164
0.397754,-0.194593,0.140901,158
0.397714,-0.194569,0.14176,157
0.397807,-0.194632,0.142671,159
0.397278,-0.19429,0.143339,156
0.398308,-0.194963,0.144622,159
0.39818,-0.194882,0.14545,157
0.397473,-0.194424,0.146046,154
0.398819,-0.195303,0.147466,153
0.397709,-0.194582,0.147898,152
0.39776,-0.194618,0.1488,153
0.397678,-0.194567,0.149647,153
0.397552,-0.194488,0.150477,149
0.397516,-0.194466,0.151344,151
0.397212,-0.194271,0.1521,148
0.397399,-0.194395,0.153061,144
0.397408,-0.194403,0.153949,144
0.397908,-0.194731,0.155047,141
0.397873,-0.194711,0.155919,141
0.398152,-0.194895,0.156926,132
0.39776,-0.194642,0.157646,129
0.39786,-0.194709,0.158578,123
0.397736,-0.194631,0.159414,124
0.398601,-0.195197,0.160684,130
0.398838,-0.195354,0.161682,125
0.39885,-0.195364,0.162582,128
0.399767,-0.195964,0.163886,125
0.399282,-0.195651,0.164568,124
0.399341,-0.195691,0.165493,124
0.399446,-0.195762,0.166439,124
0.400186,-0.196247,0.167677,122
0.400247,-0.196288,0.168608,117
0.400353,-0.19636,0.169561,127
0.400004,-0.196135,0.170304,118
0.400795,-0.196653,0.171577,122
0.400675,-0.196577,0.172429,118
0.400966,-0.196769,0.173474,114
0.400754,-0.196634,0.174284,109
0.401827,-0.197335,0.175704,112
0.402029,-0.197469,0.176714,101
0.402048,-0.197484,0.177638,106
0.401744,-0.197289,0.178408,108
0.402178,-0.197574,0.179535,110
0.401644,-0.197228,0.180193,110
0.402449,-0.197755,0.181504,101
0.401915,-0.19741,0.182162,97
0.403372,-0.198362,0.183803,98
0.404093,-0.198834,0.185087,99
0.404443,-0.199064,0.186189,103
0.404091,-0.198837,0.186941,104
0.40416,-0.198885,0.187905,101
0.404183,-0.198903,0.188847,108
0.4043,-0.198982,0.189838,98
0.4047,-0.199244,0.190975,91
0.405478,-0.199754,0.19231,93
0.405881,-0.200019,0.193456,94
0.406475,-0.200409,0.194704,92
0.406359,-0.200336,0.195585,88
0.405959,-0.200077,0.196317,91
0.406222,-0.200252,0.197398,100
0.406487,-0.200427,0.198482,93
0.4068,-0.200633,0.199594,126
0.407019,-0.200779,0.200659,91
0.407,-0.200769,0.201597,88
0.407651,-0.201195,0.202898,89
0.396543,-0.188787,-0.207751,15
0.397135,-0.189166,-0.20716,12
0.399641,-0.190766,-0.207638,13
0.395351,-0.188034,-0.20432,15
0.400384,-0.191246,-0.206193,8
0.400436,-0.191281,-0.205293,16
0.402472,-0.192582,-0.205483,12
0.394935,-0.187778,-0.200428,15
0.402344,-0.192505,-0.20355,8
0.397324,-0.189307,-0.199898,17
0.400193,-0.191138,-0.200529,16
0.397927,-0.189696,-0.198389,16
0.397304,-0.189301,-0.19714,15
0.401132,-0.191745,-0.198263,15
0.398043,-0.189777,-0.195704,19
0.402208,-0.192436,-0.196986,18
0.398378,-0.189996,-0.194052,21
0.399385,-0.19064,-0.193665,17
0.40145,-0.19196,-0.193824,14
0.400589,-0.191413,-0.192459,15
0.400508,-0.191364,-0.191501,20
0.402169,-0.192426,-0.191438,21
0.400027,-0.191062,-0.189427,20
0.399674,-0.190839,-0.188336,21
0.40405,-0.193633,-0.189637,22
0.402027,-0.192345,-0.187699,18
0.405003,-0.194246,-0.188274,21
0.402417,-0.192599,-0.186066,22
0.402383,-0.192579,-0.185135,20
0.401431,-0.191975,-0.183753,23
0.402039,-0.192365,-0.183142,24
0.401914,-0.192288,-0.182171,26
0.404652,-0.194037,-0.182592,23
0.403691,-0.193426,-0.181212,19
0.404817,-0.194147,-0.180842,19
0.40418,-0.193743,-0.179624,23
0.402854,-0.1929,-0.178082,19
0.40393,-0.193588,-0.177684,22
0.402057,-0.192396,-0.175892,23
0.404468,-0.193936,-0.176119,24
0.403511,-0.193328,-0.174764,28
0.40385,-0.193547,-0.174016,28
0.405861,-0.194832,-0.174039,31
0.405271,-0.194458,-0.172858,28
0.40473,-0.194115,-0.171703,30
0.405815,-0.19481,-0.171291,30
0.40518,-0.194407,-0.170097,26
0.406314,-0.195133,-0.169703,31
0.406051,-0.194968,-0.168678,32
0.407519,-0.195907,-0.168426,27
0.406973,-0.195561,-0.167277,30
0.408165,-0.196324,-0.166895,32
0.406915,-0.195529,-0.16544,33
0.406793,-0.195454,-0.164483,35
0.40888,-0.196787,-0.164483,36
0.407721,-0.19605,-0.163077,35
0.40854,-0.196575,-0.162523,38
0.410359,-0.197738,-0.162393,39
0.409287,-0.197056,-0.16103,37
0.408928,-0.19683,-0.159974,37
0.408949,-0.196846,-0.159079,40
0.409394,-0.197132,-0.158362,39
0.410173,-0.197632,-0.157781,41
0.411337,-0.198377,-0.157356,39
0.4105,-0.197845,-0.156107,42
0.410903,-0.198104,-0.155367,43
0.411545,-0.198516,-0.154723,43
0.41238,-0.199052,-0.154154,42
0.412163,-0.198916,-0.153162,43
0.411803,-0.198689,-0.152114,42
0.412305,-0.199011,-0.151409,45
0.413385,-0.199703,-0.15093,49
0.412832,-0.199352,-0.149809,49
0.412904,-0.199401,-0.148934,46
0.414277,-0.20028,-0.148561,50
0.413916,-0.200051,-0.147517,49
0.414569,-0.200471,-0.146862,50
0.413629,-0.199873,-0.145602,53
0.414862,-0.200663,-0.145164,51
0.416152,-0.201488,-0.144743,57
0.41419,-0.200238,-0.143108,48
0.415621,-0.201154,-0.142735,50
0.414438,-0.200401,-0.141398,48
0.415628,-0.201163,-0.140932,50
0.416093,-0.201463,-0.140198,53
0.417686,-0.202481,-0.139869,49
0.416394,-0.201659,-0.138502,49
0.417058,-0.202086,-0.137836,48
0.417283,-0.202232,-0.137013,56
0.417509,-0.202378,-0.13619,52
0.417246,-0.202213,-0.135196,53
0.417766,-0.202547,-0.134475,58
0.419125,-0.203417,-0.13404,58
0.419948,-0.203945,-0.133417,64
0.420377,-0.204221,-0.132657,64
0.42031,-0.20418,-0.131729,62
0.420591,-0.204362,-0.130918,58
0.41993,-0.203942,-0.129794,54
0.420608,-0.204378,-0.129115,64
0.422288,-0.205452,-0.128762,65
0.422072,-0.205317,-0.127785,64
0.422407,-0.205533,-0.126987,67
0.422894,-0.205846,-0.126238,59
0.42313,-0.206,-0.125407,66
0.42377,-0.206411,-0.124703,68
0.42416,-0.206662,-0.123918,71
0.42445,-0.206849,-0.123101,73
0.424235,-0.206715,-0.122128,74
0.424728,-0.207032,-0.121373,78
0.425578,-0.207577,-0.120725,74
0.42582,-0.207734,-0.11989,67
0.427187,-0.208609,-0.119392,73
0.426766,-0.208343,-0.118356,77
0.426602,-0.20824,-0.117399,78
0.426694,-0.208302,-0.116518,75
0.427247,-0.208657,-0.115771,71
0.427596,-0.208882,-0.114964,80
0.426922,-0.208454,-0.113863,83
0.427477,-0.208811,-0.113114,84
0.428341,-0.209365,-0.11245,84
0.428437,-0.209428,-0.111569,84
0.430186,-0.210548,-0.111145,81
0.429093,-0.209852,-0.109934,84
0.430225,-0.210577,-0.109334,85
0.430375,-0.210676,-0.108464,84
0.430681,-0.210874,-0.107636,83
0.432294,-0.211906,-0.107154,85
0.431558,-0.211438,-0.106047,84
0.432024,-0.211738,-0.105257,85
0.431811,-0.211605,-0.104291,88
0.432122,-0.211806,-0.10346,93
0.433484,-0.212678,-0.102896,93
0.433061,-0.21241,-0.101876,89
0.433113,-0.212445,-0.100976,92
0.434482,-0.213322,-0.100404,94
0.434006,-0.213021,-0.0993734,88
0.434799,-0.21353,-0.0986537,93
0.434166,-0.213127,-0.0975873,91
0.434695,-0.213468,-0.096802,92
0.435227,-0.21381,-0.0960151,88
0.435441,-0.213949,-0.0951522,96
0.435179,-0.213784,-0.0941782,101
0.435501,-0.213992,-0.09334,97
0.436143,-0.214405,-0.0925737,105
0.437054,-0.214989,-0.0918657,104
0.437648,-0.215371,-0.0910832,107
0.436638,-0.214728,-0.0899446,109
0.436644,-0.214734,-0.089033,107
0.436597,-0.214707,-0.0881105,113
0.437406,-0.215226,-0.0873716,105
0.437736,-0.215439,-0.086528,111
0.436888,-0.2149,-0.0854371,111
0.437646,-0.215387,-0.0846829,118
0.437709,-0.215429,-0.0837835,112
0.437613,-0.21537,-0.0828518,114
0.43757,-0.215345,-0.0819318,115
0.437742,-0.215458,-0.081055,122
0.437541,-0.215331,-0.0801046,114
0.437875,-0.215547,-0.0792593,118
0.437513,-0.215319,-0.0782798,126
0.4371,-0.215057,-0.0772925,126
0.437062,-0.215035,-0.0763775,123
0.437504,-0.21532,-0.075552,126
0.437307,-0.215197,-0.0746081,128
0.437056,-0.215039,-0.073656,122
0.437501,-0.215325,-0.072829,129
0.437305,-0.215203,-0.071888,129
0.43727,-0.215183,-0.0709761,129
0.438306,-0.215847,-0.0702481,120
0.437149,-0.215111,-0.0691452,129
0.43749,-0.215331,-0.0682977,131
0.437298,-0.21521,-0.0673613,133
0.437106,-0.21509,-0.0664262,136
0.436969,-0.215005,-0.065501,139
0.436726,-0.214852,-0.0645601,138
0.437122,-0.215108,-0.0637202,139
0.436774,-0.214888,-0.0627645,135
0.437651,-0.215451,-0.0619962,128
0.436665,-0.214823,-0.0609465,134
0.436744,-0.214876,-0.060058,137
0.436665,-0.214828,-0.0591465,137
0.436162,-0.214509,-0.0581753,137
0.435819,-0.214293,-0.0572292,141
0.436166,-0.214516,-0.05638,139
0.435931,-0.214368,-0.0554505,140
0.435749,-0.214255,-0.0545297,141
0.436627,-0.214818,-0.0537489,147
0.43502,-0.213794,-0.0526439,145
0.434999,-0.213783,-0.0517474,149
0.435137,-0.213874,-0.0508712,138
0.43496,-0.213763,-0.0499559,148
0.434994,-0.213787,-0.0490672,142
0.434608,-0.213543,-0.048129,146
0.434958,-0.213769,-0.047278,143
0.434626,-0.213559,-0.0463482,144
0.434033,-0.213183,-0.0453912,145
0.43428,-0.213343,-0.0445285,149
0.433429,-0.212801,-0.0435477,149
0.433885,-0.213095,-0.0427077,152
0.433924,-0.213122,-0.0418232,154
0.433911,-0.213117,-0.0409335,151
0.433586,-0.212911,-0.0400135,150
0.432845,-0.21244,-0.0390553,149
0.433095,-0.212602,-0.0381933,154
0.433189,-0.212665,-0.0373162,153
0.433023,-0.212561,-0.0364158,151
0.432963,-0.212525,-0.0355253,154
0.432279,-0.212091,-0.0345826,157
0.431806,-0.211791,-0.0336603,158
0.432421,-0.212186,-0.0328279,155
0.430762,-0.211128,-0.031815,162
0.432306,-0.212117,-0.0310531,156
0.432302,-0.212117,-0.0301702,160
0.431728,-0.211753,-0.0292468,162
0.43188,-0.211852,-0.0283764,164
0.431154,-0.211391,-0.0274466,151
0.431256,-0.211458,-0.0265738,163
0.430021,-0.210671,-0.0256168,160
0.429764,-0.210509,-0.0247247,160
0.42956,-0.210381,-0.0238368,162
0.429356,-0.210253,-0.02295,165
0.427984,-0.209379,-0.0220012,170
0.428392,-0.209642,-0.0211507,167
0.427684,-0.209192,-0.0202432,168
0.426829,-0.208648,-0.0193319,159
0.426581,-0.208492,-0.0184519,167
0.426636,-0.208529,-0.0175861,172
0.42639,-0.208374,-0.0167079,176
0.426295,-0.208316,-0.0158367,178
0.4261,-0.208194,-0.0149623,173
0.424806,-0.207369,-0.0140514,174
0.424864,-0.207408,-0.0131893,176
0.423976,-0.206844,-0.012299,178
0.423737,-0.206693,-0.0114305,174
0.423747,-0.206701,-0.0105693,179
0.423707,-0.206678,-0.0097071,181
0.423421,-0.206498,-0.00883989,182
0.422888,-0.20616,-0.00796937,181
0.422851,-0.206138,-0.00710942,183
0.422764,-0.206085,-0.00624896,180
0.421842,-0.205498,-0.00537874,183
0.421121,-0.205039,-0.00451459,180
0.420744,-0.204801,-0.00365629,185
0.420807,-0.204844,-0.00280211,186
0.420432,-0.204606,-0.00194618,184
0.420302,-0.204525,-0.00109217,183
0.420319,-0.204538,-0.000238584,188
0.419947,-0.204303,0.000613836,177
0.41977,-0.204192,0.0014657,187
0.419691,-0.204144,0.00231755,183
0.419419,-0.203972,0.00316719,181
0.419051,-0.203739,0.0040145,184
0.419216,-0.203847,0.00486783,185
0.418849,-0.203615,0.00571318,183
0.418677,-0.203507,0.0065606,182
0.417255,-0.2026,0.00738129,185
0.418335,-0.203293,0.00825336,183
0.417396,-0.202695,0.00907934,183
0.417371,-0.202681,0.00992632,183
0.41639,-0.202056,0.0107449,183
0.415985,-0.2018,0.0115777,187
0.41601,-0.201818,0.0124233,180
0.416035,-0.201836,0.0132691,182
0.415775,-0.201673,0.0141042,183
0.415897,-0.201753,0.0149538,184
0.415544,-0.201529,0.0157836,181
0.415096,-0.201245,0.0166078,182
0.414084,-0.2006,0.0174034,179
0.413688,-0.20035,0.0182251,176
0.41433,-0.200763,0.0190988,179
0.413229,-0.200061,0.0198817,180
0.412696,-0.199722,0.0206916,178
0.414516,-0.200888,0.0216363,180
0.413321,-0.200126,0.022407,176
0.413212,-0.200059,0.0232406,178
0.412541,-0.199632,0.0240374,184
0.41234,-0.199506,0.0248629,182
0.411999,-0.19929,0.025678,177
0.412547,-0.199643,0.0265553,183
0.412161,-0.199398,0.0273663,179
0.412242,-0.199452,0.0282113,182
0.411857,-0.199208,0.0290204,185
0.412033,-0.199323,0.0298731,182
0.412117,-0.199379,0.030719,180
0.411873,-0.199226,0.0315378,186
0.411678,-0.199103,0.03236,182
0.411203,-0.198802,0.0331566,178
0.411755,-0.199156,0.0340449,176
0.411841,-0.199213,0.0348924,180
0.4116,-0.199062,0.0357093,178
0.410942,-0.198644,0.0364844,183
0.410704,-0.198494,0.0372989,184
0.412284,-0.199506,0.0382985,188
0.412514,-0.199655,0.0391643,191
0.412556,-0.199685,0.0400113,190
0.412178,-0.199445,0.0408129,189
0.410869,-0.19861,0.0415097,187
0.411425,-0.198968,0.0424123,189
0.412452,-0.199627,0.043372,187
0.412779,-0.199838,0.0442542,186
0.412122,-0.19942,0.0450199,187
0.412215,-0.199482,0.0458748,189
0.411982,-0.199335,0.0466896,190
0.412451,-0.199638,0.0475927,187
0.412031,-0.199371,0.0483835,184
0.41236,-0.199584,0.0492711,189
0.412035,-0.199378,0.0500731,184
0.412507,-0.199682,0.050982,183
0.412557,-0.199717,0.0518353,185
0.412327,-0.199572,0.0526497,180
0.41205,-0.199397,0.0534569,180
0.411962,-0.199343,0.0542904,179
0.412389,-0.199619,0.0551994,189
0.411833,-0.199265,0.0559643,181
0.412027,-0.199392,0.0568403,187
0.412316,-0.199578,0.0577321,183
0.412418,-0.199646,0.0585964,179
0.41252,-0.199714,0.0594617,180
0.412294,-0.199571,0.0602751,185
0.412586,-0.19976,0.0611719,185
0.412455,-0.199679,0.0620009,186
0.412512,-0.199718,0.0628611,189
0.412806,-0.199908,0.0637617,184
0.412771,-0.199887,0.0646078,193
0.413066,-0.200079,0.0655114,186
0.412843,-0.199938,0.0663257,185
0.412998,-0.20004,0.0672066,181
0.4132,-0.200172,0.0680972,185
0.413262,-0.200213,0.0689633,186
0.413419,-0.200316,0.0698478,187
0.413198,-0.200177,0.0706627,188
0.413262,-0.20022,0.0715309,186
0.413184,-0.200172,0.0723727,186
0.413201,-0.200186,0.0732329,184
0.413124,-0.200139,0.0740753,184
0.413095,-0.200122,0.0749272,180
0.413255,-0.200227,0.0758174,181
0.413038,-0.200091,0.0766322,180
0.413342,-0.200287,0.0775532,182
0.413362,-0.200303,0.0784173,181
0.413525,-0.200409,0.0793119,178
0.414022,-0.200729,0.0802781,178
0.413569,-0.200441,0.0810441,181
0.413638,-0.200489,0.0819215,181
0.413709,-0.200536,0.0827998,179
0.413685,-0.200523,0.083658,180
0.413377,-0.200328,0.0844533,180
0.413449,-0.200376,0.0853332,177
0.413616,-0.200486,0.0862357,181
0.413214,-0.200231,0.0870087,179
0.413003,-0.200098,0.0878246,179
0.413219,-0.200239,0.0887401,178
0.413436,-0.20038,0.0896572,185
0.413274,-0.200278,0.0904853,184
0.413065,-0.200147,0.0913019,179
0.413093,-0.200167,0.0921759,179
0.413407,-0.200371,0.0931206,184
0.41263,-0.199876,0.093797,181
0.412754,-0.199958,0.0946957,180
0.412595,-0.199858,0.095524,181
0.412816,-0.200001,0.0964488,185
0.412184,-0.1996,0.0971562,190
0.411932,-0.199441,0.0979597,181
0.411822,-0.199373,0.0987999,183
0.412044,-0.199517,0.0997273,184
0.411557,-0.199208,0.100468,183
0.411591,-0.199232,0.101347,183
0.411153,-0.198954,0.102098,179
0.411187,-0.198978,0.102978,180
0.411128,-0.198942,0.103832,184
0.411163,-0.198967,0.104712,182
0.411057,-0.198902,0.105554,183
0.410951,-0.198837,0.106396,181
0.410424,-0.198501,0.107119,178
0.410554,-0.198587,0.108028,178
0.410497,-0.198553,0.108884,179
0.410394,-0.198489,0.109727,177
0.410009,-0.198246,0.110487,175
0.408878,-0.197524,0.111026,174
0.40915,-0.1977,0.111978,172
0.408816,-0.197489,0.11275,171
0.408808,-0.197486,0.11362,171
0.408242,-0.197126,0.11432,171
0.408515,-0.197303,0.115276,173
0.407997,-0.196974,0.115989,171
0.407898,-0.196913,0.116831,173
0.408078,-0.197031,0.117761,176
0.40733,-0.196554,0.118398,171
0.406262,-0.195873,0.118931,175
0.405843,-0.195608,0.119668,174
0.405655,-0.195489,0.120478,174
0.405422,-0.195342,0.121274,180
0.405464,-0.195372,0.122159,175
0.405369,-0.195313,0.123,177
0.405229,-0.195226,0.123825,172
0.405318,-0.195285,0.124728,176
0.404171,-0.194554,0.125215,173
0.404993,-0.195082,0.126366,175
0.403894,-0.194381,0.126865,179
0.403164,-0.193916,0.127486,171
0.402936,-0.193772,0.128279,169
0.402527,-0.193513,0.129008,171
0.401848,-0.193081,0.12964,168
0.401397,-0.192794,0.130351,167
0.400902,-0.19248,0.131045,171
0.400498,-0.192224,0.13177,168
0.400364,-0.19214,0.132591,167
0.400141,-0.192,0.13338,168
0.399874,-0.191831,0.134153,164
0.399696,-0.19172,0.134957,166
0.399922,-0.191866,0.135911,167
0.398941,-0.191241,0.136418,167
0.399569,-0.191645,0.137523,163
0.399885,-0.19185,0.138514,165
0.399486,-0.191596,0.139236,162
0.398686,-0.191087,0.139804,160
0.398868,-0.191206,0.140747,163
0.398738,-0.191125,0.14157,158
0.39852,-0.190987,0.142359,159
0.399732,-0.191766,0.143707,162
0.398485,-0.19097,0.144094,160
0.398535,-0.191004,0.144989,159
0.398318,-0.190868,0.145779,155
0.398681,-0.191102,0.146801,156
0.398598,-0.191052,0.147646,156
0.398159,-0.190773,0.148347,152
0.398881,-0.191237,0.149519,144
0.398709,-0.19113,0.15033,149
0.398404,-0.190937,0.151086,148
0.399398,-0.191576,0.152379,146
0.398913,-0.191268,0.153061,145
0.399191,-0.191448,0.154062,143
0.399066,-0.19137,0.154895,137
0.399166,-0.191436,0.155823,137
0.399221,-0.191474,0.156734,137
0.399591,-0.191713,0.157781,138
0.399827,-0.191867,0.158772,138
0.399343,-0.191559,0.159453,133
0.39958,-0.191713,0.160447,124
0.399096,-0.191406,0.161127,131
0.399468,-0.191647,0.162183,131
0.399842,-0.191888,0.163242,132
0.399358,-0.191581,0.163922,128
0.399597,-0.191736,0.164923,128
0.400153,-0.192095,0.166071,125
0.400849,-0.192543,0.167284,122
0.400363,-0.192234,0.167964,118
0.400651,-0.192421,0.168996,119
0.400894,-0.192579,0.17001,118
0.401457,-0.192942,0.171174,118
0.401382,-0.192896,0.172045,111
0.402361,-0.193526,0.173409,114
0.402332,-0.19351,0.174305,105
0.402442,-0.193582,0.175268,110
0.402367,-0.193537,0.176144,100
0.402064,-0.193345,0.176911,107
0.402681,-0.193743,0.17812,104
0.402653,-0.193728,0.179021,102
0.402903,-0.19389,0.180058,108
0.403525,-0.194291,0.181278,113
0.403453,-0.194247,0.182162,106
0.404124,-0.194679,0.183413,109
0.405407,-0.195504,0.18497,103
0.404074,-0.194652,0.185234,102
0.405922,-0.195838,0.187082,97
0.405099,-0.195314,0.187599,102
0.404888,-0.195181,0.188421,95
0.405052,-0.195288,0.189433,99
0.405639,-0.195667,0.190663,94
0.406324,-0.196108,0.191946,100
0.406443,-0.196187,0.192943,94
0.406847,-0.196449,0.194089,96
0.407348,-0.196772,0.195288,93
0.406567,-0.196274,0.195821,97
0.407592,-0.196933,0.197298,95
0.407048,-0.196587,0.197954,95
0.407313,-0.196759,0.199038,123
0.407913,-0.197146,0.200302,97
0.408564,-0.197566,0.201597,101
0.409363,-0.19808,0.202976,92
0.395989,-0.184397,-0.206614,9
0.399747,-0.186755,-0.207797,11
0.399205,-0.186418,-0.206569,16
0.396726,-0.184866,-0.20427,15
0.400908,-0.187489,-0.20566,10
0.400593,-0.187295,-0.20456,7
0.401241,-0.187703,-0.20399,15
0.399328,-0.186507,-0.202023,18
0.396719,-0.184874,-0.199689,17
0.404176,-0.18955,-0.202799,15
0.396333,-0.184638,-0.197658,16
0.397732,-0.185517,-0.197496,15
0.397471,-0.185356,-0.196444,15
0.399376,-0.186552,-0.196542,16
0.400751,-0.187416,-0.196352,22
0.399213,-0.186455,-0.194628,17
0.399676,-0.186747,-0.193957,12
0.398735,-0.18616,-0.192556,14
0.398295,-0.185886,-0.191418,23
0.401026,-0.187601,-0.191917,19
0.399626,-0.186726,-0.190286,19
0.402054,-0.18825,-0.190615,22
0.399694,-0.186773,-0.188503,19
0.402213,-0.188354,-0.188868,25
0.402868,-0.188767,-0.188284,19
0.404266,-0.189646,-0.18807,17
0.401241,-0.187752,-0.185648,19
0.40452,-0.18981,-0.186364,22
0.403837,-0.189384,-0.185112,24
0.404729,-0.189946,-0.184637,20
0.405206,-0.190247,-0.183956,23
0.402264,-0.188405,-0.181613,21
0.402644,-0.188646,-0.180891,22
0.403946,-0.189465,-0.18061,25
0.405769,-0.19061,-0.180574,21
0.402731,-0.188708,-0.178216,26
0.403987,-0.189498,-0.177907,27
0.402623,-0.188645,-0.176357,23
0.403694,-0.189319,-0.175957,20
0.403203,-0.189013,-0.174824,21
0.404277,-0.189689,-0.174421,26
0.40457,-0.189875,-0.173652,28
0.404956,-0.190119,-0.172926,31
0.406039,-0.190801,-0.172517,32
0.406382,-0.191018,-0.171767,29
0.408225,-0.192176,-0.171695,30
0.406042,-0.19081,-0.169804,30
0.406152,-0.190881,-0.16895,29
0.407148,-0.191509,-0.168491,26
0.406652,-0.1912,-0.167367,31
0.40709,-0.191477,-0.166657,32
0.407108,-0.19149,-0.165763,34
0.40736,-0.191651,-0.164971,37
0.408739,-0.192518,-0.164666,36
0.408852,-0.192591,-0.163811,33
0.409531,-0.19302,-0.163198,33
0.408749,-0.192531,-0.16196,31
0.409759,-0.193167,-0.161486,35
0.409637,-0.193093,-0.160531,36
0.410225,-0.193464,-0.159875,41
0.411338,-0.194164,-0.159436,43
0.410076,-0.193376,-0.158008,37
0.410145,-0.193421,-0.157135,36
0.411591,-0.19433,-0.156827,39
0.409904,-0.193275,-0.155237,34
0.411491,-0.194272,-0.154981,43
0.412181,-0.194707,-0.154357,42
0.410161,-0.193443,-0.152646,42
0.411988,-0.194591,-0.152476,43
0.412154,-0.194698,-0.151641,43
0.411606,-0.194356,-0.150525,41
0.413062,-0.195272,-0.150196,45
0.412464,-0.1949,-0.149063,42
0.413639,-0.195638,-0.148618,47
0.41376,-0.195717,-0.147763,48
0.414459,-0.196157,-0.147129,44
0.413618,-0.195633,-0.14591,54
0.414076,-0.195922,-0.145184,45
0.414103,-0.195941,-0.144295,45
0.416549,-0.197478,-0.144307,50
0.415362,-0.196736,-0.142964,50
0.415729,-0.196968,-0.142199,45
0.415466,-0.196806,-0.141203,47
0.416075,-0.19719,-0.140526,46
0.416007,-0.19715,-0.139601,52
0.416035,-0.19717,-0.138713,51
0.416939,-0.19774,-0.138137,48
0.417115,-0.197852,-0.1373,55
0.418417,-0.198671,-0.136858,59
0.417663,-0.198201,-0.135693,61
0.417841,-0.198314,-0.134856,61
0.418312,-0.198613,-0.13412,54
0.417512,-0.198113,-0.132947,59
0.41921,-0.199181,-0.132627,59
0.418408,-0.19868,-0.131456,60
0.418931,-0.19901,-0.130734,58
0.420295,-0.199868,-0.13029,58
0.419145,-0.199149,-0.12901,64
0.420807,-0.200194,-0.128658,63
0.419952,-0.19966,-0.127479,59
0.420777,-0.20018,-0.126848,64
0.420961,-0.200298,-0.126009,65
0.421941,-0.200915,-0.125422,68
0.421281,-0.200503,-0.124313,59
0.422512,-0.201278,-0.123802,68
0.422299,-0.201147,-0.122835,67
0.422337,-0.201173,-0.121947,67
0.422674,-0.201387,-0.121152,66
0.423062,-0.201633,-0.120372,64
0.424104,-0.202289,-0.119788,71
0.424243,-0.202379,-0.118929,71
0.424082,-0.20228,-0.11798,70
0.424575,-0.202591,-0.117227,71
0.424918,-0.202809,-0.116427,73
0.425717,-0.203313,-0.11576,77
0.425354,-0.203088,-0.114753,77
0.425497,-0.20318,-0.113894,76
0.426503,-0.203813,-0.113281,79
0.426394,-0.203747,-0.112348,81
0.427507,-0.204447,-0.111759,80
0.42796,-0.204734,-0.110982,78
0.427035,-0.204156,-0.109824,83
0.427538,-0.204475,-0.109061,81
0.428044,-0.204794,-0.108297,85
0.428192,-0.20489,-0.107436,87
0.429884,-0.205953,-0.106985,84
0.428696,-0.205211,-0.105766,84
0.43034,-0.206245,-0.105296,83
0.43101,-0.206667,-0.104565,91
0.431527,-0.206994,-0.103793,91
0.430694,-0.206474,-0.102674,98
0.431418,-0.206931,-0.101953,92
0.431989,-0.207291,-0.101191,92
0.432458,-0.207588,-0.100402,81
0.43178,-0.207165,-0.0993288,91
0.431468,-0.206972,-0.0983485,91
0.432928,-0.20789,-0.0977986,94
0.432512,-0.207631,-0.096793,90
0.433036,-0.207962,-0.0960131,96
0.433877,-0.208493,-0.0953059,100
0.434774,-0.209058,-0.0946085,101
0.433988,-0.208567,-0.0935192,98
0.433519,-0.208276,-0.0925066,96
0.435525,-0.209536,-0.0920561,98
0.43479,-0.209078,-0.0909835,103
0.434954,-0.209183,-0.0901138,91
0.434697,-0.209024,-0.0891514,93
0.435125,-0.209295,-0.0883397,98
0.434763,-0.209071,-0.0873566,99
0.435246,-0.209376,-0.0865552,103
0.436154,-0.209948,-0.0858416,98
0.436269,-0.210023,-0.0849593,102
0.436172,-0.209964,-0.0840334,108
0.436766,-0.21034,-0.0832491,115
0.436777,-0.210349,-0.082345,115
0.436576,-0.210225,-0.081399,120
0.436482,-0.210168,-0.0804755,122
0.436123,-0.209946,-0.0795013,120
0.436136,-0.209956,-0.0786007,123
0.436044,-0.209901,-0.0776805,123
0.436589,-0.210245,-0.0768808,124
0.437348,-0.210724,-0.0761191,122
0.436301,-0.21007,-0.0750226,121
0.435894,-0.209817,-0.0740473,123
0.436758,-0.210361,-0.0733021,124
0.437414,-0.210775,-0.0725165,127
0.436317,-0.210089,-0.071422,132
0.43623,-0.210037,-0.070507,131
0.436091,-0.209952,-0.0695839,131
0.437065,-0.210566,-0.0688491,134
0.436026,-0.209916,-0.0677762,132
0.435625,-0.209667,-0.0668127,133
0.436069,-0.209948,-0.0659879,132
0.435933,-0.209865,-0.0650691,136
0.436115,-0.209981,-0.0642011,140
0.435242,-0.209436,-0.0631694,138
0.435004,-0.209289,-0.0622386,140
0.435029,-0.209307,-0.0613489,138
0.434897,-0.209226,-0.0604362,141
0.435028,-0.209311,-0.0595628,138
0.435003,-0.209298,-0.0586666,144
0.435083,-0.20935,-0.0577858,139
0.435637,-0.209701,-0.056971,143
0.43514,-0.209391,-0.0560099,145
0.43454,-0.209017,-0.0550374,139
0.434885,-0.209235,-0.0541932,140
0.434287,-0.208863,-0.0532247,141
0.434005,-0.208688,-0.0522997,140
0.434769,-0.20917,-0.0515083,144
0.433236,-0.20821,-0.0504289,147
0.433061,-0.208102,-0.0495219,142
0.433043,-0.208093,-0.0486348,147
0.433493,-0.208378,-0.0478029,147
0.433217,-0.208207,-0.0468856,142
0.432889,-0.208004,-0.045964,142
0.432873,-0.207996,-0.0450787,145
0.432082,-0.207502,-0.0441094,149
0.432533,-0.207787,-0.0432761,150
0.434235,-0.208858,-0.0425713,144
0.431732,-0.207289,-0.0414304,148
0.432132,-0.207543,-0.0405904,157
0.431914,-0.207408,-0.0396886,154
0.431852,-0.207371,-0.0388028,151
0.431532,-0.207173,-0.0378935,149
0.4307,-0.206653,-0.0369392,149
0.431359,-0.207069,-0.036121,145
0.431402,-0.207098,-0.0352469,151
0.430368,-0.206452,-0.0342819,152
0.430515,-0.206546,-0.0334186,158
0.430458,-0.206512,-0.0325386,154
0.430298,-0.206415,-0.031651,157
0.430754,-0.206703,-0.0308108,152
0.430647,-0.206638,-0.0299275,154
0.429774,-0.206093,-0.0289902,157
0.429568,-0.205965,-0.0281029,157
0.428853,-0.205519,-0.0271827,160
0.428294,-0.20517,-0.0262759,163
0.428141,-0.205076,-0.025397,161
0.428039,-0.205015,-0.0245219,163
0.42809,-0.205049,-0.0236563,163
0.427485,-0.204671,-0.022754,163
0.427587,-0.204738,-0.0218924,166
0.427237,-0.20452,-0.0210071,167
0.426686,-0.204177,-0.0201137,167
0.426389,-0.203992,-0.0192346,164
0.426644,-0.204154,-0.0183818,164
0.426097,-0.203813,-0.0174937,168
0.425552,-0.203474,-0.0166082,171
0.424811,-0.20301,-0.0157176,173
0.425017,-0.203142,-0.0148645,173
0.424328,-0.202712,-0.0139802,172
0.423594,-0.202253,-0.0130976,177
0.424394,-0.202757,-0.0122636,178
0.424502,-0.202828,-0.0114073,177
0.423917,-0.202462,-0.010533,174
0.422448,-0.201542,-0.00964103,176
0.421969,-0.201243,-0.0087761,175
0.421784,-0.20113,-0.00791882,179
0.421649,-0.201047,-0.00706319,188
0.421613,-0.201027,-0.00620958,182
0.42143,-0.200914,-0.0053544,186
0.421102,-0.200711,-0.00449858,181
0.42136,-0.200875,-0.00364874,188
0.421034,-0.200672,-0.00279453,189
0.420757,-0.2005,-0.00194193,184
0.419173,-0.199508,-0.00108902,183
0.419093,-0.19946,-0.00024148,182
0.419207,-0.199533,0.000606342,184
0.418501,-0.199093,0.00145026,183
0.418279,-0.198955,0.00229477,179
0.419406,-0.199666,0.00315153,184
0.417837,-0.198682,0.00398101,177
0.417426,-0.198426,0.00482003,179
0.417446,-0.198441,0.00566435,178
0.417084,-0.198216,0.00650174,176
0.417106,-0.198232,0.00734552,177
0.416937,-0.198128,0.0081851,177
0.416435,-0.197815,0.00901565,178
0.416554,-0.197892,0.00986098,178
0.416149,-0.19764,0.0106915,182
0.417031,-0.198196,0.011561,183
0.416293,-0.197735,0.0123797,178
0.415322,-0.197127,0.0131868,182
0.415585,-0.197294,0.0140369,175
0.414336,-0.196512,0.0148272,180
0.414268,-0.196472,0.0156624,182
0.413966,-0.196284,0.016487,178
0.413478,-0.195979,0.0173015,176
0.413459,-0.19597,0.0181372,173
0.413722,-0.196138,0.0189873,180
0.41333,-0.195893,0.0198036,181
0.413266,-0.195855,0.0206367,178
0.413719,-0.196142,0.0214995,182
0.412766,-0.195546,0.02228,187
0.412518,-0.195392,0.0231002,186
0.412596,-0.195443,0.0239407,183
0.412023,-0.195085,0.0247382,179
0.412569,-0.195431,0.0256104,178
0.412556,-0.195425,0.0264454,180
0.413526,-0.196037,0.0273526,180
0.411972,-0.195062,0.0280737,182
0.411449,-0.194736,0.0288683,175
0.411578,-0.194819,0.0297128,181
0.41194,-0.195049,0.0305771,183
0.411977,-0.195074,0.0314158,181
0.411502,-0.194778,0.0322108,184
0.411912,-0.195038,0.0330822,183
0.411439,-0.194743,0.0338754,189
0.411525,-0.194799,0.0347187,181
0.411704,-0.194914,0.0355715,190
0.41221,-0.195234,0.0364571,192
0.411645,-0.194881,0.0372386,187
0.411872,-0.195026,0.0380984,187
0.413082,-0.195789,0.0390616,188
0.413924,-0.19632,0.0399913,188
0.413028,-0.195759,0.0407366,185
0.412931,-0.195701,0.0415666,180
0.413585,-0.196114,0.0424811,187
0.412739,-0.195585,0.0432262,185
0.412691,-0.195557,0.0440614,181
0.414146,-0.196474,0.0450762,189
0.413628,-0.19615,0.0458576,189
0.414099,-0.196448,0.0467595,194
0.413912,-0.196333,0.0475808,191
0.412973,-0.195745,0.0483052,191
0.413962,-0.196369,0.0492772,186
0.414059,-0.196432,0.0501356,187
0.412652,-0.19555,0.0507918,184
0.413783,-0.196263,0.05179,187
0.412753,-0.195618,0.0524926,188
0.413227,-0.195918,0.0534037,187
0.413232,-0.195924,0.0542498,186
0.41385,-0.196314,0.0551857,184
0.413527,-0.196113,0.0559852,186
0.413769,-0.196268,0.0568687,186
0.413729,-0.196245,0.0577105,184
0.413313,-0.195986,0.0584943,183
0.413698,-0.19623,0.0594024,183
0.413189,-0.195913,0.0601701,182
0.413953,-0.196395,0.0611414,185
0.414152,-0.196522,0.0620241,182
0.413691,-0.196234,0.0627984,182
0.414221,-0.19657,0.0637379,185
0.414091,-0.196491,0.0645675,178
0.41434,-0.19665,0.0654623,184
0.4144,-0.19669,0.0663257,180
0.414366,-0.196671,0.067173,185
0.41438,-0.196682,0.0680292,185
0.414679,-0.196872,0.0689375,186
0.414126,-0.196526,0.0696909,181
0.414236,-0.196598,0.0705657,186
0.414489,-0.196759,0.0714683,183
0.414696,-0.196891,0.0723636,180
0.41457,-0.196815,0.0731963,182
0.414493,-0.196768,0.0740383,182
0.414796,-0.196961,0.0749553,182
0.415053,-0.197125,0.0758648,181
0.414644,-0.19687,0.0766418,181
0.414379,-0.196706,0.0774466,179
0.41497,-0.19708,0.0784271,183
0.414848,-0.197005,0.0792623,182
0.414489,-0.196782,0.0800474,179
0.414321,-0.196679,0.080872,181
0.414106,-0.196546,0.0816862,175
0.414699,-0.196921,0.0826755,177
0.414627,-0.196878,0.083522,175
0.414414,-0.196746,0.0843372,178
0.414248,-0.196644,0.0851626,178
0.41413,-0.196572,0.0859987,179
0.414298,-0.19668,0.0869,180
0.414087,-0.19655,0.0877149,179
0.414018,-0.196509,0.0885627,186
0.414759,-0.196977,0.0896011,184
0.414739,-0.196966,0.0904627,188
0.414528,-0.196837,0.0912791,183
0.414652,-0.196917,0.0921759,186
0.413635,-0.196279,0.092795,188
0.413096,-0.195943,0.093528,181
0.412747,-0.195726,0.0943064,176
0.413155,-0.195985,0.0952738,184
0.413044,-0.195917,0.096112,188
0.412791,-0.19576,0.096914,187
0.412964,-0.195872,0.0978253,180
0.413518,-0.196222,0.0988369,185
0.41199,-0.195263,0.0993054,178
0.411834,-0.195168,0.100131,179
0.411914,-0.19522,0.101019,180
0.411806,-0.195155,0.101857,181
0.411746,-0.195119,0.102709,181
0.411122,-0.194729,0.103406,183
0.411815,-0.195167,0.104465,180
0.410208,-0.194159,0.104887,177
0.410196,-0.194154,0.10575,178
0.410185,-0.194149,0.106614,172
0.409428,-0.193675,0.107266,173
0.409371,-0.193642,0.108116,169
0.409501,-0.193726,0.10902,173
0.409305,-0.193605,0.109831,177
0.408831,-0.193309,0.110559,175
0.409194,-0.19354,0.111534,175
0.408118,-0.192865,0.112082,175
0.40774,-0.19263,0.112835,175
0.407132,-0.19225,0.113518,170
0.406756,-0.192016,0.114269,171
0.406657,-0.191956,0.115104,173
0.406283,-0.191723,0.115854,173
0.406231,-0.191693,0.116704,170
0.405721,-0.191374,0.11741,168
0.40622,-0.19169,0.118434,174
0.405894,-0.191487,0.119198,169
0.405614,-0.191314,0.119975,173
0.405061,-0.190968,0.120664,170
0.404327,-0.190509,0.121291,172
0.404233,-0.190452,0.122126,172
0.404548,-0.190652,0.123097,171
0.404363,-0.190538,0.123903,171
0.404224,-0.190453,0.124725,173
0.404085,-0.190368,0.125546,171
0.403583,-0.190055,0.126244,174
0.402631,-0.189458,0.126786,174
0.403308,-0.189886,0.127886,174
0.401816,-0.18895,0.128238,173
0.401366,-0.188669,0.128946,168
0.40132,-0.188643,0.129796,166
0.400782,-0.188306,0.130472,167
0.400603,-0.188196,0.131274,172
0.399621,-0.187581,0.131788,171
0.400559,-0.188173,0.132991,162
0.399845,-0.187726,0.133599,165
0.399891,-0.187757,0.134482,163
0.399848,-0.187733,0.135334,165
0.399315,-0.1874,0.136004,164
0.399763,-0.187684,0.137039,159
0.400571,-0.188194,0.138211,158
0.400484,-0.188142,0.13905,153
0.400757,-0.188316,0.140026,158
0.399731,-0.187673,0.140507,156
0.399155,-0.187313,0.141158,157
0.399337,-0.18743,0.1421,153
0.399297,-0.187407,0.142956,157
0.39957,-0.187581,0.143936,158
0.399084,-0.187278,0.14462,148
0.399402,-0.18748,0.14562,150
0.399677,-0.187655,0.146605,151
0.399594,-0.187605,0.147448,145
0.399108,-0.187302,0.14813,145
0.399652,-0.187647,0.149228,142
0.39948,-0.187541,0.150037,145
0.399757,-0.187717,0.15103,142
0.399675,-0.187668,0.151878,138
0.400178,-0.187987,0.152968,134
0.400322,-0.18808,0.153912,141
0.400692,-0.188315,0.154952,139
0.399756,-0.187729,0.155443,136
0.399901,-0.187822,0.156389,127
0.400046,-0.187916,0.157337,129
0.399877,-0.187811,0.158152,124
0.400248,-0.188047,0.1592,132
0.399809,-0.187773,0.159898,126
0.40018,-0.18801,0.16095,120
0.401097,-0.188589,0.162243,117
0.40111,-0.188599,0.163142,125
0.400941,-0.188496,0.163962,125
0.400818,-0.188421,0.164802,135
0.400923,-0.188489,0.165744,137
0.401664,-0.188958,0.166975,135
0.401132,-0.188625,0.167633,129
0.401556,-0.188895,0.168725,129
0.402119,-0.189251,0.169884,122
0.401998,-0.189177,0.170731,119
0.402242,-0.189334,0.171747,117
0.401892,-0.189116,0.172489,107
0.402734,-0.189648,0.173788,102
0.403303,-0.190009,0.174964,95
0.40406,-0.190487,0.176231,103
0.404171,-0.19056,0.177197,111
0.403773,-0.190312,0.17792,109
0.403376,-0.190064,0.178643,102
0.403765,-0.190311,0.179745,103
0.404713,-0.19091,0.18112,114
0.404826,-0.190984,0.182094,111
0.4055,-0.191411,0.183344,104
0.404495,-0.190781,0.183771,104
0.405216,-0.191237,0.185049,102
0.406363,-0.191961,0.186543,98
0.406197,-0.19186,0.187387,101
0.406079,-0.191788,0.188255,95
0.406432,-0.192012,0.189361,95
0.406314,-0.19194,0.190232,97
0.406668,-0.192166,0.191343,92
0.40707,-0.192422,0.192482,96
0.40719,-0.192499,0.193478,95
0.408023,-0.193026,0.194844,91
0.408573,-0.193375,0.196068,92
0.408218,-0.193154,0.196824,96
0.408531,-0.193354,0.197929,95
0.408941,-0.193614,0.199088,52
0.409065,-0.193695,0.200099,93
0.410103,-0.194351,0.201597,94
0.410712,-0.194737,0.202872,93
0.39783,-0.181531,-0.20684,9
0.399784,-0.182737,-0.207008,12
0.401942,-0.184068,-0.20728,12
0.39446,-0.179463,-0.202227,11
0.400121,-0.182952,-0.204427,11
0.399582,-0.182622,-0.203211,13
0.404559,-0.185689,-0.205,9
0.399144,-0.182357,-0.201136,17
0.402117,-0.18419,-0.201824,16
0.400385,-0.183126,-0.199972,16
0.402408,-0.184374,-0.200135,17
0.402646,-0.184523,-0.19934,16
0.402331,-0.184332,-0.198253,18
0.399421,-0.182542,-0.1958,12
0.400201,-0.183025,-0.195298,16
0.400939,-0.183482,-0.194771,13
0.399722,-0.182735,-0.193225,15
0.399145,-0.182382,-0.192018,16
0.401424,-0.183788,-0.192284,15
0.400979,-0.183516,-0.191144,17
0.402681,-0.184567,-0.191102,17
0.400183,-0.183031,-0.188922,15
0.401194,-0.183656,-0.188526,16
0.402714,-0.184594,-0.188382,21
0.401992,-0.184153,-0.187111,20
0.403657,-0.18518,-0.187031,23
0.402428,-0.184426,-0.185511,18
0.403542,-0.185114,-0.185153,19
0.402179,-0.184277,-0.183575,22
0.402557,-0.184513,-0.182855,23
0.401931,-0.184129,-0.181646,19
0.405581,-0.18638,-0.182507,21
0.402004,-0.184179,-0.179876,23
0.401836,-0.184078,-0.178895,25
0.405203,-0.186154,-0.179598,20
0.4061,-0.186709,-0.179115,22
0.404077,-0.185465,-0.177253,20
0.403311,-0.184996,-0.175991,26
0.4054,-0.186285,-0.176065,26
0.402473,-0.184485,-0.173803,28
0.40506,-0.18608,-0.1741,23
0.404706,-0.185865,-0.173036,29
0.405184,-0.186162,-0.172354,29
0.404003,-0.185436,-0.170916,26
0.406515,-0.186987,-0.171155,27
0.404773,-0.185915,-0.169469,24
0.406828,-0.187184,-0.169491,30
0.407032,-0.187312,-0.16868,32
0.405333,-0.186268,-0.167027,32
0.408657,-0.188318,-0.167594,26
0.405323,-0.186266,-0.16523,27
0.403552,-0.185177,-0.163564,32
0.409606,-0.18891,-0.165297,28
0.407747,-0.187767,-0.163593,31
0.409172,-0.188647,-0.163305,34
0.410182,-0.189272,-0.162834,35
0.408039,-0.187954,-0.161024,33
0.408761,-0.188401,-0.160432,34
0.409958,-0.189141,-0.160035,38
0.409319,-0.18875,-0.15887,40
0.409575,-0.18891,-0.158078,39
0.41002,-0.189186,-0.157364,38
0.411366,-0.190018,-0.157018,35
0.411673,-0.190209,-0.156243,38
0.410557,-0.189525,-0.154892,39
0.412383,-0.190652,-0.15473,41
0.410744,-0.189644,-0.153174,45
0.411525,-0.190128,-0.152589,42
0.412261,-0.190584,-0.151984,40
0.413048,-0.191071,-0.151396,42
0.412308,-0.190618,-0.150208,48
0.412047,-0.190459,-0.14921,40
0.414078,-0.191713,-0.1491,40
0.413528,-0.191376,-0.14799,46
0.413792,-0.191542,-0.147194,44
0.41377,-0.19153,-0.146288,39
0.414324,-0.191874,-0.145601,44
0.414302,-0.191863,-0.144696,47
0.414809,-0.192178,-0.143989,50
0.416479,-0.193209,-0.143711,51
0.415056,-0.192334,-0.142288,52
0.416049,-0.192949,-0.141755,54
0.415593,-0.192671,-0.140693,55
0.415429,-0.192572,-0.139738,51
0.415409,-0.192562,-0.138837,54
0.415342,-0.192523,-0.137919,57
0.415999,-0.19293,-0.137259,54
0.414969,-0.192297,-0.136003,59
0.414807,-0.1922,-0.135056,57
0.416428,-0.193202,-0.134729,57
0.416508,-0.193253,-0.133864,51
0.416152,-0.193036,-0.13285,55
0.416765,-0.193416,-0.132168,53
0.417428,-0.193827,-0.1315,55
0.418288,-0.19436,-0.130897,62
0.418957,-0.194775,-0.130226,63
0.417965,-0.194165,-0.129003,65
0.418779,-0.19467,-0.12838,65
0.419352,-0.195025,-0.127674,66
0.420025,-0.195443,-0.126999,67
0.420504,-0.19574,-0.126258,63
0.419752,-0.195279,-0.125123,61
0.419641,-0.195213,-0.124196,64
0.421848,-0.196575,-0.123999,63
0.420944,-0.196021,-0.122821,61
0.420784,-0.195924,-0.121878,62
0.421266,-0.196224,-0.121134,67
0.421849,-0.196585,-0.12042,75
0.422383,-0.196917,-0.119689,72
0.422125,-0.19676,-0.118717,70
0.422711,-0.197124,-0.117999,71
0.4228,-0.197181,-0.117132,72
0.422542,-0.197025,-0.116163,71
0.422931,-0.197267,-0.115385,73
0.423521,-0.197633,-0.114663,71
0.423813,-0.197815,-0.113854,73
0.424205,-0.198059,-0.113073,81
0.423848,-0.197841,-0.112078,75
0.424843,-0.198457,-0.111466,72
0.424285,-0.198116,-0.110417,77
0.426696,-0.199605,-0.110192,80
0.42573,-0.199011,-0.10903,79
0.426129,-0.19926,-0.108244,81
0.42663,-0.199571,-0.107485,82
0.426271,-0.199352,-0.106494,79
0.426875,-0.199727,-0.105761,84
0.427582,-0.200165,-0.105053,84
0.427528,-0.200134,-0.104143,88
0.428595,-0.200795,-0.103524,88
0.428032,-0.20045,-0.102483,80
0.429103,-0.201112,-0.101861,78
0.429409,-0.201303,-0.101041,83
0.429306,-0.201242,-0.100118,86
0.429255,-0.201213,-0.0992097,89
0.429717,-0.2015,-0.0984274,90
0.431314,-0.202488,-0.0979195,95
0.429924,-0.201633,-0.0966859,103
0.430543,-0.202017,-0.0959381,102
0.431527,-0.202626,-0.095274,101
0.431426,-0.202566,-0.0943525,98
0.432103,-0.202986,-0.093612,98
0.431847,-0.202831,-0.0926551,99
0.432422,-0.203188,-0.0918886,100
0.432843,-0.20345,-0.0910853,100
0.432745,-0.203391,-0.0901648,96
0.43348,-0.203847,-0.0894292,97
0.433748,-0.204014,-0.0885887,98
0.433598,-0.203925,-0.0876573,102
0.433606,-0.203932,-0.0867607,104
0.434294,-0.204358,-0.0860084,102
0.434041,-0.204205,-0.0850566,106
0.433633,-0.203955,-0.084074,106
0.433591,-0.203932,-0.0831688,108
0.435172,-0.204909,-0.0825935,101
0.434816,-0.204692,-0.0816229,104
0.435037,-0.204831,-0.080769,104
0.43484,-0.204712,-0.0798323,102
0.435325,-0.205013,-0.0790294,100
0.435497,-0.205121,-0.0781646,105
0.435143,-0.204906,-0.0771998,107
0.434895,-0.204755,-0.076257,107
0.435804,-0.205318,-0.0755296,116
0.435767,-0.205298,-0.0746258,118
0.435205,-0.204954,-0.0736276,117
0.434593,-0.204579,-0.0726235,127
0.435608,-0.205207,-0.071909,128
0.435311,-0.205026,-0.0709622,129
0.435488,-0.205137,-0.0700984,132
0.435455,-0.205119,-0.0691987,135
0.43537,-0.205069,-0.0682909,136
0.435181,-0.204955,-0.0673665,140
0.43578,-0.205327,-0.0665718,140
0.435749,-0.205311,-0.0656736,135
0.434619,-0.204615,-0.0646015,132
0.43459,-0.2046,-0.0637069,138
0.434405,-0.204488,-0.0627888,137
0.434064,-0.20428,-0.0618481,138
0.434611,-0.20462,-0.0610422,137
0.433855,-0.204156,-0.060042,142
0.433361,-0.203854,-0.0590836,136
0.434116,-0.204322,-0.0583064,143
0.433208,-0.203764,-0.0572918,148
0.433133,-0.20372,-0.056397,149
0.432903,-0.20358,-0.0554817,143
0.432673,-0.203441,-0.0545679,141
0.432755,-0.203494,-0.0536964,140
0.432218,-0.203165,-0.0527444,143
0.432249,-0.203187,-0.0518677,144
0.431406,-0.202669,-0.0508814,143
0.431233,-0.202565,-0.0499818,144
0.431318,-0.202619,-0.0491143,147
0.431146,-0.202516,-0.0482162,142
0.430975,-0.202413,-0.0473193,143
0.430345,-0.202026,-0.0463708,146
0.429973,-0.201799,-0.0454542,145
0.430315,-0.202012,-0.0446182,148
0.430301,-0.202006,-0.0437425,148
0.42993,-0.201779,-0.0428293,147
0.430121,-0.201899,-0.0419762,147
0.429701,-0.201643,-0.0410606,145
0.429588,-0.201575,-0.0401774,150
0.429882,-0.201759,-0.0393345,148
0.429261,-0.201378,-0.0384037,150
0.428643,-0.200999,-0.0374761,151
0.428736,-0.201058,-0.0366156,150
0.428272,-0.200775,-0.0357059,152
0.428214,-0.200741,-0.0348333,156
0.428308,-0.200801,-0.0339739,149
0.428049,-0.200644,-0.0330854,158
0.428194,-0.200736,-0.0322304,155
0.427987,-0.20061,-0.0313477,158
0.427781,-0.200486,-0.0304661,156
0.427626,-0.200392,-0.0295893,157
0.42707,-0.200051,-0.0286849,158
0.427117,-0.200083,-0.0278245,157
0.426865,-0.199929,-0.0269441,163
0.426663,-0.199807,-0.0260682,161
0.425464,-0.19907,-0.0251315,159
0.426112,-0.199472,-0.0243107,163
0.425863,-0.19932,-0.0234354,161
0.424969,-0.198771,-0.0225255,168
0.424971,-0.198774,-0.0216675,160
0.42428,-0.19835,-0.0207741,164
0.424332,-0.198385,-0.0199202,161
0.424138,-0.198267,-0.0190547,159
0.424587,-0.198546,-0.0182188,168
0.423998,-0.198186,-0.017337,163
0.423757,-0.198039,-0.0164718,160
0.42332,-0.197771,-0.0156003,163
0.423523,-0.197899,-0.0147538,163
0.423137,-0.197663,-0.0138866,171
0.423341,-0.197791,-0.0130398,171
0.422809,-0.197465,-0.0121705,173
0.423407,-0.197837,-0.0113344,171
0.422191,-0.197088,-0.0104502,178
0.422348,-0.197187,-0.00960275,172
0.422358,-0.197196,-0.00875168,177
0.422272,-0.197145,-0.00789879,175
0.420822,-0.196252,-0.00702398,184
0.420834,-0.196262,-0.00617628,179
0.420459,-0.196033,-0.00532389,182
0.420328,-0.195954,-0.00447554,186
0.4201,-0.195816,-0.00362704,186
0.41997,-0.195738,-0.00278007,182
0.420275,-0.195928,-0.00193513,188
0.419904,-0.195702,-0.00108807,189
0.419534,-0.195476,-0.000242616,187
0.418398,-0.194776,0.000598787,184
0.417745,-0.194376,0.00143786,182
0.418769,-0.19501,0.00228678,181
0.417352,-0.194138,0.00311644,179
0.416895,-0.193858,0.00395139,178
0.416772,-0.193784,0.00478909,180
0.416413,-0.193564,0.00562244,180
0.416623,-0.193697,0.00646479,183
0.416075,-0.193361,0.00729248,181
0.416382,-0.193552,0.00813729,179
0.415788,-0.193188,0.00896105,181
0.415528,-0.193029,0.00979132,180
0.415598,-0.193075,0.0106302,179
0.414821,-0.192597,0.0114428,182
0.415931,-0.193285,0.0123156,183
0.414729,-0.192545,0.0131105,177
0.41532,-0.192912,0.0139684,176
0.414217,-0.192233,0.0147609,174
0.413588,-0.191847,0.0155688,179
0.413288,-0.191664,0.0163887,181
0.413316,-0.191683,0.0172227,178
0.413437,-0.191761,0.0180615,182
0.413606,-0.191867,0.0189034,183
0.413589,-0.191859,0.0197362,187
0.413245,-0.191649,0.0205509,179
0.413182,-0.191612,0.0213805,178
0.412979,-0.191489,0.0222016,181
0.413337,-0.191712,0.0230567,180
0.412996,-0.191504,0.0238687,181
0.412982,-0.191497,0.024701,182
0.412503,-0.191204,0.0255015,184
0.413002,-0.191514,0.0263693,187
0.41271,-0.191336,0.0271818,184
0.412931,-0.191475,0.0280316,191
0.413013,-0.191528,0.0288719,189
0.413189,-0.191638,0.0297202,194
0.413038,-0.191548,0.0305428,188
0.412702,-0.191342,0.0313493,189
0.413253,-0.191685,0.0322309,192
0.413058,-0.191566,0.0330492,188
0.414173,-0.192257,0.0339854,188
0.413042,-0.191561,0.0347187,190
0.413035,-0.191559,0.0355538,189
0.412889,-0.191471,0.0363755,190
0.412883,-0.191469,0.0372108,190
0.413158,-0.191641,0.0380747,189
0.412733,-0.191381,0.0388676,185
0.412868,-0.191467,0.0397182,185
0.413098,-0.191611,0.0405797,186
0.413095,-0.191611,0.0414169,188
0.413139,-0.191641,0.0422596,185
0.413324,-0.191757,0.0431188,185
0.41351,-0.191874,0.0439793,187
0.413275,-0.191731,0.0447908,185
0.413228,-0.191705,0.0456242,184
0.413696,-0.191996,0.0465213,182
0.413322,-0.191767,0.0473151,182
0.413698,-0.192002,0.0482032,185
0.413185,-0.191687,0.0489777,184
0.413609,-0.191951,0.0498741,189
0.413565,-0.191926,0.0507099,192
0.413615,-0.191959,0.0515586,192
0.414701,-0.192633,0.0525514,192
0.413952,-0.192172,0.0532909,188
0.415279,-0.192994,0.0543242,182
0.415048,-0.192853,0.0551375,183
0.414912,-0.192772,0.0559643,179
0.415014,-0.192837,0.0568262,179
0.413983,-0.192202,0.057517,179
0.41484,-0.192734,0.0584943,179
0.414282,-0.192391,0.0592547,178
0.414668,-0.192632,0.0601626,185
0.415103,-0.192903,0.0610805,182
0.413933,-0.192183,0.0617391,184
0.414982,-0.192833,0.0627593,189
0.415135,-0.19293,0.0636347,185
0.415527,-0.193174,0.0645514,183
0.415824,-0.19336,0.0654542,188
0.414651,-0.192638,0.0661029,182
0.41528,-0.193028,0.0670642,182
0.414536,-0.192571,0.0677838,184
0.415594,-0.193227,0.0688257,184
0.414992,-0.192857,0.0695694,183
0.415055,-0.192898,0.0704339,182
0.414219,-0.192384,0.0711308,180
0.41485,-0.192776,0.0721023,175
0.415009,-0.192877,0.0729866,179
0.415549,-0.193213,0.0739459,186
0.41552,-0.193197,0.0747963,185
0.415063,-0.192917,0.0755623,180
0.415748,-0.193343,0.0765557,187
0.415435,-0.193151,0.07735,182
0.414222,-0.192404,0.077959,182
0.415143,-0.192975,0.0790054,181
0.414832,-0.192785,0.0797981,176
0.415662,-0.193301,0.0808316,182
0.415589,-0.193258,0.081676,185
0.414946,-0.192863,0.0823973,181
0.414447,-0.192557,0.0831477,178
0.415326,-0.193102,0.0842004,182
0.414163,-0.192386,0.0848024,182
0.414614,-0.192667,0.085763,182
0.414071,-0.192333,0.0865,182
0.413907,-0.192234,0.0873222,180
0.413838,-0.192194,0.0881663,179
0.41396,-0.192271,0.0890549,180
0.414746,-0.192759,0.0901017,175
0.413352,-0.191901,0.0906327,178
0.413427,-0.191949,0.0915115,183
0.413361,-0.191911,0.0923569,182
0.412824,-0.191581,0.0930869,178
0.413325,-0.191893,0.094072,183
0.412977,-0.19168,0.0948479,184
0.413054,-0.19173,0.0957299,185
0.413273,-0.191868,0.096649,189
0.412503,-0.191394,0.0973156,184
0.411454,-0.190749,0.0979074,185
0.411627,-0.190857,0.0988136,180
0.41077,-0.19033,0.0994503,179
0.410615,-0.190237,0.10027,178
0.409949,-0.189828,0.100953,175
0.409703,-0.189678,0.101747,170
0.409458,-0.189529,0.10254,174
0.409817,-0.189753,0.103498,173
0.410177,-0.189977,0.10446,177
0.409374,-0.189484,0.105099,179
0.408853,-0.189164,0.105814,177
0.408703,-0.189074,0.106632,180
0.409063,-0.189298,0.107596,182
0.40961,-0.189639,0.108617,179
0.408118,-0.188719,0.109048,173
0.407694,-0.188459,0.109786,175
0.407823,-0.188541,0.110685,177
0.407998,-0.188652,0.1116,180
0.407437,-0.188307,0.112295,171
0.407337,-0.188248,0.113128,169
0.406274,-0.187593,0.113667,169
0.406542,-0.187761,0.114611,168
0.40704,-0.188071,0.115627,165
0.406299,-0.187616,0.116261,168
