ply
format ascii 1.0
comment Created by CloudCompare v2.11 alpha (Anoia)
comment Created 2025/12/9 17:12
obj_info Generated by CloudCompare!
element vertex 1464
property float x
property float y
property float z
property float scalar_Scalar_field
end_header
0.318636 -0.541026 0.230154 176 
0.317065 -0.540628 0.230888 177 
0.316544 -0.540497 0.231643 177 
0.317428 -0.540723 0.232435 174 
0.317043 -0.540627 0.233193 173 
0.317656 -0.540785 0.233982 169 
0.318364 -0.540967 0.234775 173 
0.31816 -0.540917 0.23554 173 
0.31814 -0.540914 0.23631 170 
0.317619 -0.540783 0.237061 170 
0.318101 -0.540907 0.237851 170 
0.317627 -0.540788 0.238602 173 
0.317836 -0.540843 0.239382 168 
0.318046 -0.540899 0.240163 166 
0.317801 -0.540838 0.240923 164 
0.317784 -0.540835 0.241693 165 
0.317813 -0.540845 0.242466 163 
0.317842 -0.540854 0.243239 165 
0.31769 -0.540817 0.244003 169 
0.317584 -0.540792 0.244768 165 
0.317116 -0.540674 0.245512 168 
0.318057 -0.540916 0.246341 169 
0.318089 -0.540926 0.247115 166 
0.317848 -0.540866 0.247873 164 
0.318063 -0.540923 0.24866 166 
0.317323 -0.540736 0.249382 171 
0.317903 -0.540886 0.250195 167 
0.317937 -0.540896 0.250971 164 
0.318246 -0.540977 0.251768 162 
0.318373 -0.541011 0.252552 165 
0.318089 -0.54094 0.253304 164 
0.318445 -0.541033 0.254107 167 
0.319997 -0.54143 0.255011 165 
0.319161 -0.541219 0.255719 167 
0.320258 -0.5415 0.256591 166 
0.320759 -0.541629 0.257415 169 
0.32103 -0.5417 0.25822 170 
0.320746 -0.54163 0.258975 168 
0.321111 -0.541724 0.25979 165 
0.321198 -0.541749 0.260581 165 
0.321101 -0.541726 0.261353 165 
0.321097 -0.541726 0.262135 167 
0.321418 -0.54181 0.262951 167 
0.321787 -0.541906 0.263773 171 
0.321738 -0.541895 0.264552 170 
0.321364 -0.541802 0.265296 169 
0.321502 -0.541838 0.266095 168 
0.321966 -0.541959 0.266932 170 
0.322151 -0.542008 0.267738 164 
0.323368 -0.542319 0.268666 168 
0.322619 -0.54213 0.269367 161 
0.323651 -0.542395 0.270278 159 
0.3237 -0.542409 0.271074 163 
0.32389 -0.54246 0.271888 160 
0.324081 -0.54251 0.272703 165 
0.324319 -0.542573 0.273525 163 
0.325032 -0.542756 0.27441 159 
0.324705 -0.542675 0.275162 160 
0.325515 -0.542883 0.276063 162 
0.325283 -0.542826 0.276828 165 
0.326765 -0.543205 0.277827 162 
0.326676 -0.543184 0.278613 160 
0.326874 -0.543237 0.27944 158 
0.327025 -0.543277 0.280262 160 
0.327081 -0.543293 0.28107 155 
0.328868 -0.543751 0.282133 154 
0.329313 -0.543866 0.283004 158 
0.329759 -0.543981 0.283877 162 
0.330013 -0.544048 0.284723 164 
0.329927 -0.544028 0.285518 156 
0.329987 -0.544045 0.286336 157 
0.331609 -0.54446 0.287401 161 
0.331476 -0.544428 0.288192 159 
0.331147 -0.544346 0.288951 158 
0.332239 -0.544627 0.289943 163 
0.333338 -0.544909 0.29094 166 
0.333354 -0.544915 0.29176 165 
0.333667 -0.544996 0.292631 165 
0.333931 -0.545066 0.293495 165 
0.335692 -0.545516 0.294621 164 
0.33511 -0.54537 0.295342 160 
0.33623 -0.545657 0.296364 156 
0.33645 -0.545715 0.297229 158 
0.336872 -0.545825 0.298132 156 
0.337245 -0.545922 0.299028 159 
0.336461 -0.545724 0.299711 155 
0.33749 -0.545988 0.300731 161 
0.337664 -0.546034 0.301595 161 
0.338396 -0.546223 0.302566 162 
0.337913 -0.546102 0.303305 164 
0.338038 -0.546136 0.304162 161 
0.339079 -0.546403 0.3052 160 
0.338545 -0.546269 0.305929 163 
0.338825 -0.546342 0.30682 161 
0.338699 -0.546312 0.30763 166 
0.33949 -0.546516 0.308629 164 
0.339467 -0.546512 0.309463 174 
0.339444 -0.546508 0.310296 165 
0.338911 -0.546374 0.311023 165 
0.33986 -0.546618 0.312064 169 
0.340197 -0.546706 0.312977 170 
0.340176 -0.546702 0.313815 167 
0.339848 -0.546621 0.314586 168 
0.339777 -0.546604 0.315412 170 
0.339195 -0.546458 0.316126 170 
0.339074 -0.546429 0.316941 166 
0.339875 -0.546635 0.317965 164 
0.338987 -0.546411 0.318606 173 
0.338714 -0.546343 0.319387 176 
0.339669 -0.546588 0.320452 167 
0.339191 -0.546469 0.321186 173 
0.338409 -0.546271 0.321846 174 
0.337833 -0.546126 0.322553 172 
0.337564 -0.54606 0.323332 178 
0.337346 -0.546006 0.324123 172 
0.337383 -0.546017 0.324976 179 
0.335901 -0.545641 0.325455 182 
0.337203 -0.545975 0.326622 176 
0.335421 -0.545523 0.32702 172 
0.334905 -0.545393 0.327732 179 
0.334993 -0.545418 0.328597 177 
0.33453 -0.545301 0.32932 176 
0.334468 -0.545288 0.330147 173 
0.333356 -0.545006 0.3307 175 
0.333246 -0.54498 0.331512 174 
0.334236 -0.545234 0.332616 175 
0.332229 -0.544724 0.332925 173 
0.332717 -0.544851 0.333897 180 
0.33236 -0.544761 0.334643 172 
0.331953 -0.54466 0.335374 170 
0.331647 -0.544584 0.336133 176 
0.331788 -0.544621 0.337014 170 
0.331037 -0.544432 0.337647 169 
0.329895 -0.544142 0.338169 169 
0.330233 -0.544231 0.339105 168 
0.331165 -0.54447 0.340212 163 
0.329482 -0.544043 0.340574 166 
0.328985 -0.543918 0.341272 173 
0.329175 -0.543969 0.342168 170 
0.32868 -0.543844 0.342866 167 
0.328381 -0.54377 0.343619 170 
0.328034 -0.543683 0.344358 163 
0.327542 -0.54356 0.345053 158 
0.327391 -0.543523 0.345849 155 
0.32695 -0.543412 0.346557 153 
0.327044 -0.543438 0.347428 152 
0.326943 -0.543415 0.34824 153 
0.326989 -0.543428 0.349097 151 
0.326744 -0.543368 0.349864 147 
0.326742 -0.543369 0.350708 150 
0.327667 -0.543607 0.351844 150 
0.326496 -0.54331 0.35232 147 
0.327617 -0.543598 0.353523 146 
0.326738 -0.543376 0.354089 148 
0.327177 -0.54349 0.355078 144 
0.327276 -0.543517 0.355959 144 
0.326984 -0.543445 0.356714 139 
0.328455 -0.543822 0.358048 141 
0.327378 -0.543549 0.358545 144 
0.328213 -0.543765 0.359676 142 
0.328216 -0.543767 0.360531 143 
0.327826 -0.54367 0.361255 136 
0.32842 -0.543823 0.362312 150 
0.328128 -0.543751 0.36307 143 
0.328379 -0.543817 0.364013 143 
0.328433 -0.543832 0.36489 140 
0.329525 -0.544113 0.36613 138 
0.328887 -0.543953 0.366769 137 
0.329438 -0.544095 0.367825 134 
0.329692 -0.544162 0.368779 138 
0.330097 -0.544267 0.369788 134 
0.330353 -0.544335 0.370746 141 
0.330461 -0.544364 0.371653 138 
0.330619 -0.544407 0.372579 136 
0.330778 -0.544449 0.373507 133 
0.330537 -0.54439 0.37429 130 
0.330896 -0.544484 0.375293 130 
0.332262 -0.544834 0.376673 125 
0.331568 -0.544659 0.377291 132 
0.332133 -0.544806 0.378378 125 
0.332194 -0.544823 0.379279 126 
0.332914 -0.545009 0.38043 126 
0.332875 -0.545001 0.381297 121 
0.332888 -0.545007 0.382183 123 
0.333053 -0.545051 0.383129 125 
0.333778 -0.545238 0.384294 124 
0.333436 -0.545153 0.385047 125 
0.333705 -0.545223 0.386038 124 
0.334076 -0.54532 0.387072 125 
0.334296 -0.545379 0.388048 129 
0.334926 -0.545542 0.389189 129 
0.33484 -0.545522 0.390047 132 
0.334191 -0.545358 0.390679 136 
0.334464 -0.54543 0.391682 123 
0.33561 -0.545725 0.393042 115 
0.335371 -0.545666 0.393842 111 
0.335493 -0.545699 0.394789 119 
0.335872 -0.545798 0.395845 108 
0.335685 -0.545752 0.396667 112 
0.335344 -0.545667 0.397426 111 
0.335106 -0.545608 0.398227 106 
0.334509 -0.545458 0.398877 110 
0.336334 -0.545926 0.400551 108 
0.335683 -0.545762 0.401179 106 
0.335343 -0.545677 0.401939 110 
0.335778 -0.545791 0.403031 111 
0.335386 -0.545693 0.403769 113 
0.33577 -0.545793 0.404843 117 
0.335741 -0.545788 0.405739 122 
0.335661 -0.545769 0.406613 120 
0.336358 -0.54595 0.407831 120 
0.335811 -0.545812 0.408502 114 
0.336303 -0.54594 0.409633 119 
0.33498 -0.545604 0.409956 110 
0.334488 -0.54548 0.410648 111 
0.335391 -0.545713 0.411968 110 
0.335054 -0.545629 0.41273 110 
0.334098 -0.545387 0.41321 103 
0.334175 -0.545409 0.41416 109 
0.334407 -0.54547 0.415182 139 
0.333506 -0.545242 0.415682 110 
0.332761 -0.545054 0.416252 116 
0.333352 -0.545207 0.417443 110 
0.306089 -0.534071 0.0282058 14 
0.307099 -0.53432 0.0285758 12 
0.30698 -0.534293 0.0294958 18 
0.30863 -0.5347 0.0295608 13 
0.303653 -0.533482 0.0328178 16 
0.311832 -0.535488 0.0297568 11 
0.31074 -0.535223 0.0311458 16 
0.314238 -0.536082 0.0303538 15 
0.313459 -0.535893 0.0315938 13 
0.308188 -0.534603 0.0349418 18 
0.310212 -0.535101 0.0348528 13 
0.310688 -0.53522 0.0354928 18 
0.307383 -0.534412 0.0378868 13 
0.313125 -0.535821 0.0360908 13 
0.309508 -0.534937 0.0386178 13 
0.314372 -0.536131 0.0372508 13 
0.307641 -0.534483 0.0411798 18 
0.310204 -0.535113 0.0408698 19 
0.308178 -0.534619 0.0426388 19 
0.311389 -0.535408 0.0420498 18 
0.309944 -0.535055 0.0435508 24 
0.312719 -0.535738 0.0431708 16 
0.311174 -0.535361 0.0447118 22 
0.314057 -0.536069 0.0442968 23 
0.313845 -0.536019 0.0452488 19 
0.31419 -0.536106 0.0459568 22 
0.310161 -0.53512 0.0485618 26 
0.315304 -0.536383 0.0471908 20 
0.313002 -0.535821 0.0490378 23 
0.315907 -0.536535 0.0486488 18 
0.314389 -0.536165 0.0501528 18 
0.31609 -0.536584 0.0502868 22 
0.314758 -0.536259 0.0517048 30 
0.312698 -0.535756 0.0534208 22 
0.314431 -0.536183 0.0535468 19 
0.316929 -0.536798 0.0533618 27 
0.315361 -0.536415 0.0548648 22 
0.316787 -0.536767 0.0551308 24 
0.316951 -0.536809 0.0559178 23 
0.317209 -0.536874 0.0566658 30 
0.317609 -0.536974 0.0573568 31 
0.315294 -0.536408 0.0591418 27 
0.317422 -0.536932 0.0591378 22 
0.316275 -0.536653 0.0604448 25 
0.318743 -0.53726 0.0603158 23 
0.31684 -0.536795 0.0619188 24 
0.315187 -0.536392 0.0634138 26 
0.317876 -0.537053 0.0632098 27 
0.320076 -0.537595 0.0632048 29 
0.317646 -0.537001 0.0649938 29 
0.31866 -0.537252 0.0654518 29 
0.319774 -0.537527 0.0658748 26 
0.320608 -0.537733 0.0664078 35 
0.321206 -0.537882 0.0670318 31 
0.322621 -0.538231 0.0673518 30 
0.321117 -0.537864 0.0687668 33 
0.321479 -0.537955 0.0694818 27 
0.325021 -0.538826 0.0690238 29 
0.322587 -0.538231 0.0707728 32 
0.324252 -0.538641 0.0710148 36 
0.325347 -0.538912 0.0714708 34 
0.323682 -0.538505 0.0729258 32 
0.323134 -0.538373 0.0739728 30 
0.325142 -0.538867 0.0741048 33 
0.327071 -0.539343 0.0742728 34 
0.326612 -0.539232 0.0752898 35 
0.327277 -0.539397 0.0759098 40 
0.326965 -0.539322 0.0768728 37 
0.328368 -0.539669 0.0772388 42 
0.330227 -0.540127 0.0774538 41 
0.328577 -0.539724 0.0788768 38 
0.329645 -0.539988 0.0793668 40 
0.330568 -0.540216 0.0799098 39 
0.329362 -0.539923 0.0811718 43 
0.33333 -0.540898 0.0806988 44 
0.331062 -0.540344 0.0823138 44 
0.331343 -0.540415 0.0830758 49 
0.330929 -0.540315 0.0840678 42 
0.331161 -0.540374 0.0848458 43 
0.332592 -0.540727 0.0852358 43 
0.332126 -0.540615 0.0862418 44 
0.330718 -0.540271 0.0875468 50 
0.331597 -0.540489 0.0881178 50 
0.332031 -0.540597 0.0888328 53 
0.332117 -0.54062 0.0896578 48 
0.332902 -0.540815 0.0902648 53 
0.332239 -0.540654 0.0913228 49 
0.334179 -0.541132 0.0915758 52 
0.333112 -0.540873 0.0927558 56 
0.3327 -0.540773 0.0937328 49 
0.333188 -0.540895 0.0944348 50 
0.332926 -0.540833 0.0953638 56 
0.332865 -0.54082 0.0962308 57 
0.332904 -0.540831 0.0970668 56 
0.334145 -0.541138 0.0975498 54 
0.333633 -0.541014 0.0985478 60 
0.333774 -0.541051 0.0993548 55 
0.332964 -0.540854 0.100436 61 
0.333105 -0.54089 0.101241 59 
0.333446 -0.540976 0.101989 58 
0.332341 -0.540707 0.103145 57 
0.332036 -0.540634 0.104072 58 
0.33193 -0.54061 0.104943 57 
0.333416 -0.540977 0.105373 66 
0.331868 -0.540599 0.106639 72 
0.33216 -0.540672 0.107398 70 
0.331758 -0.540576 0.108345 68 
0.331605 -0.54054 0.109224 71 
0.33091 -0.540371 0.110245 68 
0.330808 -0.540348 0.111106 72 
0.331495 -0.540519 0.11176 79 
0.331492 -0.54052 0.112595 80 
0.330308 -0.540231 0.113735 75 
0.329522 -0.54004 0.114767 69 
0.329082 -0.539934 0.115707 75 
0.328691 -0.53984 0.116633 77 
0.329081 -0.539937 0.117362 86 
0.328157 -0.539712 0.118417 82 
0.328061 -0.539691 0.119265 79 
0.328548 -0.539812 0.119969 80 
0.327386 -0.539529 0.121074 78 
0.328357 -0.539769 0.121662 80 
0.327972 -0.539677 0.122576 82 
0.327637 -0.539596 0.123476 81 
0.327737 -0.539623 0.124272 86 
0.329392 -0.540031 0.124707 88 
0.327987 -0.539688 0.125853 88 
0.32775 -0.539632 0.126726 91 
0.327998 -0.539694 0.127488 89 
0.328439 -0.539805 0.128207 86 
0.328203 -0.539749 0.129078 91 
0.327968 -0.539693 0.129947 90 
0.328362 -0.539791 0.130677 96 
0.328418 -0.539807 0.131482 94 
0.3293 -0.540026 0.132109 97 
0.329114 -0.539982 0.132966 100 
0.329853 -0.540165 0.133627 98 
0.329326 -0.540038 0.134555 97 
0.329482 -0.540078 0.135339 103 
0.329687 -0.54013 0.136113 104 
0.329843 -0.54017 0.136897 104 
0.329806 -0.540163 0.137721 100 
0.330402 -0.540312 0.138417 104 
0.330268 -0.54028 0.13926 106 
0.330866 -0.540429 0.139959 110 
0.330244 -0.540278 0.140895 112 
0.330795 -0.540416 0.141604 109 
0.331445 -0.540577 0.142296 107 
0.331067 -0.540486 0.143183 109 
0.331278 -0.54054 0.143958 106 
0.331244 -0.540534 0.144779 106 
0.331211 -0.540527 0.1456 108 
0.331521 -0.540605 0.146358 112 
0.332028 -0.540732 0.147082 113 
0.331849 -0.54069 0.147928 110 
0.33167 -0.540648 0.148772 117 
0.331688 -0.540654 0.149582 115 
0.332198 -0.540781 0.150309 116 
0.332118 -0.540764 0.151135 118 
0.332876 -0.540952 0.151822 121 
0.333241 -0.541043 0.152577 124 
0.333261 -0.54105 0.153387 119 
0.334272 -0.5413 0.15404 124 
0.3336 -0.541137 0.154961 121 
0.333524 -0.54112 0.155787 121 
0.33409 -0.541261 0.156513 125 
0.333965 -0.541232 0.157346 127 
0.334583 -0.541386 0.158066 123 
0.333765 -0.541187 0.159002 125 
0.33483 -0.541451 0.159658 131 
0.334806 -0.541447 0.160476 126 
0.334831 -0.541455 0.161286 133 
0.335604 -0.541647 0.161991 131 
0.336079 -0.541765 0.162739 126 
0.335458 -0.541615 0.163639 131 
0.335984 -0.541746 0.164382 132 
0.336063 -0.541767 0.165186 137 
0.335892 -0.541727 0.166022 137 
0.336071 -0.541773 0.166813 140 
0.33645 -0.541868 0.167578 143 
0.335982 -0.541755 0.168451 141 
0.336912 -0.541985 0.169149 138 
0.336643 -0.541921 0.169996 137 
0.336575 -0.541906 0.170817 138 
0.336808 -0.541966 0.171603 138 
0.337142 -0.542049 0.172378 141 
0.336675 -0.541937 0.173245 136 
0.336959 -0.542008 0.174025 145 
0.337295 -0.542093 0.174801 145 
0.337933 -0.542252 0.175545 140 
0.337266 -0.542089 0.17643 145 
0.337704 -0.542199 0.177197 148 
0.33764 -0.542185 0.178017 146 
0.337076 -0.542048 0.178886 146 
0.337215 -0.542084 0.179684 150 
0.337153 -0.542071 0.180502 140 
0.338045 -0.542292 0.181228 143 
0.33869 -0.542453 0.181981 147 
0.338983 -0.542527 0.182769 153 
0.337865 -0.542254 0.183682 148 
0.337305 -0.542118 0.184542 152 
0.338704 -0.542464 0.185234 152 
0.338696 -0.542464 0.186047 155 
0.337683 -0.542217 0.186942 155 
0.338129 -0.542328 0.187717 156 
0.337821 -0.542254 0.188552 157 
0.337766 -0.542243 0.189367 157 
0.33756 -0.542194 0.190192 160 
0.337757 -0.542244 0.190988 156 
0.337954 -0.542295 0.191784 154 
0.337199 -0.542111 0.192645 158 
0.337497 -0.542186 0.193434 160 
0.337395 -0.542163 0.194249 159 
0.337594 -0.542213 0.195045 158 
0.336245 -0.541883 0.195935 163 
0.335896 -0.541799 0.196762 164 
0.336096 -0.54185 0.197556 164 
0.336146 -0.541865 0.198358 164 
0.336148 -0.541867 0.199164 171 
0.335504 -0.541711 0.200002 165 
0.334122 -0.541372 0.200873 164 
0.334422 -0.541448 0.20166 166 
0.335018 -0.541597 0.202435 172 
0.335023 -0.5416 0.203237 166 
0.332813 -0.541058 0.204131 169 
0.332671 -0.541025 0.204935 167 
0.33258 -0.541004 0.205736 174 
0.33244 -0.540971 0.206539 175 
0.332105 -0.540891 0.207347 174 
0.33182 -0.540823 0.208153 179 
0.332072 -0.540887 0.208941 174 
0.329898 -0.540353 0.209798 172 
0.33136 -0.540715 0.210553 170 
0.328857 -0.540101 0.211407 172 
0.328436 -0.539999 0.212207 174 
0.328591 -0.540039 0.212993 173 
0.328315 -0.539973 0.213788 173 
0.327705 -0.539825 0.214587 174 
0.326385 -0.539502 0.215393 175 
0.32564 -0.53932 0.216188 175 
0.326032 -0.539418 0.216968 178 
0.325478 -0.539284 0.217757 174 
0.324597 -0.539069 0.218546 182 
0.325413 -0.539272 0.219324 184 
0.324392 -0.539022 0.220111 179 
0.324408 -0.539028 0.220892 178 
0.32288 -0.538653 0.221672 182 
0.322617 -0.538591 0.22245 179 
0.322541 -0.538574 0.223228 181 
0.322001 -0.538443 0.224002 177 
0.322066 -0.53846 0.224779 174 
0.319959 -0.537943 0.225535 170 
0.319656 -0.537871 0.226304 168 
0.319905 -0.537934 0.22708 173 
0.319374 -0.537805 0.227845 178 
0.319395 -0.537812 0.228617 173 
0.318958 -0.537706 0.229381 171 
0.318842 -0.537679 0.23015 176 
0.318681 -0.537641 0.230917 172 
0.318932 -0.537705 0.231694 166 
0.318726 -0.537656 0.23246 173 
0.318521 -0.537607 0.233226 171 
0.318135 -0.537514 0.233984 170 
0.318569 -0.537623 0.234769 164 
0.318594 -0.537631 0.235541 172 
0.318848 -0.537695 0.236322 172 
0.318737 -0.53767 0.23709 171 
0.317124 -0.537274 0.237795 170 
0.31847 -0.537607 0.238622 167 
0.318269 -0.53756 0.239384 166 
0.318206 -0.537546 0.240153 170 
0.318553 -0.537633 0.240941 169 
0.31808 -0.537519 0.241689 162 
0.318018 -0.537505 0.242457 165 
0.318185 -0.537548 0.243237 166 
0.317987 -0.537501 0.243998 164 
0.318656 -0.537668 0.244808 165 
0.31855 -0.537643 0.245574 168 
0.318536 -0.537642 0.246346 160 
0.318569 -0.537651 0.247121 162 
0.318967 -0.537751 0.247921 167 
0.319138 -0.537795 0.248706 167 
0.318897 -0.537738 0.249464 164 
0.320079 -0.538031 0.250323 167 
0.319333 -0.537849 0.251045 166 
0.319506 -0.537893 0.251833 165 
0.319863 -0.537983 0.252637 168 
0.319716 -0.537948 0.253402 167 
0.32086 -0.538232 0.254271 164 
0.320713 -0.538198 0.255038 165 
0.321492 -0.538391 0.255883 165 
0.321021 -0.538277 0.256623 164 
0.321153 -0.538311 0.257415 163 
0.321378 -0.538369 0.258216 166 
0.321279 -0.538346 0.258988 171 
0.321459 -0.538392 0.259786 167 
0.321919 -0.538507 0.260612 164 
0.321775 -0.538474 0.261381 168 
0.322003 -0.538532 0.262186 167 
0.322232 -0.53859 0.262994 167 
0.323774 -0.538972 0.263938 163 
0.32396 -0.539019 0.264745 170 
0.323958 -0.539021 0.265533 166 
0.324191 -0.53908 0.266347 166 
0.324426 -0.53914 0.267162 163 
0.324049 -0.539049 0.267909 167 
0.324285 -0.539109 0.268726 163 
0.324144 -0.539076 0.269499 162 
0.324664 -0.539206 0.270351 164 
0.324807 -0.539243 0.27116 164 
0.325235 -0.53935 0.272004 160 
0.325238 -0.539353 0.272798 159 
0.325099 -0.53932 0.273573 159 
0.32629 -0.539616 0.27452 157 
0.326915 -0.539772 0.275398 162 
0.326204 -0.539598 0.276101 158 
0.327356 -0.539884 0.277053 163 
0.328082 -0.540065 0.277951 168 
0.328185 -0.540092 0.278766 168 
0.328192 -0.540096 0.279568 161 
0.328008 -0.540052 0.280344 160 
0.328401 -0.540151 0.281202 155 
0.330249 -0.540608 0.282275 158 
0.328756 -0.540242 0.282861 159 
0.330317 -0.540629 0.283899 161 
0.330377 -0.540645 0.284716 158 
0.330534 -0.540686 0.285548 161 
0.331327 -0.540883 0.28648 164 
0.331682 -0.540973 0.287347 159 
0.333319 -0.541378 0.28842 158 
0.333283 -0.541371 0.28923 160 
0.333347 -0.541389 0.290056 161 
0.33351 -0.541431 0.290899 162 
0.335664 -0.541964 0.292077 160 
0.334783 -0.541748 0.292749 162 
0.335298 -0.541877 0.293657 160 
0.335615 -0.541958 0.294534 159 
0.336586 -0.542199 0.295527 158 
0.336957 -0.542292 0.296417 159 
0.336724 -0.542237 0.297202 157 
0.337551 -0.542443 0.298177 160 
0.337875 -0.542524 0.299065 163 
0.3382 -0.542606 0.299954 152 
0.339493 -0.542927 0.301026 160 
0.338752 -0.542746 0.301719 163 
0.338927 -0.542792 0.302585 164 
0.340023 -0.543064 0.30363 166 
0.339791 -0.543009 0.30442 165 
0.340072 -0.54308 0.305311 164 
0.339893 -0.543038 0.306112 160 
0.340226 -0.543122 0.307015 164 
0.340048 -0.54308 0.307817 163 
0.340383 -0.543164 0.308724 166 
0.340514 -0.543198 0.30959 170 
0.340491 -0.543195 0.310425 164 
0.340366 -0.543166 0.311239 169 
0.341012 -0.543327 0.312217 170 
0.340528 -0.54321 0.312955 170 
0.34061 -0.543232 0.313815 172 
0.341001 -0.54333 0.314743 172 
0.341033 -0.54334 0.315594 173 
0.34055 -0.543223 0.316331 175 
0.340891 -0.543309 0.317252 168 
0.340822 -0.543294 0.318081 178 
0.340701 -0.543266 0.318899 173 
0.34089 -0.543315 0.319789 178 
0.340873 -0.543312 0.320632 178 
0.340805 -0.543298 0.321463 175 
0.340841 -0.543308 0.32232 179 
0.339591 -0.543002 0.32287 168 
0.339627 -0.543013 0.323726 174 
0.338589 -0.542759 0.324321 173 
0.338269 -0.542682 0.325088 174 
0.337848 -0.54258 0.32583 172 
0.338038 -0.542629 0.326723 175 
0.337974 -0.542615 0.327553 175 
0.337402 -0.542476 0.328256 172 
0.336781 -0.542324 0.328944 169 
0.336364 -0.542224 0.329682 178 
0.335343 -0.541974 0.330264 173 
0.334929 -0.541874 0.331 169 
0.334919 -0.541873 0.331841 172 
0.33506 -0.54191 0.332723 181 
0.333695 -0.541575 0.333204 177 
0.334337 -0.541735 0.334219 172 
0.333277 -0.541475 0.334778 175 
0.332919 -0.541389 0.335524 169 
0.332313 -0.541241 0.336201 168 
0.332354 -0.541254 0.337055 172 
0.332197 -0.541217 0.337855 169 
0.331644 -0.541082 0.338543 166 
0.331736 -0.541107 0.339412 169 
0.330443 -0.54079 0.339889 170 
0.330387 -0.540778 0.340715 166 
0.331321 -0.541011 0.341827 167 
0.330228 -0.540743 0.342354 165 
0.329434 -0.540549 0.342966 166 
0.32943 -0.54055 0.343807 170 
0.329327 -0.540526 0.34462 159 
0.328783 -0.540394 0.345301 163 
0.327946 -0.540189 0.345893 158 
0.327943 -0.54019 0.346735 158 
0.327647 -0.540119 0.347487 147 
0.328084 -0.540229 0.348464 153 
0.3273 -0.540037 0.349067 155 
0.328226 -0.540268 0.350198 154 
0.327686 -0.540137 0.350875 148 
0.327978 -0.540211 0.351813 146 
0.327831 -0.540176 0.352613 144 
0.328271 -0.540287 0.353601 144 
0.327488 -0.540096 0.354199 149 
0.328468 -0.54034 0.355363 147 
0.328764 -0.540415 0.35631 150 
0.328519 -0.540356 0.357082 146 
0.329013 -0.54048 0.358097 140 
0.328228 -0.540288 0.358691 142 
0.329265 -0.540546 0.359889 145 
0.328972 -0.540476 0.360647 145 
0.329123 -0.540515 0.361554 148 
0.329275 -0.540555 0.362463 141 
0.329427 -0.540594 0.363373 146 
0.32968 -0.540659 0.364319 143 
0.329437 -0.540601 0.365095 137 
0.329988 -0.540739 0.366147 143 
0.329795 -0.540693 0.366942 137 
0.330248 -0.540807 0.367964 138 
0.330355 -0.540835 0.368867 134 
0.330212 -0.540802 0.369681 138 
0.331118 -0.541028 0.370871 138 
0.331126 -0.541032 0.371743 132 
0.332339 -0.541334 0.373051 138 
0.332751 -0.541438 0.374074 130 
0.331804 -0.541206 0.374602 139 
0.331714 -0.541185 0.375441 133 
0.332883 -0.541476 0.376748 129 
0.333248 -0.541568 0.37776 130 
0.332703 -0.541436 0.378435 131 
0.333068 -0.541528 0.37945 126 
0.33374 -0.541696 0.380584 116 
0.333905 -0.541739 0.381529 111 
0.334376 -0.541857 0.382592 114 
0.334849 -0.541976 0.383659 125 
0.334812 -0.541969 0.384531 127 
0.334622 -0.541924 0.385344 126 
0.3352 -0.542069 0.386458 132 
0.335318 -0.5421 0.387394 126 
0.335488 -0.542144 0.388352 131 
0.336586 -0.542418 0.38968 133 
0.335366 -0.542118 0.390088 123 
0.335589 -0.542175 0.391071 130 
0.335709 -0.542207 0.392014 123 
0.337018 -0.542533 0.393441 119 
0.337348 -0.542616 0.394475 110 
0.33659 -0.542431 0.395065 103 
0.337387 -0.54263 0.396293 103 
0.337043 -0.542547 0.397054 101 
0.336959 -0.542529 0.397921 104 
0.336824 -0.542497 0.398768 109 
0.336844 -0.542505 0.399681 105 
0.337698 -0.542718 0.400947 110 
0.337355 -0.542635 0.401709 112 
0.337272 -0.542617 0.402581 114 
0.337243 -0.542611 0.403477 113 
0.336329 -0.542388 0.403992 114 
0.337862 -0.542769 0.405565 110 
0.337468 -0.542673 0.406306 113 
0.337857 -0.542772 0.407389 120 
0.336942 -0.542548 0.4079 112 
0.337175 -0.542607 0.408916 112 
0.337669 -0.542732 0.41005 111 
0.33712 -0.542598 0.410722 100 
0.336207 -0.542375 0.411229 113 
0.336284 -0.542396 0.412179 112 
0.336258 -0.542391 0.413083 108 
0.336962 -0.542567 0.41432 103 
0.336832 -0.542537 0.41518 105 
0.335764 -0.542276 0.415611 136 
0.33522 -0.542143 0.416278 102 
0.335558 -0.542229 0.417354 104 
0.334755 -0.542033 0.4179 108 
0.308694 -0.531406 0.0270978 10 
0.310268 -0.53178 0.0271988 13 
0.307906 -0.531223 0.0292108 16 
0.307333 -0.53109 0.0303498 12 
0.313045 -0.532444 0.0284698 11 
0.316206 -0.533194 0.0278318 13 
0.31345 -0.532544 0.0300208 17 
0.310687 -0.531891 0.0322008 11 
0.306653 -0.530939 0.0349658 16 
0.310399 -0.531827 0.0340638 16 
0.308046 -0.531272 0.0360248 18 
0.308245 -0.531321 0.0367878 15 
0.310774 -0.531922 0.0364738 15 
0.309511 -0.531625 0.0379158 14 
0.309895 -0.531718 0.0385968 16 
0.31198 -0.532214 0.0385028 15 
0.312924 -0.532439 0.0389348 16 
0.310502 -0.531868 0.0408908 17 
0.311301 -0.532059 0.0413868 22 
0.31077 -0.531935 0.0424818 18 
0.311111 -0.532018 0.0431838 16 
0.311682 -0.532155 0.0437848 20 
0.31304 -0.532479 0.0440408 19 
0.311769 -0.53218 0.0454558 24 
0.311974 -0.53223 0.0462198 28 
0.314867 -0.532917 0.0458148 19 
0.31174 -0.532179 0.0480268 19 
0.312314 -0.532317 0.0486308 22 
0.315117 -0.532982 0.0482808 20 
0.314067 -0.532736 0.0495848 27 
0.313811 -0.532677 0.0505468 20 
0.316538 -0.533325 0.0502468 21 
0.317832 -0.533633 0.0505608 17 
0.318848 -0.533876 0.0509948 20 
0.316933 -0.533425 0.0526518 25 
0.315831 -0.533165 0.0539638 25 
0.317449 -0.533551 0.0541498 24 
0.315737 -0.533147 0.0557068 27 
0.318202 -0.533733 0.0555518 26 
0.319648 -0.534077 0.0558208 24 
0.318959 -0.533916 0.0569568 31 
0.318604 -0.533834 0.0579548 25 
0.318297 -0.533764 0.0589308 29 
0.316536 -0.533348 0.0604828 27 
0.319435 -0.534037 0.0601848 31 
0.320362 -0.534259 0.0606738 30 
0.319437 -0.534041 0.0618898 34 
0.320555 -0.534308 0.0623058 32 
0.320295 -0.534249 0.0632598 32 
0.319324 -0.534021 0.0644858 28 
0.3213 -0.534491 0.0645788 31 
0.322044 -0.534669 0.0651478 31 
0.321927 -0.534643 0.0660458 32 
0.323347 -0.534982 0.0663628 28 
0.32246 -0.534774 0.0675498 29 
0.322919 -0.534884 0.0682308 39 
0.321605 -0.534575 0.0695698 35 
0.324712 -0.535313 0.0692738 34 
0.323918 -0.535127 0.0704198 33 
0.324332 -0.535227 0.0711208 37 
0.326744 -0.535801 0.0710998 36 
0.326381 -0.535717 0.0720868 33 
0.326117 -0.535656 0.0730358 39 
0.327075 -0.535885 0.0735488 36 
0.327104 -0.535894 0.0743938 34 
0.328016 -0.536112 0.0749268 37 
0.32687 -0.535842 0.0761838 42 
0.32916 -0.536387 0.0762388 39 
0.33028 -0.536655 0.0767088 36 
0.331206 -0.536876 0.0772478 33 
0.328759 -0.536298 0.0789438 38 
0.330571 -0.53673 0.0791818 45 
0.329958 -0.536586 0.0802448 36 
0.331082 -0.536855 0.0807228 46 
0.332512 -0.537196 0.0811008 48 
0.332144 -0.53711 0.0820818 50 
0.333029 -0.537322 0.0826468 52 
0.33231 -0.537154 0.0837408 49 
0.332144 -0.537116 0.0846508 44 
0.332177 -0.537126 0.0854948 48 
0.332962 -0.537314 0.0860968 48 
0.33567 -0.537959 0.0860868 50 
0.335806 -0.537993 0.0869038 48 
0.332967 -0.537321 0.0886588 51 
0.333655 -0.537486 0.0892968 53 
0.334345 -0.537652 0.0899358 50 
0.333075 -0.537353 0.0911838 56 
0.332962 -0.537328 0.0920698 52 
0.334404 -0.537672 0.0924798 53 
0.335098 -0.537839 0.0931228 55 
0.333425 -0.537444 0.0944798 57 
0.334116 -0.53761 0.0951228 58 
0.333853 -0.537549 0.0960518 62 
0.334697 -0.537751 0.0966518 55 
0.334887 -0.537799 0.0974458 56 
0.333771 -0.537536 0.0986218 55 
0.334414 -0.53769 0.0992828 63 
0.333501 -0.537476 0.100393 59 
0.334044 -0.537606 0.101083 59 
0.334688 -0.537761 0.101747 55 
0.334378 -0.53769 0.10268 59 
0.333069 -0.537381 0.103891 61 
0.333212 -0.537417 0.104694 60 
0.333006 -0.53737 0.105593 66 
0.3328 -0.537323 0.106489 69 
0.334443 -0.537715 0.106883 66 
0.333238 -0.537431 0.108051 67 
0.333532 -0.537503 0.108811 71 
0.33283 -0.537338 0.109837 75 
0.332528 -0.537268 0.110754 70 
0.332276 -0.53721 0.111656 68 
0.331827 -0.537106 0.112608 74 
0.332966 -0.537378 0.113149 71 
0.3301 -0.5367 0.114716 72 
0.330393 -0.536771 0.115471 74 
0.329706 -0.53661 0.116473 70 
0.329315 -0.536519 0.117398 77 
0.329218 -0.536498 0.118248 80 
0.328488 -0.536327 0.119253 86 
0.328732 -0.536387 0.120017 83 
0.32854 -0.536343 0.120887 88 
0.328639 -0.536369 0.121685 82 
0.328836 -0.536417 0.12246 88 
0.329863 -0.536663 0.12304 87 
0.32894 -0.536446 0.124079 87 
0.328944 -0.536449 0.124899 88 
0.329582 -0.536602 0.125573 96 
0.329002 -0.536466 0.126527 92 
0.329251 -0.536527 0.12729 84 
0.329451 -0.536577 0.128065 88 
0.329311 -0.536545 0.128916 90 
0.330196 -0.536757 0.12954 92 
0.330105 -0.536738 0.13038 89 
0.33021 -0.536764 0.131177 97 
0.330266 -0.53678 0.131984 99 
0.33047 -0.53683 0.132759 96 
0.330283 -0.536787 0.133617 95 
0.330488 -0.536838 0.134392 99 
0.330107 -0.536749 0.135289 99 
0.330264 -0.536788 0.136073 105 
0.330959 -0.536955 0.136749 109 
0.331215 -0.537018 0.137515 108 
0.33152 -0.537093 0.138272 105 
0.331385 -0.537062 0.139116 105 
0.332282 -0.537277 0.139758 109 
0.331607 -0.537119 0.140706 107 
0.332013 -0.537217 0.141445 108 
0.332273 -0.537281 0.142213 102 
0.332533 -0.537344 0.142981 96 
0.332154 -0.537256 0.143868 97 
0.332366 -0.537308 0.144644 102 
0.332382 -0.537314 0.145457 108 
0.332693 -0.53739 0.146217 119 
0.332316 -0.537302 0.147099 111 
0.332826 -0.537425 0.147824 115 
0.332892 -0.537443 0.148628 116 
0.333157 -0.537508 0.149397 115 
0.333225 -0.537526 0.1502 118 
0.333146 -0.537509 0.151028 111 
0.334204 -0.537762 0.151667 119 
0.334224 -0.537768 0.152479 117 
0.333749 -0.537658 0.153371 117 
0.334216 -0.53777 0.154111 117 
0.334635 -0.537872 0.154859 123 
0.33421 -0.537773 0.15574 123 
0.335077 -0.53798 0.156421 123 
0.334653 -0.537882 0.157301 124 
0.335024 -0.537972 0.158059 124 
0.335347 -0.53805 0.158825 131 
0.335371 -0.538058 0.159636 121 
0.336145 -0.538244 0.160339 127 
0.335771 -0.538157 0.161208 122 
0.336347 -0.538295 0.161941 126 
0.336574 -0.538351 0.162725 133 
0.337454 -0.538562 0.16342 135 
0.336429 -0.53832 0.164375 132 
0.336457 -0.538329 0.165186 131 
0.336586 -0.538362 0.165983 129 
0.336866 -0.53843 0.166761 134 
0.336996 -0.538463 0.167559 134 
0.337127 -0.538496 0.168357 134 
0.338214 -0.538756 0.169037 134 
0.338195 -0.538753 0.169856 130 
0.337623 -0.538619 0.17074 136 
0.338361 -0.538796 0.171467 135 
0.337338 -0.538555 0.172401 134 
0.338025 -0.53872 0.173136 138 
0.338261 -0.538778 0.173924 142 
0.337993 -0.538717 0.174768 140 
0.338785 -0.538907 0.175497 140 
0.338216 -0.538773 0.176372 142 
0.338656 -0.53888 0.17714 143 
0.339047 -0.538974 0.177914 143 
0.339337 -0.539045 0.1787 144 
0.339629 -0.539117 0.179486 143 
0.339465 -0.53908 0.180317 141 
0.339707 -0.539139 0.181109 143 
0.339039 -0.538982 0.181986 139 
0.339636 -0.539126 0.182746 146 
0.33907 -0.538993 0.18361 149 
0.339719 -0.539149 0.184367 151 
0.338801 -0.538933 0.185259 150 
0.339197 -0.539029 0.186039 155 
0.338988 -0.538981 0.186869 153 
0.339386 -0.539078 0.18765 161 
0.339228 -0.539042 0.188475 159 
0.339273 -0.539055 0.189284 167 
0.339521 -0.539116 0.190078 161 
0.339213 -0.539044 0.190912 168 
0.338957 -0.538985 0.191742 163 
0.338803 -0.538951 0.192564 167 
0.338247 -0.53882 0.193411 163 
0.338748 -0.538941 0.194188 166 
0.339302 -0.539075 0.194964 168 
0.338746 -0.538944 0.195809 167 
0.339149 -0.539042 0.196596 168 
0.338796 -0.53896 0.197426 168 
0.337091 -0.538557 0.198328 175 
0.336842 -0.538499 0.199148 177 
0.337244 -0.538597 0.199933 171 
0.33605 -0.538315 0.200798 165 
0.336153 -0.538341 0.201597 173 
0.335511 -0.53819 0.20243 174 
0.335565 -0.538205 0.203231 174 
0.335619 -0.53822 0.204032 172 
0.334833 -0.538035 0.204865 173 
0.333115 -0.537628 0.205731 176 
0.33322 -0.537655 0.206525 173 
0.332835 -0.537565 0.207336 174 
0.332256 -0.53743 0.208151 175 
0.332167 -0.53741 0.20895 182 
0.332225 -0.537426 0.209744 175 
0.331406 -0.537233 0.210561 173 
0.33001 -0.536903 0.211389 176 
0.329779 -0.53685 0.212186 177 
0.32926 -0.536728 0.212987 170 
0.328408 -0.536527 0.213793 177 
0.328707 -0.5366 0.214576 175 
0.328528 -0.53656 0.215368 174 
0.327919 -0.536417 0.216164 175 
0.32674 -0.536138 0.216964 174 
0.326517 -0.536087 0.217751 173 
0.326199 -0.536013 0.218538 183 
0.325836 -0.535928 0.219324 182 
0.325898 -0.535945 0.220107 175 
0.325206 -0.535782 0.220892 169 
0.325222 -0.535788 0.221674 173 
0.32322 -0.535314 0.222451 176 
0.323191 -0.535309 0.223229 171 
0.322463 -0.535137 0.224003 175 
0.322574 -0.535165 0.224781 176 
0.322546 -0.535161 0.225558 174 
0.320665 -0.534715 0.226312 171 
0.320316 -0.534634 0.227081 174 
0.320106 -0.534586 0.227851 177 
0.320265 -0.534625 0.228626 172 
0.319918 -0.534544 0.229393 172 
0.319664 -0.534486 0.23016 172 
0.319548 -0.53446 0.230929 176 
0.319433 -0.534434 0.231698 168 
0.319731 -0.534507 0.232478 169 
0.319663 -0.534493 0.233249 170 
0.319457 -0.534446 0.234014 172 
0.319482 -0.534453 0.234787 171 
0.319048 -0.534352 0.235544 173 
0.319074 -0.53436 0.236317 164 
0.319008 -0.534346 0.237086 162 
0.319722 -0.534518 0.237887 162 
0.319016 -0.534351 0.23863 165 
0.319226 -0.534403 0.239411 166 
0.319208 -0.534401 0.240182 169 
0.319191 -0.534398 0.240954 166 
0.319082 -0.534374 0.241721 165 
0.318745 -0.534296 0.242476 164 
0.318958 -0.534348 0.243259 165 
0.31963 -0.53451 0.244069 165 
0.319294 -0.534432 0.244824 162 
0.319234 -0.534419 0.245594 165 
0.319357 -0.53445 0.246375 166 
0.319481 -0.534482 0.247156 164 
0.320297 -0.534678 0.247984 163 
0.321208 -0.534896 0.248821 166 
0.319811 -0.534566 0.249502 166 
0.32026 -0.534674 0.250309 158 
0.320111 -0.534641 0.251075 167 
0.320193 -0.534662 0.251857 161 
0.321849 -0.535058 0.252761 163 
0.321051 -0.53487 0.253478 163 
0.321366 -0.534947 0.254282 161 
0.321775 -0.535046 0.255096 164 
0.321025 -0.534869 0.255812 163 
0.321667 -0.535024 0.256647 163 
0.321381 -0.534957 0.257403 159 
0.3217 -0.535035 0.258212 160 
0.322159 -0.535146 0.259035 159 
0.32192 -0.535091 0.259795 163 
0.322801 -0.535303 0.260661 168 
0.322423 -0.535215 0.261408 164 
0.324436 -0.535695 0.262393 163 
0.324574 -0.53573 0.263194 162 
0.324477 -0.535709 0.263972 168 
0.325277 -0.535901 0.264845 166 
0.325039 -0.535846 0.265609 167 
0.325038 -0.535848 0.266399 163 
0.324612 -0.535748 0.267141 161 
0.32414 -0.535638 0.267877 160 
0.324706 -0.535774 0.268731 166 
0.325132 -0.535878 0.269571 164 
0.324755 -0.53579 0.270317 164 
0.325182 -0.535893 0.27116 166 
0.325659 -0.536009 0.27201 162 
0.326279 -0.536158 0.272881 162 
0.32576 -0.536036 0.27361 159 
0.327146 -0.536368 0.274582 159 
0.326386 -0.536189 0.27528 158 
0.327778 -0.536523 0.27626 163 
0.327976 -0.536572 0.277085 161 
0.328367 -0.536667 0.277938 160 
0.328278 -0.536647 0.278726 164 
0.329686 -0.536984 0.279724 160 
0.330422 -0.537161 0.280633 164 
0.329218 -0.536877 0.281265 162 
0.330586 -0.537204 0.282268 164 
0.330595 -0.537208 0.283076 162 
0.330996 -0.537306 0.283943 158 
0.331397 -0.537403 0.284812 158 
0.333375 -0.537876 0.285926 162 
0.332205 -0.537599 0.286557 157 
0.333895 -0.538004 0.287635 163 
0.33371 -0.537962 0.28842 157 
0.333526 -0.53792 0.289206 158 
0.333788 -0.537984 0.290064 161 
0.334448 -0.538143 0.290989 159 
0.33531 -0.53835 0.291952 160 
0.336027 -0.538523 0.292893 160 
0.336947 -0.538744 0.293872 158 
0.337267 -0.538822 0.294751 161 
0.337235 -0.538817 0.295571 157 
0.33786 -0.538967 0.296507 155 
0.33793 -0.538986 0.297346 155 
0.338305 -0.539077 0.298242 159 
0.339444 -0.53935 0.299279 155 
0.339109 -0.539273 0.300048 161 
0.339131 -0.53928 0.300883 156 
0.33946 -0.53936 0.301777 159 
0.339942 -0.539477 0.302702 162 
0.340427 -0.539594 0.30363 165 
0.339735 -0.539431 0.30433 160 
0.340528 -0.539622 0.305321 160 
0.341119 -0.539765 0.306275 160 
0.340991 -0.539737 0.307088 162 
0.342359 -0.540065 0.308203 162 
0.341561 -0.539876 0.308882 172 
0.34195 -0.539971 0.309803 170 
0.342031 -0.539992 0.310662 170 
0.341647 -0.539903 0.311423 169 
0.341522 -0.539875 0.312239 169 
0.341397 -0.539847 0.313055 169 
0.341686 -0.539918 0.31396 167 
0.341976 -0.539989 0.314867 176 
0.341801 -0.539949 0.315674 174 
0.341678 -0.539922 0.316492 173 
0.341763 -0.539944 0.317356 173 
0.341641 -0.539917 0.318175 175 
0.341417 -0.539865 0.31897 172 
0.341554 -0.5399 0.319848 172 
0.341279 -0.539836 0.320632 172 
0.341677 -0.539933 0.321572 181 
0.340783 -0.539722 0.32221 176 
0.341387 -0.539868 0.323202 178 
0.341114 -0.539805 0.323985 184 
0.341617 -0.539927 0.324956 183 
0.340776 -0.539728 0.325602 176 
0.339527 -0.539433 0.326145 176 
0.339463 -0.539419 0.326977 177 
0.338886 -0.539284 0.327681 179 
0.339797 -0.539503 0.328758 174 
0.338402 -0.539172 0.329254 178 
0.338288 -0.539147 0.330073 179 
0.338635 -0.539232 0.331011 176 
0.338063 -0.539097 0.331712 179 
0.335768 -0.538552 0.33196 172 
0.336011 -0.538612 0.332869 172 
0.335345 -0.538455 0.333538 166 
0.335436 -0.538479 0.334408 171 
0.334974 -0.53837 0.33513 167 
0.334613 -0.538286 0.335878 167 
0.334203 -0.538191 0.336611 165 
0.333294 -0.537976 0.337206 166 
0.333137 -0.53794 0.338007 162 
0.33283 -0.537869 0.338766 170 
0.332823 -0.537869 0.339609 165 
0.332567 -0.53781 0.340382 169 
0.332213 -0.537728 0.341126 168 
0.332008 -0.537681 0.341913 171 
0.331953 -0.53767 0.342742 165 
0.330066 -0.537222 0.343038 170 
0.330456 -0.537317 0.343996 164 
0.330402 -0.537306 0.344824 162 
0.329757 -0.537154 0.345477 162 
0.330049 -0.537225 0.346409 164 
0.329799 -0.537168 0.34718 157 
0.329402 -0.537075 0.347905 154 
0.329105 -0.537006 0.348659 156 
0.328955 -0.536972 0.349459 153 
0.328855 -0.53695 0.350274 149 
0.329345 -0.537069 0.351274 146 
0.329246 -0.537048 0.352091 150 
0.329196 -0.537038 0.352924 145 
0.329294 -0.537063 0.353805 151 
0.329937 -0.537218 0.35486 148 
0.329789 -0.537185 0.355665 147 
0.328705 -0.536928 0.356166 158 
0.329297 -0.537072 0.357211 145 
0.330041 -0.537251 0.358308 150 
0.329994 -0.537242 0.359148 149 
0.329947 -0.537233 0.359988 142 
0.330248 -0.537306 0.360945 143 
0.3305 -0.537369 0.361888 140 
0.330454 -0.53736 0.362731 141 
0.330707 -0.537422 0.363677 139 
0.331061 -0.537508 0.36466 142 
0.330967 -0.537488 0.365489 139 
0.330972 -0.537491 0.366354 138 
0.331328 -0.537578 0.367342 134 
0.331535 -0.537629 0.36828 134 
0.331943 -0.537729 0.36929 133 
0.332403 -0.537841 0.370322 131 
0.332411 -0.537845 0.371194 136 
0.332469 -0.537861 0.372086 133 
0.332529 -0.537877 0.372978 131 
0.33365 -0.538146 0.374258 128 
0.333002 -0.537994 0.374896 120 
0.334076 -0.538252 0.376166 122 
0.333376 -0.538087 0.376785 116 
0.3342 -0.538286 0.377968 126 
0.334568 -0.538376 0.378985 131 
0.334682 -0.538405 0.379909 124 
0.335308 -0.538556 0.381028 125 
0.335833 -0.538684 0.382112 126 
0.336567 -0.538861 0.383278 119 
0.335707 -0.538658 0.383836 127 
0.335978 -0.538725 0.384828 126 
0.336973 -0.538964 0.386103 128 
0.336317 -0.53881 0.386739 130 
0.336643 -0.538889 0.387758 126 
0.336659 -0.538895 0.388657 123 
0.33683 -0.538938 0.389619 124 
0.337313 -0.539056 0.390706 117 
0.33785 -0.539186 0.391818 121 
0.337297 -0.539056 0.392493 111 
0.337627 -0.539137 0.393525 108 
0.338218 -0.53928 0.394666 109 
0.338498 -0.539349 0.395682 109 
0.338518 -0.539356 0.396594 109 
0.338434 -0.539338 0.397463 113 
0.338193 -0.539283 0.398268 116 
0.337901 -0.539215 0.399051 110 
0.338549 -0.539372 0.400229 103 
0.338152 -0.539279 0.400969 113 
0.339222 -0.539537 0.40233 105 
0.339402 -0.539582 0.403318 108 
0.338533 -0.539376 0.403858 108 
0.339238 -0.539547 0.405073 110 
0.338894 -0.539467 0.405837 108 
0.339707 -0.539663 0.407105 108 
0.33931 -0.539571 0.407848 107 
0.339019 -0.539503 0.408636 106 
0.338099 -0.539285 0.409147 102 
0.338439 -0.539369 0.410213 102 
0.338569 -0.539402 0.411189 103 
0.338806 -0.539461 0.412213 101 
0.338358 -0.539356 0.412932 105 
0.33807 -0.539289 0.413721 108 
0.337572 -0.539172 0.414415 98 
0.337337 -0.539118 0.415228 106 
0.337521 -0.539164 0.416233 135 
0.337234 -0.539098 0.417023 103 
0.337367 -0.539132 0.418006 117 
0.335775 -0.538754 0.41819 119 
0.304844 -0.527232 0.0291268 14 
0.304414 -0.527136 0.0301928 14 
0.306813 -0.527685 0.0298898 11 
0.313072 -0.529117 0.0277388 11 
0.316614 -0.529929 0.0269138 13 
0.310372 -0.528505 0.0307698 14 
0.307244 -0.527792 0.0331198 12 
0.306584 -0.527643 0.0342888 11 
0.307959 -0.527959 0.0344968 15 
0.312054 -0.528897 0.0334368 12 
0.311425 -0.528755 0.0345958 17 
0.311028 -0.528666 0.0356428 17 
0.312292 -0.528957 0.0359198 19 
0.31375 -0.529292 0.0361128 16 
0.314281 -0.529416 0.0367348 15 
0.31207 -0.528912 0.0386078 16 
0.312227 -0.52895 0.0393968 17 
0.318344 -0.53035 0.0374958 16 
0.311988 -0.5289 0.0412218 15 
0.310859 -0.528644 0.0425838 21 
0.312859 -0.529103 0.0425478 19 
0.314833 -0.529556 0.0425318 20 
0.31147 -0.528789 0.0448738 16 
0.311721 -0.528849 0.0456178 24 
0.31188 -0.528887 0.0464008 22 
0.312546 -0.529041 0.0469638 24 
0.313214 -0.529196 0.0475278 26 
0.315094 -0.529628 0.0475728 21 
0.31563 -0.529752 0.0482008 19 
0.316777 -0.530016 0.0485688 28 
0.314507 -0.529499 0.0503898 22 
0.317338 -0.530148 0.0500488 21 
0.315623 -0.529758 0.0516258 21 
0.317901 -0.530281 0.0515288 24 
0.316042 -0.529858 0.0531588 23 
0.316346 -0.529929 0.0538868 27 
0.317874 -0.530281 0.0541108 24 
0.317002 -0.530083 0.0553228 26 
0.316838 -0.530048 0.0562428 30 
0.316768 -0.530034 0.0571228 28 
0.317779 -0.530267 0.0575658 27 
0.319744 -0.530718 0.0576308 25 
0.318488 -0.530433 0.0589868 29 
0.31908 -0.53057 0.0596038 27 
0.319152 -0.530589 0.0604288 34 
0.321081 -0.531032 0.0605238 31 
0.320151 -0.530821 0.0617408 32 
0.322089 -0.531266 0.0618418 29 
0.321204 -0.531066 0.0630388 29 
0.324166 -0.531745 0.0627538 39 
0.323465 -0.531587 0.0638808 30 
0.325383 -0.532027 0.0640078 30 
0.32193 -0.53124 0.0661728 35 
0.324706 -0.531876 0.0659808 33 
0.323281 -0.531553 0.0673698 38 
0.323598 -0.531627 0.0681058 35 
0.323143 -0.531525 0.0691268 36 
0.325202 -0.531998 0.0692208 36 
0.328512 -0.532757 0.0688648 35 
0.325647 -0.532104 0.0707678 30 
0.325432 -0.532056 0.0716998 36 
0.326289 -0.532254 0.0722448 37 
0.325782 -0.53214 0.0732798 35 
0.327816 -0.532608 0.0734098 36 
0.328239 -0.532706 0.0741158 45 
0.328219 -0.532704 0.0749788 35 
0.32815 -0.53269 0.0758578 36 
0.328624 -0.5328 0.0765478 33 
0.329444 -0.53299 0.0771198 42 
0.331113 -0.533374 0.0774018 35 
0.329852 -0.533087 0.0786908 38 
0.330926 -0.533335 0.0791818 39 
0.330858 -0.533321 0.0800608 45 
0.332087 -0.533605 0.0805048 45 
0.332971 -0.533809 0.0810678 43 
0.332652 -0.533738 0.0820318 45 
0.332085 -0.53361 0.0830758 45 
0.334379 -0.534137 0.0831808 46 
0.332052 -0.533606 0.0847968 49 
0.332386 -0.533685 0.0855428 47 
0.333171 -0.533866 0.0861448 49 
0.333407 -0.533922 0.0869248 42 
0.334146 -0.534093 0.0875458 44 
0.334232 -0.534115 0.0883738 48 
0.33457 -0.534194 0.0891238 51 
0.335973 -0.534517 0.0895418 49 
0.334138 -0.5341 0.0909658 53 
0.335538 -0.534422 0.0913898 50 
0.335474 -0.534409 0.0922638 51 
0.334552 -0.5342 0.0933978 51 
0.33454 -0.534199 0.0942538 52 
0.335386 -0.534395 0.0948518 54 
0.334768 -0.534256 0.0958868 56 
0.335717 -0.534475 0.0964578 52 
0.334343 -0.534162 0.0977118 56 
0.334635 -0.534231 0.0984748 53 
0.333621 -0.534001 0.0996158 60 
0.334565 -0.534219 0.100191 64 
0.33516 -0.534357 0.100868 62 
0.334397 -0.534184 0.101932 63 
0.334389 -0.534184 0.102779 64 
0.334281 -0.534162 0.103654 67 
0.335178 -0.534369 0.104249 67 
0.334568 -0.534231 0.105262 67 
0.336326 -0.534636 0.105626 69 
0.335209 -0.534382 0.106774 71 
0.3347 -0.534267 0.107754 70 
0.333194 -0.533924 0.108998 70 
0.33299 -0.53388 0.10989 68 
0.333635 -0.534029 0.110558 73 
0.333731 -0.534053 0.11137 74 
0.334027 -0.534123 0.112131 72 
0.333475 -0.533999 0.11311 77 
0.331934 -0.533648 0.114339 79 
0.332031 -0.533672 0.115147 83 
0.331536 -0.53356 0.116103 81 
0.330895 -0.533415 0.117093 79 
0.330944 -0.533429 0.117909 70 
0.330404 -0.533307 0.11887 77 
0.330307 -0.533287 0.11972 82 
0.32977 -0.533166 0.120675 86 
0.330605 -0.533359 0.121299 83 
0.331246 -0.533507 0.121972 84 
0.331052 -0.533465 0.122844 89 
0.329879 -0.533198 0.123943 86 
0.330323 -0.533302 0.124662 85 
0.330131 -0.53326 0.125529 87 
0.330332 -0.533308 0.126305 83 
0.330337 -0.533311 0.127125 89 
0.331078 -0.533482 0.127781 90 
0.330055 -0.53325 0.128829 90 
0.330796 -0.533421 0.129486 93 
0.330901 -0.533447 0.130284 96 
0.330859 -0.53344 0.131113 96 
0.331505 -0.53359 0.131795 96 
0.33063 -0.533391 0.132801 96 
0.330737 -0.533417 0.133596 104 
0.330697 -0.53341 0.134423 105 
0.331246 -0.533538 0.135127 102 
0.332634 -0.533858 0.135662 108 
0.332004 -0.533715 0.13661 113 
0.3331 -0.533968 0.137209 107 
0.332075 -0.533735 0.138232 111 
0.332728 -0.533887 0.138922 111 
0.333086 -0.533971 0.139671 114 
0.333247 -0.53401 0.140459 111 
0.333409 -0.534048 0.141248 112 
0.333472 -0.534065 0.142054 117 
0.333635 -0.534104 0.142842 98 
0.334344 -0.534268 0.14353 103 
0.333863 -0.53416 0.144437 107 
0.333878 -0.534166 0.145252 111 
0.333548 -0.534092 0.146129 110 
0.33401 -0.5342 0.146863 110 
0.334375 -0.534285 0.147616 109 
0.334691 -0.534359 0.148379 114 
0.334758 -0.534377 0.149185 123 
0.334678 -0.53436 0.150016 117 
0.335294 -0.534503 0.150729 117 
0.335613 -0.534578 0.151494 119 
0.335234 -0.534493 0.152374 123 
0.335753 -0.534614 0.153107 125 
0.336024 -0.534678 0.153881 123 
0.335796 -0.534628 0.154734 121 
0.336068 -0.534692 0.155508 126 
0.335991 -0.534676 0.156337 125 
0.337116 -0.534936 0.156982 122 
0.336187 -0.534725 0.157939 123 
0.336562 -0.534813 0.1587 126 
0.336737 -0.534855 0.159491 124 
0.337365 -0.535001 0.160217 128 
0.336638 -0.534836 0.161137 129 
0.336915 -0.534901 0.161913 124 
0.337242 -0.534978 0.162684 126 
0.33727 -0.534986 0.163496 130 
0.337901 -0.535133 0.164227 129 
0.337477 -0.535038 0.165099 133 
0.337556 -0.535058 0.165905 131 
0.337938 -0.535147 0.166671 134 
0.338018 -0.535167 0.167476 130 
0.338503 -0.53528 0.168231 133 
0.338332 -0.535243 0.169068 131 
0.339071 -0.535414 0.169795 136 
0.339154 -0.535435 0.170601 130 
0.338833 -0.535363 0.171456 131 
0.33993 -0.535617 0.172145 131 
0.339254 -0.535464 0.173039 135 
0.340151 -0.535671 0.173755 135 
0.340186 -0.535681 0.174569 136 
0.339968 -0.535633 0.175409 138 
0.339903 -0.53562 0.176233 141 
0.339939 -0.53563 0.177045 140 
0.339977 -0.535641 0.177857 146 
0.34037 -0.535733 0.178634 140 
0.34046 -0.535755 0.179441 141 
0.339889 -0.535627 0.180312 139 
0.33998 -0.535649 0.181119 140 
0.340324 -0.53573 0.181902 142 
0.340569 -0.535788 0.182695 143 
0.340763 -0.535834 0.183494 142 
0.340398 -0.535753 0.184341 149 
0.34044 -0.535764 0.185152 145 
0.340382 -0.535753 0.185972 151 
0.339917 -0.535648 0.186824 157 
0.339962 -0.53566 0.187634 156 
0.340006 -0.535672 0.188443 155 
0.340407 -0.535766 0.189226 160 
0.340351 -0.535755 0.190044 159 
0.33984 -0.53564 0.190894 163 
0.340039 -0.535687 0.191693 163 
0.340036 -0.535688 0.192505 166 
0.340287 -0.535748 0.193301 163 
0.340183 -0.535726 0.194121 165 
0.339928 -0.535669 0.194949 167 
0.339573 -0.53559 0.195782 167 
0.33932 -0.535534 0.196607 162 
0.339118 -0.535489 0.197429 165 
0.339069 -0.53548 0.198241 167 
0.339171 -0.535505 0.199046 165 
0.338367 -0.535322 0.199896 163 
0.337216 -0.53506 0.200759 171 
0.33662 -0.534925 0.201593 165 
0.336474 -0.534894 0.202404 169 
0.33623 -0.53484 0.203218 174 
0.336185 -0.534831 0.204024 172 
0.33495 -0.53455 0.204875 169 
0.334857 -0.53453 0.205679 172 
0.334765 -0.534511 0.206483 172 
0.334131 -0.534367 0.207305 172 
0.333058 -0.534123 0.208137 170 
0.332527 -0.534003 0.20895 174 
0.333026 -0.534119 0.209732 171 
0.332155 -0.533921 0.210551 172 
0.331775 -0.533836 0.211356 178 
0.33091 -0.533639 0.212169 175 
0.329664 -0.533355 0.212986 170 
0.330013 -0.533437 0.21377 170 
0.329591 -0.533342 0.214568 176 
0.329122 -0.533236 0.215365 178 
0.32808 -0.532999 0.216167 175 
0.328046 -0.532993 0.216954 177 
0.328299 -0.533053 0.217739 171 
0.326882 -0.532729 0.218536 182 
0.326517 -0.532647 0.219322 172 
0.326485 -0.532642 0.220107 181 
0.325884 -0.532506 0.220891 175 
0.325948 -0.532522 0.221674 175 
0.325492 -0.532419 0.222456 177 
0.323629 -0.531993 0.223229 177 
0.323787 -0.532031 0.224009 177 
0.323525 -0.531973 0.224786 175 
0.322983 -0.53185 0.225559 173 
0.322396 -0.531718 0.226329 172 
0.322276 -0.531692 0.227104 172 
0.321971 -0.531624 0.227875 173 
0.322457 -0.531737 0.22866 171 
0.320302 -0.531244 0.229393 169 
0.320923 -0.531388 0.23018 169 
0.320715 -0.531342 0.230949 173 
0.320414 -0.531275 0.231714 178 
0.320484 -0.531293 0.232489 174 
0.320415 -0.531279 0.233261 166 
0.320624 -0.531329 0.23404 167 
0.320787 -0.531368 0.234819 166 
0.321599 -0.531556 0.235622 164 
0.319778 -0.53114 0.23633 167 
0.321651 -0.531572 0.237175 166 
0.319876 -0.531166 0.237879 164 
0.319582 -0.5311 0.238639 159 
0.320023 -0.531203 0.239431 167 
0.319959 -0.53119 0.240202 161 
0.321465 -0.531538 0.241048 161 
0.320847 -0.531398 0.241793 161 
0.320138 -0.531237 0.242531 166 
0.321694 -0.531596 0.243389 163 
0.320291 -0.531275 0.244087 162 
0.321571 -0.531571 0.244936 164 
0.321556 -0.53157 0.245712 163 
0.321681 -0.5316 0.246497 165 
0.321807 -0.531631 0.247283 163 
0.321608 -0.531587 0.248047 162 
