0.455935,0.0510788,0.143396,146
0.456231,0.0510749,0.144395,143
0.456299,0.0510724,0.145322,148
0.456482,0.0510692,0.146287,146
0.455922,0.0510708,0.147012,148
0.456105,0.0510675,0.147978,152
0.455718,0.051068,0.148759,145
0.456017,0.051064,0.149765,151
0.456145,0.0510611,0.150717,147
0.455701,0.0510619,0.151479,152
0.455544,0.0510609,0.152336,146
0.455902,0.0510565,0.153368,149
0.456032,0.0510536,0.154324,152
0.456162,0.0510507,0.155282,147
0.456064,0.0510493,0.156162,149
0.456196,0.0510464,0.157123,152
0.456328,0.0510434,0.158085,150
0.456058,0.0510431,0.158907,146
0.456536,0.0510379,0.159993,149
0.456325,0.0510372,0.160837,147
0.456459,0.0510343,0.161804,139
0.456191,0.051034,0.162628,136
0.456211,0.0510318,0.163556,134
0.456577,0.0510273,0.164611,134
0.456022,0.0510288,0.165331,137
0.456504,0.0510236,0.166431,133
0.455491,0.0510282,0.16698,131
0.456318,0.0510206,0.168211,129
0.456975,0.0510142,0.169383,123
0.45596,0.0510188,0.169929,124
0.45656,0.0510128,0.171083,124
0.457394,0.0510052,0.172329,118
0.456898,0.0510064,0.17307,126
0.457096,0.0510029,0.174078,120
0.45718,0.0510003,0.175043,120
0.457322,0.0509972,0.176031,123
0.457697,0.0509926,0.177112,123
0.458481,0.0509853,0.178356,119
0.458509,0.050983,0.179306,118
0.458421,0.0509815,0.180211,105
0.458683,0.0509776,0.181256,105
0.458771,0.0509749,0.182233,108
0.458158,0.0509769,0.182929,106
0.458597,0.0509718,0.184049,106
0.459096,0.0509664,0.185197,105
0.459774,0.0509597,0.18642,97
0.458866,0.0509636,0.186995,101
0.459485,0.0509574,0.188199,102
0.459518,0.050955,0.189162,99
0.460554,0.050946,0.190545,98
0.460588,0.0509436,0.191513,101
0.461333,0.0509364,0.192782,98
0.461785,0.0509313,0.19393,94
0.461226,0.0509328,0.194652,94
0.461917,0.0509261,0.195906,91
0.46279,0.050918,0.197242,88
0.462051,0.0509208,0.197887,93
0.462626,0.0509148,0.199101,89
0.462905,0.0509107,0.200188,93
0.463905,0.0509018,0.201593,88
0.463584,0.0509018,0.202422,85
0.465134,0.0508892,0.204078,81
0.465539,0.0508842,0.205233,88
0.467044,0.0508719,0.206881,119
0.467333,0.0508677,0.207991,80
0.467438,0.0508648,0.209021,78
0.469391,0.0508494,0.210889,78
0.44579,0.0554408,-0.212564,10
0.449799,0.0554515,-0.213519,9
0.454925,0.0554657,-0.214986,11
0.192925,0.0546325,-0.0923591,8
0.451237,0.0554496,-0.211336,14
0.449361,0.0554415,-0.20951,9
0.569132,0.0558192,-0.264181,8
0.447116,0.0554301,-0.206579,12
0.446786,0.0554269,-0.205486,13
0.450463,0.0554364,-0.206228,9
0.350904,0.0551208,-0.160079,9
0.449908,0.0554304,-0.204084,9
0.449462,0.0554269,-0.202939,14
0.446826,0.0554165,-0.200815,12
0.454686,0.055439,-0.203392,10
0.147742,0.0544825,-0.0684099,8
0.503081,0.0555859,-0.222934,11
0.493334,0.0555531,-0.217584,7
0.448668,0.0554117,-0.196956,14
0.499256,0.0555669,-0.218117,12
0.457582,0.0554351,-0.19896,13
0.453015,0.0554188,-0.196035,12
0.455851,0.0554255,-0.196314,13
0.458428,0.0554313,-0.196472,10
0.453562,0.0554142,-0.193448,19
0.453631,0.0554123,-0.192538,10
0.45439,0.0554125,-0.19192,15
0.458702,0.0554236,-0.192792,12
0.456146,0.0554136,-0.190777,14
0.459605,0.0554221,-0.191274,20
0.456692,0.055411,-0.189122,15
0.457578,0.0554116,-0.188546,15
0.454637,0.0554005,-0.1864,19
0.45807,0.0554089,-0.186865,16
0.456049,0.0554006,-0.185104,17
0.456932,0.0554012,-0.184525,20
0.459457,0.0554067,-0.184602,16
0.467776,0.0554298,-0.186986,17
0.457267,0.0553959,-0.181851,20
0.460676,0.055404,-0.182265,22
0.457356,0.0553919,-0.180018,19
0.462421,0.055405,-0.181067,17
0.454104,0.0553779,-0.176886,13
0.463225,0.0554032,-0.179494,22
0.457307,0.0553833,-0.176271,16
0.460419,0.0553905,-0.176534,22
0.457923,0.055381,-0.174647,23
0.461455,0.0553894,-0.175057,23
0.460472,0.0553844,-0.173751,19
0.463803,0.0553922,-0.174067,22
0.463226,0.0553883,-0.172913,26
0.4639,0.0553882,-0.172226,29
0.459029,0.0553717,-0.169491,22
0.462573,0.0553801,-0.169865,30
0.462357,0.0553773,-0.168853,24
0.460494,0.0553697,-0.167245,22
0.462163,0.0553726,-0.16692,28
0.466534,0.0553833,-0.16756,26
0.468487,0.0553869,-0.16732,29
0.468387,0.0553845,-0.166343,28
0.469746,0.0553863,-0.165883,28
0.465842,0.0553728,-0.16357,27
0.465566,0.0553699,-0.16254,24
0.464456,0.0553646,-0.161223,31
0.464064,0.0553613,-0.160159,31
0.465877,0.0553645,-0.159854,25
0.464412,0.0553582,-0.158423,31
0.464973,0.0553577,-0.157687,26
0.468479,0.0553657,-0.157942,35
0.467781,0.0553616,-0.156775,26
0.467868,0.0553597,-0.155873,33
0.465856,0.0553519,-0.154276,26
0.467682,0.055355,-0.153951,33
0.469219,0.0553573,-0.153526,28
0.468824,0.0553541,-0.152466,34
0.47043,0.0553566,-0.152056,30
0.469791,0.0553526,-0.150919,39
0.469942,0.055351,-0.150037,36
0.471067,0.0553521,-0.149465,36
0.469518,0.0553456,-0.148045,34
0.472596,0.0553522,-0.148083,36
0.468253,0.0553378,-0.145798,34
0.470159,0.0553411,-0.145464,36
0.469586,0.0553374,-0.144362,36
0.469801,0.0553359,-0.143503,41
0.476217,0.0553519,-0.144527,34
0.471692,0.0553371,-0.142226,38
0.471543,0.0553346,-0.141256,38
0.474708,0.0553413,-0.141272,36
0.472836,0.055334,-0.139788,42
0.470375,0.055325,-0.138138,40
0.472298,0.0553283,-0.137778,42
0.471481,0.055324,-0.136618,48
0.471398,0.0553216,-0.135672,43
0.474251,0.0553275,-0.135566,50
0.472633,0.0553209,-0.134181,48
0.472856,0.0553194,-0.133322,52
0.47357,0.0553193,-0.1326,50
0.474348,0.0553194,-0.131894,53
0.472795,0.055313,-0.130542,54
0.472836,0.0553111,-0.129634,54
0.473307,0.0553103,-0.128843,55
0.473105,0.0553077,-0.127869,54
0.473454,0.0553065,-0.127044,55
0.473131,0.0553036,-0.12604,57
0.472322,0.0552993,-0.124909,54
0.473221,0.0552997,-0.12423,58
0.472352,0.0552953,-0.123087,60
0.473068,0.0552952,-0.122359,65
0.471837,0.0552898,-0.121129,66
0.470734,0.0552847,-0.119936,67
0.472054,0.0552862,-0.119361,65
0.472285,0.0552848,-0.118509,65
0.471242,0.0552799,-0.117339,60
0.471716,0.0552792,-0.116548,69
0.472131,0.0552782,-0.115742,64
0.471212,0.0552737,-0.11461,67
0.469637,0.0552675,-0.113324,61
0.471377,0.0552701,-0.112838,68
0.470584,0.0552659,-0.111745,66
0.470577,0.0552639,-0.11084,73
0.46931,0.0552585,-0.109642,73
0.469185,0.0552561,-0.108714,85
0.469599,0.0552552,-0.10791,78
0.468937,0.0552514,-0.106861,82
0.468874,0.0552492,-0.105949,77
0.46917,0.055248,-0.105119,81
0.468749,0.0552448,-0.10413,74
0.467973,0.0552408,-0.103064,85
0.466964,0.0552361,-0.101951,84
0.466255,0.0552323,-0.100907,78
0.467202,0.0552327,-0.100222,83
0.466022,0.0552277,-0.0990811,90
0.466083,0.0552258,-0.0982069,79
0.464676,0.0552202,-0.0970268,75
0.465148,0.0552194,-0.096241,70
0.465035,0.0552171,-0.095334,70
0.464571,0.0552139,-0.0943568,66
0.463876,0.0552101,-0.0933354,66
0.4633,0.0552067,-0.0923408,69
0.46383,0.055206,-0.0915671,71
0.464713,0.0552063,-0.0908607,62
0.464955,0.055205,-0.0900275,66
0.463156,0.0551984,-0.0888031,68
0.46334,0.0551969,-0.0879618,75
0.463524,0.0551954,-0.0871204,78
0.462259,0.0551902,-0.0860096,77
0.463953,0.0551925,-0.085448,74
0.463383,0.0551891,-0.0844686,75
0.463628,0.0551877,-0.0836385,78
0.463874,0.0551864,-0.082808,78
0.462785,0.0551816,-0.0817418,78
0.464309,0.0551835,-0.0811359,83
0.464791,0.0551828,-0.0803448,86
0.463584,0.0551778,-0.0792641,84
0.462846,0.0551739,-0.0782677,85
0.4635,0.0551736,-0.0775068,89
0.463983,0.0551728,-0.0767154,85
0.464466,0.0551721,-0.0759228,85
0.464427,0.05517,-0.0750445,84
0.464971,0.0551694,-0.0742597,91
0.463594,0.055164,-0.0731709,90
0.464254,0.0551637,-0.0724044,93
0.463811,0.0551606,-0.0714663,94
0.46279,0.0551562,-0.0704427,94
0.463681,0.0551564,-0.0697098,94
0.464227,0.0551558,-0.0689229,97
0.464135,0.0551536,-0.0680411,98
0.464683,0.055153,-0.0672523,105
0.464127,0.0551497,-0.0663046,102
0.464037,0.0551475,-0.0654249,106
0.463831,0.055145,-0.0645298,103
0.463511,0.0551423,-0.0636202,105
0.463134,0.0551394,-0.0627045,106
0.464205,0.0551401,-0.0619831,107
0.464002,0.0551376,-0.061091,108
0.464148,0.055136,-0.0602451,115
0.464353,0.0551346,-0.0594065,115
0.465549,0.0551355,-0.0586918,119
0.464765,0.0551317,-0.0577282,113
0.464043,0.055128,-0.0567753,116
0.465122,0.0551286,-0.0560415,123
0.465448,0.0551274,-0.0552149,121
0.465483,0.0551256,-0.0543537,115
0.465285,0.0551231,-0.053466,122
0.465613,0.055122,-0.0526385,123
0.465766,0.0551204,-0.0517907,123
0.46522,0.0551171,-0.0508667,121
0.466134,0.0551174,-0.0501009,120
0.465589,0.0551141,-0.0491788,122
0.46557,0.0551121,-0.0483133,120
0.46637,0.0551121,-0.047531,121
0.466411,0.0551102,-0.0466706,121
0.467332,0.0551104,-0.0458961,121
0.466553,0.0551066,-0.0449559,125
0.467124,0.055106,-0.0441453,123
0.466992,0.0551038,-0.0432683,124
0.466626,0.055101,-0.0423709,125
0.467728,0.0551016,-0.0416046,131
0.468127,0.0551005,-0.0407737,129
0.467762,0.0550977,-0.039877,130
0.469107,0.0550989,-0.0391232,125
0.468329,0.0550951,-0.0381931,128
0.469323,0.0550955,-0.0374059,127
0.469136,0.0550931,-0.0365243,126
0.469127,0.0550911,-0.0356569,126
0.470127,0.0550914,-0.0348638,126
0.469942,0.0550891,-0.0339824,134
0.470946,0.0550894,-0.0331847,132
0.471239,0.0550881,-0.0323352,134
0.470935,0.0550855,-0.0314455,132
0.471886,0.0550856,-0.0306374,136
0.471643,0.0550831,-0.0297518,139
0.472959,0.0550841,-0.0289612,132
0.471937,0.0550799,-0.0280293,138
0.472415,0.055079,-0.0271861,137
0.472594,0.0550774,-0.026325,143
0.472834,0.055076,-0.0254666,144
0.47416,0.055077,-0.0246629,140
0.473437,0.0550734,-0.0237536,140
0.473681,0.055072,-0.0228929,139
0.47465,0.0550722,-0.0220643,137
0.475138,0.0550713,-0.0212113,140
0.474718,0.0550684,-0.0203187,144
0.47539,0.0550679,-0.0194714,138
0.474548,0.0550641,-0.018564,144
0.477476,0.0550685,-0.0177963,153
0.477484,0.0550666,-0.0169175,146
0.476636,0.0550627,-0.0160111,149
0.476462,0.0550604,-0.0151285,148
0.477266,0.0550601,-0.0142747,147
0.478257,0.0550603,-0.0134231,153
0.47833,0.0550585,-0.0125449,149
0.478035,0.0550559,-0.0116579,151
0.478416,0.0550547,-0.0107865,152
0.478307,0.0550525,-0.00990416,151
0.480173,0.0550545,-0.00905715,153
0.47846,0.0550488,-0.00814673,155
0.478783,0.0550476,-0.0072711,160
0.479293,0.0550467,-0.00639656,156
0.478387,0.0550427,-0.00550564,157
0.478836,0.0550417,-0.00462948,155
0.478794,0.0550396,-0.00374846,159
0.478691,0.0550374,-0.00286732,155
0.479698,0.0550376,-0.00198972,155
0.479782,0.0550358,-0.00110748,152
0.478571,0.0550312,-0.000226061,158
0.477795,0.0550276,0.000652069,156
0.477146,0.0550242,0.00152791,157
0.477231,0.0550224,0.0024061,155
0.47744,0.0550209,0.00328565,163
0.476062,0.055016,0.00414991,160
0.474996,0.0550118,0.00501284,163
0.474297,0.0550084,0.00587694,161
0.474264,0.0550063,0.00674895,165
0.47375,0.0550033,0.00761244,166
0.472637,0.054999,0.00846246,168
0.472427,0.0549966,0.00932761,168
0.470905,0.0549915,0.0101617,174
0.471592,0.054991,0.0110454,164
0.470908,0.0549876,0.0118949,177
0.470287,0.0549843,0.0127438,171
0.470261,0.0549823,0.0136086,171
0.469939,0.0549797,0.0144639,176
0.469381,0.0549766,0.0153099,174
0.468119,0.0549721,0.0161286,169
0.46786,0.0549696,0.0169808,172
0.468015,0.054968,0.0178485,171
0.466878,0.0549637,0.0186632,173
0.466565,0.0549612,0.0195096,173
0.466487,0.0549591,0.0203656,177
0.465884,0.0549559,0.0211967,174
0.465167,0.0549525,0.0220201,168
0.46544,0.0549512,0.0228913,170
0.463684,0.0549457,0.0236567,172
0.463149,0.0549427,0.0244823,171
0.463479,0.0549414,0.025355,169
0.462486,0.0549375,0.0261519,168
0.462644,0.0549359,0.0270145,168
0.46263,0.054934,0.0278673,167
0.462618,0.054932,0.0287202,162
0.462318,0.0549295,0.0295544,161
0.462192,0.0549273,0.0303994,162
0.462296,0.0549256,0.03126,162
0.461942,0.054923,0.0320886,164
0.46222,0.0549216,0.0329623,162
0.462211,0.0549196,0.0338157,161
0.461687,0.0549167,0.0346297,157
0.461966,0.0549153,0.0355052,158
0.462534,0.0549145,0.0364052,156
0.461839,0.0549112,0.0372034,161
0.461777,0.0549092,0.0380526,157
0.4616,0.0549069,0.0388919,154
0.46217,0.0549061,0.0397966,154
0.462858,0.0549054,0.0407142,154
0.462798,0.0549034,0.0415659,155
0.462566,0.054901,0.0424016,153
0.462738,0.0548994,0.0432753,156
0.464008,0.0548999,0.0442569,160
0.463777,0.0548975,0.0450944,159
0.463778,0.0548956,0.0459548,153
0.464186,0.0548944,0.0468573,158
0.464421,0.0548929,0.0477435,151
0.464192,0.0548905,0.0485814,154
0.463964,0.0548881,0.0494188,156
0.464027,0.0548863,0.0502878,157
0.464032,0.0548844,0.0511509,156
0.464386,0.0548831,0.0520541,155
0.465324,0.0548829,0.0530268,160
0.465332,0.054881,0.0538935,156
0.465049,0.0548785,0.0547256,156
0.4657,0.0548777,0.0556708,169
0.465534,0.0548755,0.0565178,159
0.465428,0.0548733,0.0573719,163
0.465848,0.0548721,0.0582931,156
0.465626,0.0548698,0.0591331,163
0.465814,0.0548681,0.0600265,162
0.466062,0.0548666,0.0609287,163
0.465199,0.0548631,0.0616825,162
0.466618,0.0548637,0.0627456,160
0.466399,0.0548613,0.0635872,164
0.465887,0.0548585,0.0643872,160
0.466432,0.0548575,0.0653361,164
0.466332,0.0548553,0.0661944,160
0.466762,0.0548541,0.0671301,168
0.466722,0.0548521,0.0679983,166
0.467153,0.0548509,0.0689375,161
0.468237,0.0548508,0.0699777,165
0.46814,0.0548487,0.0708409,160
0.468518,0.0548474,0.071778,158
0.4686,0.0548455,0.0726703,158
0.468327,0.0548431,0.0735068,163
0.468707,0.0548417,0.0744481,165
0.468791,0.0548399,0.0753429,163
0.469352,0.0548389,0.0763172,164
0.469916,0.0548379,0.0772944,163
0.469764,0.0548356,0.0781534,166
0.470629,0.0548351,0.079186,162
0.470658,0.0548332,0.0800779,166
0.470508,0.0548309,0.0809391,167
0.470179,0.0548283,0.0817686,162
0.470449,0.0548268,0.0827043,165
0.469583,0.0548233,0.0834367,163
0.469794,0.0548217,0.0843624,160
0.468872,0.0548181,0.0850809,166
0.468608,0.0548156,0.0859186,165
0.467988,0.0548126,0.086689,166
0.468319,0.0548111,0.0876379,162
0.467938,0.0548085,0.0884522,164
0.467618,0.054806,0.0892773,170
0.466766,0.0548025,0.0899978,167
0.467275,0.0548014,0.0909842,171
0.467431,0.0547996,0.0919025,174
0.466995,0.0547969,0.092703,174
0.466738,0.0547945,0.0935385,177
0.466363,0.0547918,0.0943496,172
0.465049,0.0547877,0.0949654,176
0.465441,0.0547863,0.0959329,178
0.464191,0.0547823,0.0965565,182
0.463997,0.0547799,0.0974005,178
0.463513,0.0547771,0.0981818,179
0.463496,0.0547751,0.0990631,185
0.463421,0.054773,0.0999322,176
0.463289,0.0547708,0.100789,179
0.463041,0.0547684,0.10162,168
0.46326,0.0547667,0.102555,170
0.462605,0.0547637,0.103294,170
0.463058,0.0547624,0.104284,162
0.462928,0.0547602,0.105142,160
0.462567,0.0547576,0.105947,159
0.462032,0.0547548,0.10671,154
0.460284,0.05475,0.107186,151
0.460101,0.0547477,0.108027,149
0.460494,0.0547463,0.109007,151
0.460311,0.054744,0.109849,148
0.460302,0.054742,0.110734,146
0.460409,0.0547402,0.111647,141
0.45994,0.0547374,0.11242,140
0.459184,0.0547342,0.113119,141
0.45981,0.0547332,0.114163,137
0.459746,0.0547311,0.115036,139
0.460202,0.0547298,0.116042,138
0.459562,0.0547268,0.116768,140
0.460019,0.0547255,0.117777,141
0.458863,0.0547217,0.118367,137
0.459492,0.0547207,0.119423,135
0.459316,0.0547184,0.120268,136
0.460006,0.0547174,0.121345,136
0.459427,0.0547145,0.122083,137
0.459368,0.0547124,0.122961,138
0.459829,0.0547111,0.123981,142
0.459482,0.0547086,0.124782,137
0.459194,0.0547061,0.125599,136
0.459079,0.0547039,0.126463,140
0.460294,0.0547037,0.1277,136
0.459255,0.0547001,0.128306,135
0.460299,0.0546996,0.129501,135
0.459607,0.0546966,0.130204,138
0.459495,0.0546944,0.131072,140
0.459904,0.054693,0.132092,140
0.460314,0.0546915,0.133114,143
0.459276,0.054688,0.133713,139
0.459166,0.0546858,0.134582,137
0.459751,0.0546846,0.13566,134
0.459352,0.054682,0.136445,136
0.459243,0.0546798,0.137317,135
0.459366,0.0546779,0.138259,138
0.459201,0.0546756,0.139115,144
0.458862,0.0546731,0.139917,150
0.45864,0.0546707,0.140755,142
0.457841,0.0546675,0.141413,146
0.458139,0.0546659,0.142413,145
0.457976,0.0546636,0.143269,142
0.457238,0.0546605,0.143942,146
0.457594,0.054659,0.144963,152
0.457203,0.0546564,0.145746,156
0.45756,0.0546548,0.14677,155
0.457226,0.0546523,0.147572,153
0.457067,0.0546501,0.148429,157
0.456965,0.0546479,0.149306,157
0.456921,0.0546457,0.150203,150
0.456705,0.0546434,0.151043,153
0.45718,0.054642,0.152114,154
0.456676,0.0546392,0.152858,159
0.45721,0.0546379,0.153953,148
0.456938,0.0546355,0.154776,150
0.456264,0.0546325,0.15546,156
0.456625,0.0546309,0.1565,149
0.457508,0.05463,0.157723,148
0.456488,0.0546266,0.158286,150
0.456333,0.0546243,0.15915,144
0.456466,0.0546224,0.160115,145
0.456255,0.0546201,0.16096,143
0.456159,0.0546179,0.161845,144
0.456179,0.0546158,0.162773,141
0.456314,0.0546139,0.163743,143
0.456739,0.0546124,0.16482,139
0.456991,0.0546106,0.165837,138
0.456608,0.054608,0.166622,134
0.457093,0.0546066,0.167727,128
0.456653,0.0546039,0.16849,125
0.456503,0.0546016,0.169361,123
0.456468,0.0545995,0.170276,121
0.456665,0.0545976,0.17128,124
0.456574,0.0545954,0.172175,121
0.456541,0.0545933,0.173093,121
0.456566,0.0545912,0.174034,119
0.457753,0.0545906,0.175424,118
0.457081,0.0545876,0.176099,120
0.457864,0.0545865,0.17734,124
0.458593,0.0545853,0.178563,115
0.458212,0.0545827,0.179352,116
0.458708,0.0545812,0.180489,113
0.457918,0.0545781,0.181116,102
0.458532,0.0545767,0.182303,100
0.457685,0.0545736,0.182906,96
0.458066,0.0545719,0.184002,96
0.459151,0.0545711,0.185388,96
0.458948,0.0545687,0.186252,88
0.459038,0.0545667,0.187236,88
0.459718,0.0545653,0.188466,89
0.460994,0.0545647,0.189946,93
0.461503,0.0545631,0.191113,93
0.461895,0.0545615,0.192234,91
0.46086,0.0545581,0.192757,93
0.461549,0.0545567,0.194006,93
0.461347,0.0545543,0.194879,96
0.46186,0.0545527,0.196059,95
0.462017,0.0545508,0.197088,89
0.463253,0.05455,0.198585,95
0.463172,0.0545477,0.199517,88
0.463151,0.0545455,0.200475,86
0.464335,0.0545447,0.201963,85
0.465588,0.0545439,0.203486,83
0.465874,0.054542,0.204588,80
0.465672,0.0545396,0.205476,79
0.466386,0.0545382,0.206772,111
0.466368,0.0545359,0.207744,74
0.468314,0.0545359,0.209602,80
0.46873,0.0545341,0.210777,80
0.454182,0.059038,-0.216774,9
0.452445,0.0590166,-0.214987,11
0.461812,0.0591179,-0.21845,12
0.560612,0.0602065,-0.263985,9
0.452799,0.059014,-0.212277,11
0.516465,0.0597141,-0.241003,8
0.45114,0.0589914,-0.209595,14
0.203982,0.0562685,-0.0958123,7
0.45461,0.0590254,-0.209287,11
0.452475,0.0589997,-0.207353,13
0.450077,0.0589712,-0.20531,12
0.451167,0.058981,-0.204858,10
0.453299,0.0590023,-0.204873,13
0.4497,0.0589606,-0.202307,13
0.451818,0.0589818,-0.202311,13
0.448981,0.0589485,-0.200103,10
0.456402,0.0590278,-0.20245,9
0.451099,0.0589675,-0.19916,11
0.454498,0.0590026,-0.199709,13
0.453351,0.0589879,-0.198262,16
0.452384,0.0589752,-0.196897,10
0.458432,0.0590393,-0.198571,12
0.451148,0.0589574,-0.194484,13
0.454774,0.058995,-0.1951,13
0.452368,0.0589665,-0.193131,15
0.43922,0.0588206,-0.186619,12
0.458653,0.059031,-0.193909,14
0.459606,0.0590393,-0.19336,13
0.459911,0.0590405,-0.192538,12
0.458685,0.0590249,-0.191078,13
0.456592,0.059,-0.189266,13
0.463874,0.0590773,-0.191324,12
0.458544,0.059017,-0.188185,13
0.458791,0.0590176,-0.187342,17
0.457167,0.0589977,-0.18574,14
0.461948,0.0590477,-0.186731,19
0.462258,0.0590489,-0.185908,17
0.459197,0.0590135,-0.183738,19
0.462107,0.059043,-0.183954,18
0.459638,0.059014,-0.182032,21
0.459829,0.059014,-0.181167,21
0.458087,0.0589929,-0.179547,20
0.456534,0.058974,-0.178007,21
0.460524,0.0590152,-0.178622,18
0.461604,0.0590248,-0.1781,15
0.46044,0.05901,-0.176714,22
0.462646,0.0590318,-0.176619,20
0.459946,0.0590004,-0.174655,19
0.462919,0.0590305,-0.174843,26
0.464788,0.0590486,-0.174606,20
0.465947,0.0590591,-0.174097,27
0.464705,0.0590435,-0.172692,23
0.464903,0.0590435,-0.171825,24
0.465042,0.0590429,-0.170937,24
0.463034,0.0590191,-0.169264,23
0.464424,0.059032,-0.168835,25
0.465403,0.0590404,-0.168252,27
0.466506,0.0590502,-0.167711,30
0.467977,0.059064,-0.167298,24
0.465647,0.0590367,-0.16553,24
0.464234,0.0590194,-0.164095,28
0.465632,0.0590324,-0.163654,21
0.469158,0.0590682,-0.163951,27
0.466339,0.0590358,-0.162033,25
0.46884,0.0590605,-0.161962,30
0.469655,0.0590672,-0.161304,31
0.469862,0.0590673,-0.160436,33
0.470986,0.0590773,-0.159879,30
0.469486,0.059059,-0.158433,32
0.46939,0.0590559,-0.157465,34
0.472475,0.0590869,-0.157558,28
0.470234,0.0590607,-0.155875,31
0.470933,0.0590661,-0.155169,31
0.470838,0.059063,-0.154203,33
0.471723,0.0590703,-0.153555,37
0.471017,0.0590607,-0.152391,32
0.472764,0.0590773,-0.152018,36
0.472793,0.0590755,-0.151091,32
0.472761,0.059073,-0.150145,33
0.47384,0.0590824,-0.14955,36
0.473069,0.0590721,-0.148372,42
0.472915,0.0590683,-0.14739,38
0.475981,0.0590989,-0.147405,38
0.472611,0.0590609,-0.14543,36
0.473752,0.0590709,-0.144848,38
0.47397,0.0590712,-0.143981,41
0.474746,0.0590773,-0.143283,34
0.474718,0.0590749,-0.142341,47
0.472107,0.059045,-0.140631,43
0.475843,0.0590827,-0.14081,41
0.475692,0.059079,-0.139832,45
0.475791,0.0590779,-0.138929,45
0.473972,0.0590565,-0.13747,47
0.475741,0.0590732,-0.137051,50
0.475717,0.0590708,-0.136114,46
0.473963,0.0590501,-0.134687,48
0.475175,0.0590609,-0.134103,43
0.47306,0.0590363,-0.132583,49
0.475008,0.0590549,-0.132203,52
0.476289,0.0590664,-0.131631,49
0.475586,0.0590569,-0.130511,46
0.475318,0.059052,-0.129513,53
0.475794,0.0590549,-0.128717,51
0.47454,0.0590395,-0.127456,50
0.473478,0.0590262,-0.126252,51
0.473829,0.0590279,-0.125426,55
0.474243,0.0590302,-0.124616,53
0.473491,0.0590202,-0.123501,55
0.473721,0.0590205,-0.122644,65
0.473278,0.0590138,-0.121614,66
0.47308,0.0590096,-0.120648,71
0.472152,0.0589978,-0.1195,68
0.471958,0.0589937,-0.118539,68
0.473043,0.059003,-0.117899,65
0.472422,0.0589944,-0.116833,68
0.47235,0.0589916,-0.115906,65
0.472767,0.058994,-0.115097,71
0.471906,0.0589828,-0.11398,73
0.471473,0.0589762,-0.112968,77
0.471102,0.0589703,-0.111974,73
0.471276,0.0589701,-0.111111,78
0.47127,0.058968,-0.110204,66
0.470901,0.0589621,-0.109215,70
0.470112,0.0589518,-0.108131,74
0.470047,0.058949,-0.107216,70
0.468605,0.0589319,-0.10599,67
0.46938,0.058938,-0.105267,68
0.468779,0.0589297,-0.104236,68
0.468479,0.0589245,-0.103274,67
0.467524,0.0589125,-0.102171,65
0.46806,0.0589161,-0.101395,66
0.468537,0.058919,-0.100604,62
0.46717,0.0589027,-0.0994202,64
0.466697,0.0588958,-0.0984307,62
0.467115,0.0588981,-0.0976291,69
0.467474,0.0588999,-0.0968144,72
0.467062,0.0588936,-0.095841,67
0.468195,0.0589034,-0.095183,71
0.468915,0.0589089,-0.0944383,75
0.468145,0.0588989,-0.0933947,74
0.466728,0.0588821,-0.0922269,67
0.466853,0.0588814,-0.0913661,75
0.466388,0.0588746,-0.0903912,72
0.466396,0.0588726,-0.0895092,73
0.467173,0.0588787,-0.0887735,70
0.468072,0.0588861,-0.0880581,74
0.467964,0.058883,-0.0871525,78
0.467085,0.0588718,-0.0861063,71
0.467452,0.0588737,-0.0852905,74
0.468116,0.0588786,-0.0845274,74
0.466531,0.0588601,-0.0833613,73
0.467312,0.0588662,-0.0826189,78
0.466971,0.0588607,-0.0816783,72
0.4674,0.0588632,-0.0808721,77
0.46706,0.0588577,-0.0799338,81
0.467372,0.0588589,-0.0791069,80
0.467211,0.0588553,-0.0782006,81
0.466933,0.0588504,-0.0772759,81
0.466833,0.0588474,-0.0763817,86
0.467205,0.0588492,-0.0755645,84
0.467047,0.0588456,-0.0746618,87
0.466831,0.0588414,-0.0737509,85
0.467915,0.0588506,-0.0730435,91
0.466284,0.0588318,-0.0719152,94
0.466483,0.0588319,-0.0710711,97
0.466446,0.0588295,-0.0701914,96
0.466587,0.058829,-0.0693385,96
0.466376,0.0588249,-0.068434,102
0.466577,0.058825,-0.0675901,100
0.466191,0.058819,-0.0666622,100
0.466334,0.0588185,-0.0658105,108
0.466126,0.0588144,-0.06491,109
0.466506,0.0588164,-0.0640909,106
0.466299,0.0588123,-0.0631917,108
0.466562,0.058813,-0.0623561,112
0.466122,0.0588065,-0.0614276,111
0.466622,0.0588097,-0.0606226,111
0.4663,0.0588044,-0.0597114,114
0.465921,0.0587986,-0.0587946,110
0.466305,0.0588006,-0.0579738,114
0.466396,0.0587995,-0.0571163,116
0.467253,0.0588064,-0.0563505,115
0.46664,0.0587981,-0.0554084,117
0.466557,0.0587953,-0.0545304,118
0.46671,0.0587949,-0.05368,115
0.46822,0.0588084,-0.0529819,115
0.467607,0.0588002,-0.0520437,117
0.468235,0.0588046,-0.051243,114
0.468688,0.0588073,-0.0504215,120
0.46784,0.0587967,-0.0494621,119
0.468116,0.0587975,-0.0486219,117
0.468098,0.0587954,-0.0477512,114
0.468375,0.0587962,-0.0469102,117
0.469009,0.0588008,-0.0461033,116
0.46923,0.058801,-0.0452546,119
0.468858,0.0587953,-0.0443499,120
0.468902,0.0587938,-0.043485,120
0.469303,0.0587959,-0.0426522,119
0.468993,0.0587908,-0.0417555,119
0.469633,0.0587953,-0.0409423,124
0.469917,0.0587963,-0.0400968,127
0.470382,0.058799,-0.0392654,127
0.470431,0.0587975,-0.0383989,133
0.470838,0.0587997,-0.0375607,132
0.47059,0.0587952,-0.0366707,133
0.471358,0.0588011,-0.0358582,134
0.470991,0.0587954,-0.0349598,133
0.471701,0.0588006,-0.03414,133
0.471754,0.0587992,-0.033272,133
0.471988,0.0587996,-0.0324162,131
0.472103,0.0587988,-0.0315519,135
0.473,0.0588059,-0.0307374,132
0.473841,0.0588124,-0.0299162,140
0.472873,0.0588007,-0.028983,138
0.473172,0.0588017,-0.0281276,134
0.473774,0.0588058,-0.0272883,138
0.474378,0.05881,-0.0264471,141
0.475045,0.0588147,-0.0256072,142
0.47541,0.0588164,-0.0247495,140
0.475533,0.0588157,-0.0238787,143
0.475474,0.0588131,-0.0229989,147
0.476147,0.0588179,-0.0221527,143
0.476395,0.0588184,-0.0212857,145
0.477134,0.0588239,-0.0204383,145
0.477507,0.0588257,-0.0195737,145
0.477451,0.0588231,-0.0186915,148
0.476906,0.0588157,-0.0177919,155
0.477588,0.0588205,-0.0169365,153
0.47815,0.0588242,-0.0160748,154
0.479022,0.058831,-0.0152206,155
0.479031,0.0588291,-0.0143384,156
0.478672,0.0588235,-0.0134463,153
0.47893,0.0588241,-0.0125711,154
0.479622,0.058829,-0.0117051,160
0.479388,0.0588247,-0.0108168,157
0.479463,0.0588234,-0.00993544,156
0.479849,0.0588253,-0.00905934,158
0.479246,0.0588173,-0.00816622,157
0.479262,0.0588154,-0.00728401,160
0.480022,0.0588211,-0.00641078,159
0.480226,0.0588211,-0.00552906,158
0.480182,0.0588187,-0.00464453,158
0.479891,0.0588138,-0.00375856,163
0.480594,0.0588188,-0.00287834,163
0.480988,0.0588207,-0.00199464,164
0.479273,0.0588016,-0.00110742,157
0.479853,0.0588054,-0.000224553,158
0.479195,0.0587969,0.000657102,156
0.478664,0.0587896,0.00153691,160
0.478812,0.0587891,0.00241914,163
0.477975,0.0587787,0.00329378,160
0.477203,0.0587691,0.00416601,160
0.476863,0.0587637,0.00504058,163
0.475487,0.058748,0.0058996,162
0.475698,0.0587481,0.00677846,164
0.474149,0.0587308,0.00762727,164
0.473755,0.0587249,0.00849282,163
0.473544,0.0587208,0.00936083,170
0.473153,0.058715,0.010224,173
0.472583,0.0587074,0.0110813,168
0.472555,0.0587051,0.0119511,170
0.472168,0.0586993,0.0128105,169
0.471065,0.0586864,0.0136468,174
0.470741,0.0586813,0.0145043,171
0.470419,0.0586761,0.0153607,173
0.470455,0.0586745,0.016229,176
0.469718,0.0586653,0.0170682,175
0.468748,0.0586537,0.0178954,169
0.468786,0.0586521,0.0187612,168
0.469001,0.0586523,0.019635,169
0.467506,0.0586356,0.0204321,168
0.466607,0.0586248,0.0212519,170
0.465945,0.0586163,0.0220801,168
0.465518,0.0586101,0.022918,170
0.464919,0.0586023,0.0237454,170
0.464612,0.0585973,0.0245866,167
0.463958,0.058589,0.0254073,171
0.464524,0.0585926,0.0262968,164
0.463582,0.0585814,0.0270978,163
0.462818,0.0585719,0.0279066,161
0.462748,0.0585693,0.028757,161
0.462736,0.0585673,0.0296111,162
0.463128,0.0585692,0.0304928,160
0.462887,0.0585649,0.031332,156
0.463859,0.0585725,0.0322572,161
0.463214,0.0585642,0.0330677,162
0.463437,0.0585645,0.0339412,161
0.463776,0.0585659,0.0348247,155
0.463075,0.0585571,0.0356276,152
0.463878,0.058563,0.0365496,155
0.464221,0.0585644,0.0374367,154
0.463578,0.0585562,0.0382422,153
0.463574,0.0585542,0.0391005,154
0.462588,0.0585426,0.0398726,157
0.4627,0.0585418,0.0407401,155
0.462583,0.0585387,0.0415871,151
0.463506,0.0585458,0.0425314,156
0.464608,0.0585546,0.0434966,158
0.464491,0.0585515,0.0443474,156
0.464725,0.0585519,0.0452327,156
0.464028,0.0585431,0.0460251,154
0.46467,0.0585474,0.0469531,155
0.463975,0.0585387,0.0477435,156
0.464327,0.0585402,0.0486434,156
0.464448,0.0585394,0.0495198,159
0.464977,0.0585426,0.050442,159
0.464633,0.0585373,0.0512684,158
0.465748,0.0585462,0.0522606,161
0.465405,0.0585409,0.0530878,156
0.465295,0.0585379,0.0539417,158
0.46583,0.0585411,0.0548727,159
0.46584,0.0585393,0.055742,150
0.466143,0.0585403,0.0566481,159
0.467153,0.0585481,0.0576443,158
0.465989,0.0585348,0.0583677,159
0.466823,0.058541,0.0593454,162
0.46666,0.0585374,0.0601957,162
0.466556,0.0585344,0.0610536,158
0.467513,0.0585417,0.0620547,160
0.466761,0.0585325,0.062826,161
0.468313,0.0585455,0.0639143,165
0.466852,0.0585294,0.0645853,161
0.4674,0.0585327,0.0655373,164
0.468721,0.0585435,0.0666034,164
0.46785,0.0585331,0.0673544,162
0.468879,0.0585411,0.0683836,163
0.468245,0.058533,0.069168,161
0.469098,0.0585392,0.0701761,162
0.469299,0.0585392,0.0710874,160
0.469083,0.0585351,0.0719352,159
0.469583,0.0585379,0.0728953,160
0.469906,0.058539,0.0738295,162
0.470709,0.0585448,0.0748428,157
0.469776,0.0585338,0.0755763,160
0.471362,0.058547,0.0767224,158
0.470848,0.0585401,0.0775244,160
0.470575,0.0585355,0.0783656,161
0.470844,0.058536,0.0792987,165
0.470633,0.058532,0.0801504,162
0.471384,0.0585372,0.0811698,165
0.470513,0.0585269,0.0819061,165
0.470364,0.0585234,0.0827684,169
0.470635,0.058524,0.0837065,165
0.470548,0.0585212,0.0845806,166
0.470521,0.0585189,0.0854661,164
0.470374,0.0585155,0.0863297,167
0.47095,0.058519,0.0873289,169
0.471467,0.0585219,0.0883197,165
0.469579,0.0585019,0.088852,169
0.469676,0.0585008,0.0897617,176
0.469473,0.0584968,0.0906137,173
0.469331,0.0584935,0.0914775,175
0.468234,0.058481,0.0921511,174
0.467974,0.0584765,0.0929894,175
0.467538,0.0584703,0.0937912,176
0.467399,0.058467,0.094653,181
0.467023,0.0584614,0.0954658,177
0.466945,0.0584587,0.0963397,176
0.46663,0.0584537,0.0971642,175
0.46608,0.0584464,0.0979378,176
0.464708,0.0584314,0.0985335,175
0.464104,0.0584237,0.0992909,173
0.463678,0.0584176,0.100085,173
0.463078,0.0584099,0.10084,164
0.462364,0.0584012,0.101568,163
0.462058,0.0583963,0.102385,162
0.462102,0.0583947,0.103281,162
0.462147,0.0583931,0.104178,158
0.461844,0.0583882,0.104995,156
0.462122,0.0583889,0.105947,161
0.462227,0.0583879,0.10686,155
0.461344,0.0583775,0.10754,154
0.462322,0.0583847,0.108661,154
0.461498,0.058375,0.109354,155
0.462129,0.0583789,0.110395,153
0.461538,0.0583713,0.111143,149
0.461239,0.0583665,0.11196,151
0.461406,0.0583661,0.112892,152
0.460992,0.0583601,0.11368,146
0.461742,0.0583652,0.11476,147
0.46267,0.0583719,0.115888,149
0.461498,0.0583589,0.116485,151
0.461609,0.0583579,0.117408,148
0.461198,0.058352,0.118197,152
0.461893,0.0583565,0.119273,147
0.461191,0.0583479,0.119986,148
0.461421,0.058348,0.120943,145
0.461536,0.0583471,0.121871,148
0.461651,0.0583461,0.1228,146
0.462001,0.0583474,0.123794,147
0.461592,0.0583415,0.124583,149
0.46165,0.05834,0.125499,156
0.462412,0.0583451,0.126611,148
0.462707,0.0583458,0.127596,150
0.462122,0.0583383,0.128337,149
0.462301,0.058338,0.129291,161
0.462597,0.0583387,0.130281,154
0.463484,0.0583449,0.131441,154
0.462429,0.058333,0.132046,149
0.462258,0.0583294,0.132904,147
0.46291,0.0583334,0.134002,154
0.462857,0.0583309,0.134896,154
0.462276,0.0583234,0.135634,147
0.461872,0.0583176,0.136424,151
0.462232,0.0583189,0.137442,149
0.462416,0.0583185,0.138409,155
0.461603,0.0583089,0.139074,151
0.461611,0.0583069,0.139988,155
0.461445,0.0583033,0.140849,158
0.460928,0.0582965,0.141602,161
0.461406,0.0582989,0.142663,156
0.460306,0.0582866,0.143232,160
0.461077,0.0582917,0.144388,156
0.461089,0.0582897,0.145307,158
0.459524,0.0582732,0.145722,159
0.459304,0.0582691,0.146564,160
0.458793,0.0582623,0.147313,156
0.45869,0.0582593,0.148193,159
0.458297,0.0582536,0.148978,154
0.458311,0.0582517,0.149896,158
0.458209,0.0582487,0.150777,156
0.457472,0.0582398,0.151446,157
0.45714,0.0582347,0.15225,152
0.457213,0.0582333,0.153189,154
0.457229,0.0582313,0.15411,149
0.457534,0.0582321,0.155131,150
0.456857,0.0582238,0.155816,147
0.456932,0.0582224,0.156759,153
0.456488,0.0582162,0.157523,152
0.45639,0.0582133,0.158407,150
0.457159,0.0582183,0.159596,141
0.456947,0.0582142,0.160442,146
0.45685,0.0582113,0.161329,138
0.456408,0.0582051,0.162093,138
0.456082,0.0582001,0.162897,142
0.457027,0.0582066,0.164161,139
0.456642,0.058201,0.164946,140
0.456664,0.0581991,0.165879,138
0.457905,0.0582084,0.167261,133
0.456824,0.0581964,0.167791,132
0.456557,0.0581919,0.168619,128
0.457741,0.0582006,0.16999,122
0.457184,0.0581934,0.170712,117
0.458198,0.0582006,0.172026,123
0.457059,0.0581881,0.172527,119
0.456272,0.0581788,0.173159,124
0.456703,0.0581806,0.174256,116
0.456612,0.0581777,0.175155,117
0.457569,0.0581843,0.17646,113
0.45818,0.0581877,0.177636,104
0.459205,0.0581949,0.178977,97
0.45894,0.0581904,0.179814,99
0.459498,0.0581934,0.180978,89
0.458177,0.0581792,0.181396,95
0.458558,0.0581806,0.182491,93
0.458823,0.0581808,0.183542,97
0.459148,0.0581816,0.184619,92
0.459828,0.0581857,0.185843,91
0.460155,0.0581865,0.186926,93
0.459892,0.058182,0.187769,104
0.460755,0.0581876,0.189077,98
0.460018,0.0581788,0.189725,103
0.461596,0.0581909,0.191337,102
0.462408,0.0581961,0.192635,105
0.461965,0.0581899,0.193409,103
0.46248,0.0581924,0.194587,102
0.4639,0.058203,0.196153,94
0.462674,0.0581898,0.196596,98
0.462952,0.0581901,0.19768,90
0.464136,0.0581986,0.199157,84
0.464175,0.0581968,0.200144,84
0.464578,0.0581982,0.20129,77
0.466139,0.05821,0.202946,80
0.46545,0.0582016,0.20362,87
0.466652,0.0582102,0.205127,84
0.467369,0.0582145,0.206426,76
0.46729,0.0582115,0.207373,114
0.468505,0.0582202,0.208901,78
0.46855,0.0582184,0.209908,82
0.468658,0.0582171,0.210945,78
0.456278,0.0626519,-0.218001,11
0.447229,0.0624787,-0.212739,12
0.450189,0.0625325,-0.213188,11
0.458466,0.0626867,-0.216124,9
0.448033,0.0624875,-0.210271,13
0.456578,0.0626467,-0.213303,9
0.460554,0.0627196,-0.214182,10
0.450839,0.062534,-0.208724,11
0.457528,0.0626581,-0.210847,10
0.450449,0.0625224,-0.206645,12
0.456183,0.0626284,-0.208307,18
0.453335,0.0625725,-0.206057,8
0.45719,0.062643,-0.206844,10
0.456022,0.0626189,-0.20536,14
0.460815,0.062707,-0.206546,11
0.458739,0.0626657,-0.204657,9
0.449759,0.0624944,-0.199721,10
0.459106,0.0626683,-0.202899,12
0.455006,0.0625889,-0.200142,16
0.453508,0.0625586,-0.198538,11
0.45479,0.0625806,-0.19815,16
0.454509,0.0625732,-0.197081,18
0.454345,0.062568,-0.196065,15
0.460216,0.0626762,-0.197635,17
0.457745,0.0626276,-0.195626,19
0.452017,0.0625178,-0.192247,18
0.45572,0.0625853,-0.192872,19
0.457833,0.0626228,-0.192817,12
0.473563,0.0629161,-0.198447,11
0.455347,0.0625719,-0.189889,14
0.457515,0.0626105,-0.189846,11
0.459821,0.0626516,-0.189851,13
0.464851,0.0627438,-0.190965,16
0.458079,0.0626146,-0.187246,17
0.462172,0.0626893,-0.187965,13
0.458047,0.0626098,-0.185349,15
0.461008,0.0626632,-0.185598,21
0.460843,0.0626579,-0.184586,17
0.458617,0.0626141,-0.182756,15
0.466387,0.0627575,-0.18489,17
0.466703,0.0627613,-0.184061,21
0.464963,0.0627265,-0.182425,16
0.466731,0.0627575,-0.182164,18
0.463192,0.0626891,-0.17984,21
0.465007,0.0627209,-0.179596,21
0.463643,0.0626933,-0.178125,18
0.464678,0.0627105,-0.177576,19
0.464155,0.0626986,-0.176433,23
0.462025,0.0626567,-0.174686,26
0.462459,0.0626627,-0.173911,20
0.464448,0.0626977,-0.173715,24
0.464107,0.0626892,-0.172648,20
0.462694,0.0626607,-0.171186,23
0.468615,0.0627691,-0.172425,24
0.469428,0.0627821,-0.171774,23
0.470182,0.062794,-0.1711,22
0.472793,0.0628406,-0.171095,21
0.468876,0.0627654,-0.168735,23
0.469569,0.0627762,-0.168037,27
0.470079,0.0627836,-0.167274,22
0.470898,0.0627967,-0.166618,20
0.468718,0.0627539,-0.164906,31
0.471372,0.0628013,-0.164892,28
0.468824,0.0627517,-0.163062,27
0.467271,0.0627206,-0.161586,35
0.469603,0.0627619,-0.16145,26
0.471835,0.0628013,-0.161272,33
0.469835,0.062762,-0.159651,27
0.469921,0.0627615,-0.158741,29
0.471479,0.0627883,-0.158325,29
0.471443,0.0627855,-0.157373,31
0.473877,0.0628287,-0.15724,29
0.471251,0.0627777,-0.155432,32
0.471156,0.0627738,-0.154463,29
0.471675,0.0627814,-0.153695,32
0.477548,0.0628883,-0.154658,32
0.473643,0.0628137,-0.152455,35
0.476037,0.062856,-0.15228,31
0.471423,0.0627683,-0.149872,32
0.475035,0.0628331,-0.150078,35
0.473763,0.0628074,-0.148739,33
0.475035,0.0628289,-0.148199,38
0.479841,0.0629158,-0.148748,40
0.476095,0.0628443,-0.146649,38
0.47669,0.0628532,-0.145892,40
0.475537,0.0628297,-0.144603,40
0.475758,0.0628317,-0.143733,43
0.475605,0.0628268,-0.142751,42
0.475827,0.0628287,-0.141881,44
0.478178,0.0628701,-0.141642,41
0.478276,0.0628698,-0.140732,46
0.47687,0.0628417,-0.139383,41
0.475349,0.0628115,-0.138008,38
0.477508,0.0628493,-0.137698,41
0.475922,0.0628179,-0.13631,43
0.477521,0.0628453,-0.135833,43
0.476998,0.0628335,-0.134752,46
0.475294,0.0628,-0.133343,49
0.475645,0.0628044,-0.132513,50
0.476121,0.0628111,-0.131717,49
0.476225,0.0628109,-0.130817,50
0.47608,0.0628061,-0.12985,52
0.476745,0.0628163,-0.129104,48
0.474926,0.0627807,-0.127688,50
0.475961,0.0627977,-0.127041,52
0.47452,0.062769,-0.125735,49
0.475555,0.062786,-0.125086,56
0.477092,0.0628122,-0.124565,51
0.47664,0.0628018,-0.123523,51
0.474457,0.0627595,-0.12204,51
0.473582,0.0627414,-0.120898,64
0.473385,0.0627357,-0.119932,62
0.473556,0.0627367,-0.11906,66
0.473422,0.0627322,-0.118112,66
0.47292,0.0627209,-0.117075,67
0.474259,0.0627435,-0.11649,64
0.472777,0.0627142,-0.115216,65
0.472951,0.0627153,-0.114347,71
0.47221,0.0626997,-0.113259,72
0.472202,0.0626975,-0.112349,74
0.47183,0.0626886,-0.111353,66
0.472005,0.0626897,-0.110488,66
0.472791,0.0627021,-0.109764,66
0.470298,0.0626543,-0.108283,60
0.470776,0.0626611,-0.107491,61
0.470289,0.0626501,-0.106478,63
0.471192,0.0626646,-0.10578,63
0.469861,0.0626382,-0.104582,62
0.470945,0.062656,-0.103922,66
0.472095,0.0626751,-0.103273,66
0.469918,0.0626331,-0.1019,59
0.470279,0.0626377,-0.10108,59
0.470641,0.0626423,-0.100259,64
0.470703,0.0626414,-0.0993746,59
0.470162,0.0626295,-0.0983645,64
0.471613,0.062654,-0.097769,69
0.471193,0.0626443,-0.0967849,68
0.47162,0.0626501,-0.095975,64
0.470778,0.0626327,-0.0949088,62
0.471931,0.0626518,-0.0942437,65
0.471876,0.0626487,-0.0933364,71
0.471822,0.0626457,-0.0924298,75
0.470681,0.0626229,-0.0913139,71
0.471111,0.0626287,-0.0905035,72
0.471059,0.0626257,-0.0896007,80
0.472034,0.0626415,-0.0888915,75
0.47265,0.0626507,-0.0881122,77
0.471389,0.0626257,-0.0869856,74
0.471339,0.0626228,-0.086085,75
0.472015,0.0626331,-0.0853158,75
0.472694,0.0626435,-0.0845449,82
0.471496,0.0626196,-0.083441,82
0.471449,0.0626168,-0.0825428,83
0.471645,0.0626183,-0.081687,77
0.471297,0.06261,-0.0807384,78
0.471554,0.0626126,-0.0798935,80
0.471329,0.0626065,-0.0789676,83
0.472858,0.0626324,-0.0783323,79
0.470161,0.0625813,-0.0770025,85
0.471623,0.0626059,-0.0763537,80
0.470799,0.0625889,-0.0753356,87
0.470338,0.0625785,-0.0743783,84
0.471019,0.0625889,-0.0736007,90
0.469721,0.0625633,-0.0725167,95
0.470342,0.0625726,-0.0717293,99
0.469825,0.0625612,-0.0707694,91
0.470387,0.0625694,-0.0699716,100
0.469872,0.0625581,-0.0690146,105
0.469956,0.0625576,-0.0681465,110
0.469444,0.0625463,-0.0671933,108
0.469231,0.0625405,-0.0662846,116
0.469317,0.0625401,-0.0654185,109
0.469285,0.0625375,-0.0645362,114
0.469075,0.0625317,-0.0636304,109
0.469044,0.0625292,-0.0627496,111
0.469073,0.0625277,-0.0618771,114
0.46839,0.0625134,-0.0609128,115
0.468599,0.0625152,-0.060065,113
0.468511,0.0625116,-0.0591796,114
0.469019,0.0625188,-0.0583683,117
0.468161,0.0625013,-0.0573892,116
0.468669,0.0625086,-0.0565775,110
0.469596,0.0625234,-0.0558136,118
0.469929,0.0625274,-0.0549775,114
0.469369,0.0625153,-0.0540384,114
0.469167,0.0625097,-0.0531419,111
0.469621,0.0625159,-0.0523191,111
0.469599,0.0625136,-0.0514431,113
0.470234,0.0625231,-0.0506376,121
0.469915,0.0625153,-0.0497299,112
0.46936,0.0625033,-0.0487992,120
0.470474,0.0625215,-0.04804,116
0.469799,0.0625073,-0.0470991,123
0.470378,0.0625158,-0.0462832,119
0.470601,0.0625179,-0.0454313,127
0.470525,0.0625145,-0.0445508,127
0.470748,0.0625166,-0.0436984,132
0.471213,0.062523,-0.0428671,129
0.470899,0.0625153,-0.0419657,128
0.471485,0.0625239,-0.0411433,125
0.472555,0.0625413,-0.0403599,133
0.471641,0.0625228,-0.0394087,130
0.47175,0.0625228,-0.0385439,133
0.4721,0.0625271,-0.0376978,132
0.471669,0.0625174,-0.0367905,131
0.472382,0.0625283,-0.035971,130
0.472313,0.0625251,-0.0350917,136
0.47315,0.0625381,-0.0342776,137
0.47266,0.0625274,-0.0333682,133
0.474227,0.0625536,-0.0326001,138
0.473373,0.0625362,-0.0316669,139
0.473913,0.062544,-0.0308263,128
0.475185,0.0625648,-0.0300294,131
0.476159,0.0625804,-0.0292099,137
0.475789,0.0625717,-0.0283084,137
0.474934,0.0625544,-0.027381,139
0.476153,0.0625743,-0.0265704,141
0.475664,0.0625635,-0.0256652,144
0.475543,0.0625594,-0.0247806,143
0.476522,0.062575,-0.0239507,144
0.477321,0.0625873,-0.0231089,148
0.477447,0.0625876,-0.0222335,143
0.477389,0.0625846,-0.0213498,147
0.478379,0.0626003,-0.0205102,151
0.478631,0.0626028,-0.0196375,149
0.477774,0.0625855,-0.0187219,153
0.478458,0.0625958,-0.0178653,149
0.479022,0.0626039,-0.0170021,151
0.47996,0.0626187,-0.0161491,153
0.479659,0.0626113,-0.0152547,152
0.479421,0.062605,-0.0143633,156
0.479742,0.0626088,-0.0134879,157
0.481185,0.0626326,-0.0126396,161
0.480947,0.0626263,-0.0117469,161
0.481023,0.0626257,-0.0108619,161
0.4806,0.0626161,-0.00996693,157
0.48074,0.0626166,-0.00908349,163
0.481129,0.0626216,-0.00820353,162
0.481021,0.0626176,-0.0073152,162
0.481225,0.0626193,-0.00643111,156
0.481868,0.0626288,-0.00555078,163
0.481449,0.0626193,-0.00465916,159
0.481594,0.0626199,-0.00377281,164
0.481176,0.0626104,-0.0028833,163
0.481385,0.0626121,-0.00199712,165
0.481282,0.0626083,-0.00110986,161
0.480618,0.0625945,-0.000223468,165
0.480891,0.0625973,0.000663025,157
0.480791,0.0625935,0.00154883,162
0.479262,0.0625643,0.0024251,151
0.47966,0.0625694,0.00331169,158
0.479376,0.0625623,0.00419287,162
0.477859,0.0625333,0.00505824,163
0.477088,0.0625176,0.00592835,163
0.47632,0.062502,0.0067957,158
0.475922,0.0624929,0.00766674,157
0.47589,0.0624904,0.00854348,166
0.474824,0.0624694,0.00939817,163
0.474006,0.0624529,0.0102547,170
0.473675,0.062445,0.0111204,173
0.472802,0.0624275,0.0119704,170
0.472654,0.062423,0.0128381,177
0.472749,0.0624227,0.0137127,177
0.472422,0.0624149,0.0145741,172
0.472578,0.0624157,0.0154509,173
0.472133,0.0624058,0.0163067,169
0.47217,0.0624045,0.0171792,173
0.470232,0.0623682,0.0179734,170
0.469674,0.0623563,0.018818,174
0.468822,0.0623392,0.0196479,172
0.46898,0.0623401,0.0205205,170
0.468783,0.0623346,0.021377,170
0.468469,0.0623271,0.0222272,173
0.468096,0.0623186,0.0230734,173
0.466959,0.0622965,0.0238781,170
0.465711,0.0622724,0.0246726,170
0.466986,0.062293,0.0256051,164
0.466442,0.0622815,0.0264364,163
0.465667,0.0622658,0.0272519,163
0.465303,0.0622574,0.0280902,162
0.465348,0.0622563,0.0289535,160
0.464928,0.0622469,0.0297865,154
0.464742,0.0622417,0.030634,156
0.464731,0.0622395,0.0314932,165
0.464256,0.0622292,0.0323193,157
0.464479,0.0622312,0.0331951,160
0.464238,0.062225,0.0340369,156
0.463592,0.0622117,0.034847,152
0.463991,0.0622168,0.0357372,152
0.464101,0.0622168,0.0366058,153
0.464619,0.062224,0.0375087,152
0.464206,0.0622147,0.0383352,151
0.464785,0.062223,0.0392459,153
0.464723,0.06222,0.0401025,153
0.467065,0.0622593,0.0411755,158
0.465419,0.0622283,0.0418911,157
0.465184,0.0622222,0.0427331,156
0.465593,0.0622275,0.043636,157
0.464833,0.0622122,0.0444268,161
0.465418,0.0622205,0.0453486,156
0.465712,0.0622238,0.0462435,161
0.465363,0.0622157,0.0470734,156
0.464723,0.0622024,0.0478718,155
0.465428,0.0622129,0.0488116,155
0.467078,0.0622399,0.0498571,155
0.465789,0.0622153,0.0505842,155
0.466265,0.0622217,0.0515051,159
0.466389,0.0622219,0.052388,157
0.466279,0.062218,0.0532444,156
0.467111,0.0622307,0.0542119,158
0.467416,0.0622341,0.0551196,160
0.466422,0.0622147,0.0558707,156
0.466668,0.062217,0.0567716,154
0.466915,0.0622194,0.0576739,154
0.466514,0.0622104,0.058495,158
0.467707,0.0622294,0.0595209,159
0.467424,0.0622224,0.0603582,159
0.467379,0.0622197,0.0612262,155
0.466921,0.0622096,0.0620388,160
0.467942,0.0622256,0.0630523,160
0.468017,0.0622249,0.063939,164
0.467915,0.0622211,0.0648013,158
0.467873,0.0622184,0.0656722,158
0.468961,0.0622355,0.0667064,161
0.468921,0.0622328,0.0675801,159
0.468881,0.0622301,0.0684541,153
0.470216,0.0622515,0.0695346,160
0.469998,0.0622457,0.0703846,159
0.469541,0.0622357,0.0711976,159
0.469205,0.0622278,0.072028,163
0.469946,0.0622388,0.0730272,161
0.47027,0.0622425,0.0739631,159
0.471076,0.0622546,0.0749786,158
0.471645,0.0622625,0.0759586,156
0.47143,0.0622567,0.076812,152
0.472243,0.0622689,0.0778366,157
0.471908,0.0622611,0.0786708,159
0.471877,0.0622585,0.079556,162
0.471362,0.0622475,0.0803583,163
0.472664,0.0622682,0.0814759,164
0.4707,0.0622319,0.0820228,163
0.472423,0.06226,0.0832204,167
0.472638,0.0622617,0.084153,171
0.472004,0.0622486,0.0849323,163
0.472037,0.0622472,0.0858325,169
0.472375,0.0622511,0.08679,163
0.472592,0.0622528,0.0877265,172
0.470692,0.0622177,0.0882625,166
0.472604,0.062249,0.0895227,167
0.470282,0.0622066,0.0899709,169
0.469658,0.0621937,0.0907426,169
0.470057,0.0621986,0.0917144,170
0.469794,0.062192,0.0925565,170
0.469173,0.0621792,0.0933259,178
0.469273,0.0621789,0.0942398,176
0.468833,0.0621693,0.0950442,177
0.468814,0.0621669,0.0959343,169
0.467065,0.0621345,0.0964637,178
0.466928,0.0621301,0.0973267,177
0.466139,0.0621144,0.098051,175
0.465708,0.0621049,0.0988497,172
0.465514,0.0620996,0.0996986,168
0.46479,0.062085,0.100432,163
0.463893,0.0620674,0.101124,158
0.464937,0.0620835,0.102245,166
0.464099,0.062067,0.102949,157
0.463147,0.0620485,0.103624,159
0.463368,0.0620503,0.104564,157
0.462945,0.062041,0.105357,157
0.4627,0.0620347,0.10619,160
0.46263,0.0620315,0.107064,154
0.46338,0.0620425,0.108132,155
0.463253,0.0620383,0.108994,156
0.463713,0.0620442,0.109997,155
0.463352,0.0620359,0.110805,152
0.463461,0.0620358,0.111726,150
0.462984,0.0620255,0.112504,153
0.463094,0.0620254,0.113426,152
0.463322,0.0620273,0.114379,152
0.463434,0.0620272,0.115304,149
0.463723,0.0620302,0.116274,152
0.463541,0.062025,0.117127,154
0.463126,0.0620158,0.117919,155
0.463651,0.0620229,0.118955,153
0.463589,0.0620198,0.119839,146
0.463528,0.0620167,0.120724,151
0.463349,0.0620116,0.121579,146
0.464233,0.0620248,0.122716,150
0.463465,0.0620095,0.123414,147
0.463465,0.0620074,0.124318,154
0.463996,0.0620146,0.125367,156
0.463643,0.0620064,0.126176,155
0.464413,0.0620176,0.127295,161
0.464534,0.0620177,0.128237,153
0.464063,0.0620075,0.129013,154
0.464244,0.0620086,0.129973,152
0.46407,0.0620035,0.130834,152
0.464727,0.0620128,0.131932,150
0.464732,0.0620108,0.132846,157
0.464381,0.0620027,0.133657,155
0.464922,0.0620099,0.134728,157
0.463979,0.0619917,0.135365,156
0.463867,0.0619877,0.136245,160
0.464231,0.0619919,0.137268,159
0.463587,0.0619788,0.13799,159
0.463241,0.0619708,0.1388,159
0.462895,0.0619628,0.13961,163
0.462432,0.0619528,0.140384,160
0.462089,0.0619448,0.141193,162
0.46204,0.0619419,0.142092,165
0.461756,0.061935,0.14292,160
0.461238,0.0619241,0.143673,162
0.461544,0.0619272,0.144684,160
0.460734,0.0619113,0.145344,159
0.461039,0.0619144,0.146357,162
0.459764,0.0618906,0.146864,164
0.459719,0.0618877,0.147765,163
0.45909,0.0618749,0.148477,160
0.458348,0.0618601,0.149149,157
0.458362,0.0618583,0.150069,160
0.458086,0.0618515,0.150893,154
0.457579,0.0618408,0.151639,151
0.457362,0.061835,0.152482,148
0.456799,0.0618234,0.153208,146
0.457451,0.0618324,0.154346,147
0.456716,0.0618178,0.155012,150
0.457427,0.0618279,0.156174,153
0.457386,0.0618251,0.157079,151
0.457346,0.0618223,0.157985,148
0.456727,0.0618097,0.158689,147
0.457673,0.0618238,0.159943,144
0.457984,0.061827,0.160975,141
0.456437,0.0617985,0.16135,133
0.457675,0.0618175,0.162715,130
0.45723,0.0618079,0.16348,132
0.457193,0.0618051,0.164392,136
0.456576,0.0617926,0.165094,130
0.456714,0.0617928,0.16607,134
0.457608,0.0618059,0.167326,126
0.457165,0.0617963,0.168091,129
0.458238,0.0618124,0.16942,122
0.456979,0.0617889,0.169881,126
0.456771,0.0617833,0.170734,122
0.457552,0.0617945,0.17196,121
0.45822,0.0618037,0.173147,123
0.458012,0.061798,0.174004,123
0.458272,0.0618003,0.17504,118
0.458006,0.0617937,0.175875,116
0.457682,0.0617861,0.176687,112
0.458764,0.0618023,0.178047,113
0.457971,0.0617868,0.178677,114
0.458234,0.0617891,0.179722,111
0.459203,0.0618034,0.181048,95
0.458703,0.0617928,0.181793,95
0.459972,0.0618121,0.183246,98
0.460774,0.0618236,0.184517,98
0.459384,0.0617979,0.184905,95
0.45918,0.0617923,0.185771,92
0.459507,0.0617957,0.186854,91
0.460013,0.0618021,0.188012,90
