ply
format ascii 1.0
comment Created by CloudCompare v2.11 alpha (Anoia)
comment Created 2025/12/9 17:12
obj_info Generated by CloudCompare!
element vertex 1433
property float x
property float y
property float z
property float scalar_Scalar_field
end_header
0.451834 0.0368901 -0.0242591 137 
0.451727 0.0368923 -0.0234246 134 
0.452001 0.0368801 -0.0226093 136 
0.452112 0.036874 -0.0217855 133 
0.452878 0.036843 -0.0209911 137 
0.452664 0.0368492 -0.0201513 136 
0.453651 0.0368098 -0.0193625 139 
0.454533 0.0367744 -0.018566 144 
0.454046 0.0367911 -0.0177142 142 
0.454436 0.0367743 -0.0168961 139 
0.454663 0.0367638 -0.016071 141 
0.455332 0.0367365 -0.0152595 139 
0.455671 0.0367217 -0.0144355 141 
0.455294 0.0367342 -0.0135897 146 
0.455635 0.0367193 -0.0127647 148 
0.456198 0.036696 -0.0119441 139 
0.455878 0.0367063 -0.0111009 138 
0.457275 0.0366512 -0.0102957 145 
0.457789 0.0366298 -0.00946809 141 
0.457691 0.0366317 -0.00862783 145 
0.457983 0.0366186 -0.00779416 147 
0.458333 0.0366034 -0.00696023 143 
0.458181 0.0366073 -0.00611896 141 
0.459092 0.0365707 -0.00528918 145 
0.459389 0.0365575 -0.00445089 145 
0.460644 0.0365078 -0.00361778 146 
0.460437 0.0365138 -0.00277318 145 
0.46102 0.0364896 -0.00193159 140 
0.46104 0.036487 -0.00108729 144 
0.4614 0.0364714 -0.000242616 143 
0.461308 0.036473 0.000602168 145 
0.461783 0.036453 0.00144922 150 
0.462146 0.0364372 0.00229733 143 
0.462339 0.0364279 0.0031454 146 
0.462876 0.0364056 0.00399769 146 
0.464101 0.0363569 0.00486026 148 
0.464757 0.03633 0.00571954 146 
0.465302 0.0363073 0.00657953 146 
0.466542 0.036258 0.00745381 146 
0.466918 0.0362418 0.00831596 145 
0.465731 0.0362851 0.00914635 148 
0.46779 0.0362046 0.0100474 148 
0.467471 0.0362149 0.0108968 148 
0.467793 0.0362006 0.0117623 152 
0.467476 0.0362108 0.0126107 147 
0.468382 0.0361743 0.0134954 150 
0.468708 0.0361599 0.0143647 153 
0.468567 0.0361633 0.0152193 151 
0.468953 0.0361467 0.0160926 151 
0.468462 0.0361635 0.0169341 148 
0.468908 0.0361445 0.0178112 150 
0.470531 0.0360805 0.0187391 147 
0.46951 0.0361176 0.019558 150 
0.468787 0.0361433 0.0203868 148 
0.470235 0.036086 0.0213156 152 
0.4691 0.0361274 0.0221232 150 
0.468614 0.0361441 0.0229597 155 
0.468246 0.0361562 0.0238007 154 
0.468464 0.0361459 0.0246726 156 
0.470149 0.0360795 0.0256284 154 
0.467558 0.0361767 0.0263409 155 
0.467602 0.036173 0.0272027 152 
0.467414 0.0361783 0.0280504 151 
0.467052 0.0361902 0.0288865 152 
0.466634 0.0362043 0.0297176 147 
0.466159 0.0362205 0.0305436 151 
0.46482 0.0362698 0.031308 148 
0.463719 0.03631 0.0320845 152 
0.463997 0.0362974 0.0329581 154 
0.463587 0.0363112 0.0337813 153 
0.462436 0.0363533 0.0345462 155 
0.461633 0.0363821 0.0353343 148 
0.461059 0.0364022 0.0361382 151 
0.460487 0.0364222 0.0369404 152 
0.460538 0.0364183 0.0377932 153 
0.460477 0.0364187 0.0386368 152 
0.460078 0.0364321 0.0394505 150 
0.460131 0.0364282 0.0403037 147 
0.459959 0.0364328 0.0411367 150 
0.458495 0.036487 0.0418482 148 
0.45883 0.0364723 0.0427265 142 
0.458661 0.0364768 0.0435571 141 
0.459504 0.0364426 0.0444878 145 
0.458717 0.0364708 0.0452571 141 
0.458102 0.0364925 0.0460414 144 
0.459113 0.0364518 0.0469943 139 
0.458106 0.0364885 0.0477357 141 
0.459063 0.0364499 0.048687 136 
0.458449 0.0364716 0.0494686 137 
0.458397 0.0364716 0.0503114 137 
0.45829 0.0364738 0.051148 142 
0.45925 0.036435 0.0521084 139 
0.458638 0.0364566 0.0528872 140 
0.459602 0.0364177 0.0538529 139 
0.45961 0.0364155 0.0547061 147 
0.460013 0.0363981 0.0556087 143 
0.459008 0.0364348 0.0563361 145 
0.459863 0.0364 0.0572972 143 
0.459647 0.0364063 0.0581234 140 
0.459941 0.0363931 0.059016 143 
0.460292 0.0363777 0.0599176 145 
0.460985 0.0363492 0.060867 144 
0.460941 0.0363489 0.0617186 142 
0.460899 0.0363486 0.0625705 141 
0.460516 0.0363614 0.0633749 137 
0.461099 0.036337 0.0643157 141 
0.461342 0.0363257 0.0652101 140 
0.460961 0.0363385 0.0660144 139 
0.461547 0.036314 0.066961 139 
0.462136 0.0362894 0.0679106 139 
0.462727 0.0362647 0.0688631 140 
0.462574 0.0362686 0.0697039 140 
0.462537 0.0362681 0.0705625 138 
0.463074 0.0362455 0.0715119 138 
0.463786 0.0362162 0.0724915 142 
0.464328 0.0361934 0.0734468 139 
0.465161 0.0361594 0.0744522 140 
0.464837 0.0361698 0.0752701 138 
0.466198 0.0361155 0.0763685 141 
0.464829 0.0361662 0.0770115 140 
0.465029 0.0361566 0.0779177 136 
0.467212 0.0360706 0.0791675 145 
0.467533 0.0360562 0.080101 147 
0.467503 0.0360554 0.0809742 142 
0.466888 0.0360771 0.0817434 141 
0.467445 0.0360537 0.082722 142 
0.46818 0.0360233 0.0837358 144 
0.468153 0.0360224 0.0846124 142 
0.469247 0.0359782 0.085698 146 
0.468689 0.0359977 0.0864778 143 
0.468487 0.0360035 0.0873234 142 
0.469822 0.0359501 0.0884636 140 
0.469265 0.0359695 0.0892429 144 
0.468828 0.0359844 0.090044 146 
0.469278 0.035965 0.0910192 148 
0.469552 0.0359525 0.0919616 149 
0.469531 0.0359513 0.092846 149 
0.469985 0.0359318 0.0938274 148 
0.470203 0.0359214 0.0947627 150 
0.469708 0.0359384 0.0955517 148 
0.469452 0.0359463 0.0963893 143 
0.469671 0.0359358 0.0973267 144 
0.469713 0.0359322 0.0982277 145 
0.470887 0.0358849 0.0993726 141 
0.470751 0.0358881 0.100239 147 
0.47008 0.035912 0.100988 146 
0.469648 0.0359266 0.101788 142 
0.469515 0.0359297 0.102653 144 
0.469918 0.0359122 0.103639 144 
0.468954 0.0359474 0.104317 147 
0.46906 0.0359413 0.105236 150 
0.469226 0.0359328 0.106171 146 
0.469214 0.0359312 0.107065 149 
0.468788 0.0359457 0.107863 149 
0.468244 0.0359647 0.108632 148 
0.467054 0.0360086 0.109246 151 
0.46728 0.0359979 0.110195 152 
0.467212 0.0359985 0.111075 155 
0.467499 0.0359854 0.112041 151 
0.467079 0.0359996 0.112836 160 
0.467072 0.0359978 0.113732 160 
0.466594 0.0360143 0.114511 153 
0.466941 0.0359988 0.115496 153 
0.466465 0.0360152 0.116274 152 
0.465872 0.0360361 0.117022 153 
0.466103 0.0360252 0.11798 152 
0.466217 0.0360187 0.118909 155 
0.465685 0.0360373 0.11967 149 
0.465682 0.0360354 0.12057 149 
0.465269 0.0360493 0.121361 148 
0.464506 0.0360768 0.122058 148 
0.464213 0.0360861 0.122878 142 
0.464738 0.0360637 0.12392 148 
0.463862 0.0360956 0.124583 145 
0.463396 0.0361117 0.125355 147 
0.463164 0.0361186 0.126191 147 
0.4627 0.0361345 0.126962 145 
0.462527 0.0361392 0.127814 143 
0.462529 0.0361371 0.128715 147 
0.462474 0.0361372 0.1296 150 
0.461376 0.0361777 0.130188 145 
0.462306 0.0361396 0.131356 141 
0.46231 0.0361374 0.13226 136 
0.460637 0.0362002 0.132674 139 
0.46174 0.0361555 0.1339 145 
0.460014 0.0362204 0.134292 140 
0.460307 0.0362069 0.135281 143 
0.459795 0.0362248 0.136029 138 
0.459629 0.0362292 0.136881 133 
0.459234 0.0362424 0.137664 137 
0.459471 0.0362312 0.138639 139 
0.45902 0.0362467 0.139403 136 
0.458112 0.0362799 0.140025 138 
0.457265 0.0363107 0.140663 141 
0.457558 0.0362973 0.141657 133 
0.457568 0.0362949 0.142562 134 
0.457178 0.036308 0.143342 133 
0.456449 0.0363343 0.144012 134 
0.456345 0.0363362 0.144882 133 
0.456356 0.0363338 0.145788 131 
0.455573 0.0363621 0.146437 130 
0.455698 0.0363552 0.147381 134 
0.456164 0.0363351 0.148439 130 
0.45476 0.0363876 0.14888 128 
0.45466 0.0363895 0.14975 128 
0.454334 0.0364001 0.150545 128 
0.454574 0.0363887 0.15153 123 
0.454418 0.0363927 0.152383 118 
0.454206 0.0363989 0.153217 120 
0.45439 0.0363897 0.154187 121 
0.454405 0.0363871 0.1551 120 
0.454365 0.0363866 0.155994 120 
0.454663 0.0363729 0.157008 126 
0.454171 0.03639 0.157746 121 
0.454527 0.0363741 0.158782 119 
0.453922 0.0363956 0.159479 120 
0.453771 0.0363994 0.160336 117 
0.454071 0.0363857 0.161357 120 
0.45392 0.0363895 0.162215 115 
0.454562 0.0363625 0.163363 116 
0.454354 0.0363685 0.164203 114 
0.454544 0.036359 0.16519 112 
0.454735 0.0363495 0.166178 105 
0.455154 0.0363311 0.167253 102 
0.455289 0.0363238 0.168224 105 
0.454799 0.0363408 0.168961 98 
0.454253 0.03636 0.169677 104 
0.454787 0.0363371 0.170801 100 
0.454582 0.036343 0.171646 99 
0.457007 0.0362464 0.173502 95 
0.454743 0.0363325 0.173556 102 
0.455452 0.0363028 0.174757 108 
0.455363 0.0363042 0.17565 106 
0.455331 0.0363033 0.176567 97 
0.455414 0.036298 0.177529 100 
0.455555 0.0362904 0.178515 90 
0.455753 0.0362805 0.179526 83 
0.455666 0.0362819 0.180424 83 
0.45535 0.0362921 0.18123 89 
0.455435 0.0362866 0.182199 80 
0.455693 0.0362745 0.183238 92 
0.456066 0.0362578 0.184327 87 
0.456729 0.0362298 0.185538 77 
0.456125 0.0362512 0.186229 81 
0.457252 0.0362051 0.187637 81 
0.456705 0.0362243 0.188352 75 
0.457546 0.0361894 0.189648 88 
0.458567 0.0361474 0.191023 85 
0.45709 0.0362029 0.191346 90 
0.457702 0.0361769 0.192554 81 
0.458027 0.036162 0.193641 80 
0.458002 0.0361608 0.194581 85 
0.458095 0.0361551 0.195572 83 
0.459006 0.0361173 0.19692 80 
0.458224 0.0361457 0.197534 84 
0.458785 0.0361216 0.198735 78 
0.459584 0.0360883 0.200043 85 
0.45968 0.0360823 0.201045 77 
0.459014 0.0361062 0.201709 73 
0.460699 0.0360381 0.203422 126 
0.45956 0.0360805 0.203875 73 
0.459834 0.0360676 0.204962 75 
0.460523 0.0360385 0.206239 79 
0.467544 0.0330773 -0.221911 12 
0.453199 0.0337192 -0.214115 11 
0.459168 0.0334489 -0.21598 10 
0.458701 0.0334678 -0.214793 12 
0.461411 0.0333438 -0.215097 9 
2.87425 -0.0750293 -1.34683 10 
0.461414 0.0333393 -0.21316 12 
0.460059 0.033398 -0.211566 11 
0.461892 0.0333135 -0.211445 7 
0.152333 0.0472287 -0.0712394 8 
0.260844 0.0423467 -0.118492 11 
0.465602 0.0331402 -0.210231 12 
0.456928 0.0335279 -0.205342 14 
0.145844 0.047518 -0.0672366 7 
0.455786 0.033575 -0.202927 8 
0.455965 0.0335648 -0.202059 9 
0.456146 0.0335545 -0.201191 13 
0.450409 0.0338104 -0.197713 11 
0.455586 0.0335754 -0.199052 10 
0.45802 0.0334638 -0.199171 12 
0.457449 0.0334873 -0.197974 11 
0.45135 0.0337596 -0.194388 9 
0.451586 0.0337469 -0.193557 12 
0.454375 0.0336193 -0.19382 11 
0.456966 0.0335005 -0.193988 12 
0.137512 0.0478853 -0.0602791 8 
0.452819 0.033683 -0.190354 13 
0.455277 0.0335702 -0.190455 13 
0.452505 0.0336929 -0.18836 15 
0.451729 0.0337257 -0.187109 12 
0.452194 0.0337027 -0.186374 11 
0.452546 0.0336848 -0.185593 13 
0.462183 0.0332485 -0.188618 14 
0.45235 0.0336894 -0.18366 16 
0.453494 0.0336358 -0.1832 13 
0.449917 0.0337949 -0.18083 12 
0.458097 0.0334241 -0.183199 15 
0.449339 0.0338168 -0.178764 13 
0.451811 0.0337033 -0.178832 16 
0.448709 0.033841 -0.176686 16 
0.448341 0.0338556 -0.175629 17 
0.452032 0.0336871 -0.176164 16 
0.447443 0.033892 -0.173459 14 
0.447902 0.0338692 -0.17273 17 
0.448749 0.033829 -0.172149 21 
0.449045 0.0338135 -0.171355 18 
0.447853 0.0338653 -0.169992 19 
0.446887 0.0339068 -0.168721 16 
0.447237 0.033889 -0.167952 15 
0.447369 0.033881 -0.167099 20 
0.447555 0.0338705 -0.166268 16 
0.447523 0.03387 -0.165355 15 
0.443852 0.0340337 -0.163099 16 
0.443391 0.0340524 -0.162038 16 
0.446664 0.0339027 -0.162343 24 
0.444572 0.0339951 -0.160687 23 
0.443466 0.034043 -0.159397 21 
0.440929 0.0341556 -0.157598 22 
0.448899 0.0337936 -0.159562 23 
0.444836 0.0339751 -0.157222 21 
0.446652 0.0338911 -0.156975 24 
0.444135 0.0340028 -0.155199 29 
0.444809 0.0339703 -0.154549 32 
0.442957 0.034052 -0.15302 83 
0.444326 0.0339882 -0.152611 28 
0.44881 0.0337835 -0.153266 28 
0.444545 0.0339743 -0.150919 28 
0.444843 0.0339588 -0.150137 28 
0.445683 0.0339189 -0.149537 26 
0.446037 0.0339008 -0.148773 23 
0.445959 0.0339024 -0.147863 29 
0.446694 0.0338671 -0.147224 29 
0.447868 0.033812 -0.146727 31 
0.447245 0.0338382 -0.145638 34 
0.449627 0.0337284 -0.14553 35 
0.44933 0.0337399 -0.144547 34 
0.449252 0.0337414 -0.143636 32 
0.44694 0.033844 -0.142013 36 
0.447408 0.0338209 -0.141281 35 
0.447278 0.0338248 -0.140361 40 
0.447041 0.0338335 -0.139407 31 
0.447184 0.033825 -0.138574 34 
0.448198 0.0337772 -0.13801 36 
0.448288 0.0337711 -0.137159 37 
0.450184 0.0336833 -0.13686 36 
0.449069 0.0337318 -0.135641 42 
0.449653 0.0337033 -0.134938 41 
0.447781 0.0337862 -0.133499 42 
0.44733 0.0338046 -0.13249 35 
0.451194 0.0336276 -0.13276 41 
0.44953 0.033701 -0.131391 39 
0.449733 0.0336898 -0.130574 38 
0.450594 0.0336488 -0.129948 48 
0.449757 0.0336848 -0.12883 45 
0.448869 0.033723 -0.127702 38 
0.452424 0.0335599 -0.127839 41 
0.450426 0.0336485 -0.126398 48 
0.452727 0.0335422 -0.126168 50 
0.452271 0.0335609 -0.125164 48 
0.452313 0.033557 -0.124299 51 
0.451474 0.0335931 -0.123194 42 
0.453674 0.0334913 -0.122919 50 
0.452001 0.0335652 -0.12159 45 
0.450452 0.0336335 -0.120301 50 
0.451045 0.0336047 -0.11959 50 
0.452577 0.0335332 -0.119125 54 
0.453675 0.0334814 -0.118541 52 
0.451787 0.0335651 -0.117175 55 
0.452771 0.0335185 -0.11656 55 
0.453593 0.0334792 -0.1159 54 
0.453752 0.03347 -0.115069 55 
0.453911 0.0334608 -0.114237 55 
0.454126 0.0334491 -0.11342 64 
0.453898 0.0334575 -0.112492 61 
0.455116 0.0334002 -0.111922 59 
0.454331 0.0334339 -0.110858 59 
0.457177 0.0333026 -0.110681 58 
0.4551 0.033395 -0.109305 60 
0.455041 0.0333957 -0.10842 61 
0.456883 0.0333101 -0.107988 68 
0.457217 0.0332929 -0.107194 62 
0.456765 0.0333115 -0.106216 62 
0.456426 0.0333249 -0.105267 67 
0.457604 0.0332694 -0.104667 76 
0.457209 0.0332854 -0.103706 73 
0.457433 0.0332732 -0.102886 77 
0.456871 0.0332968 -0.10189 81 
0.458391 0.0332258 -0.101359 81 
0.458053 0.0332391 -0.100413 81 
0.457942 0.0332422 -0.0995193 92 
0.458508 0.0332145 -0.0987727 82 
0.459245 0.033179 -0.0980612 81 
0.460326 0.0331279 -0.0974204 81 
0.459365 0.0331696 -0.0963458 78 
0.459766 0.0331494 -0.0955598 78 
0.460452 0.0331163 -0.0948317 83 
0.460798 0.0330985 -0.0940319 86 
0.46069 0.0331015 -0.093139 89 
0.46138 0.0330681 -0.0924075 87 
0.461444 0.0330632 -0.0915491 86 
0.461965 0.0330375 -0.0907813 85 
0.462202 0.0330248 -0.0899564 81 
0.46405 0.0329387 -0.0894428 84 
0.462965 0.0329861 -0.0883606 86 
0.463607 0.0329549 -0.0876108 91 
0.462698 0.0329943 -0.0865675 97 
0.462766 0.0329893 -0.0857099 102 
0.463121 0.0329711 -0.0849055 95 
0.463421 0.0329555 -0.0840899 96 
0.463836 0.0329346 -0.0832945 92 
0.463504 0.0329478 -0.0823646 93 
0.464209 0.0329137 -0.0816195 93 
0.463532 0.0329426 -0.080631 96 
0.463777 0.0329294 -0.0798046 97 
0.464196 0.0329084 -0.0790073 104 
0.464097 0.0329109 -0.0781215 108 
0.463768 0.0329239 -0.0771982 102 
0.464304 0.0328975 -0.0764192 105 
0.464899 0.0328684 -0.0756483 107 
0.46365 0.0329234 -0.0745781 109 
0.464303 0.0328917 -0.0738161 107 
0.46438 0.0328862 -0.0729615 106 
0.462965 0.0329488 -0.0718746 105 
0.462643 0.0329616 -0.0709615 109 
0.463352 0.0329273 -0.0702067 109 
0.463318 0.0329269 -0.069338 107 
0.462711 0.0329526 -0.0683852 111 
0.461994 0.0329834 -0.0674187 110 
0.461904 0.0329856 -0.066546 112 
0.461247 0.0330136 -0.0655931 112 
0.461785 0.0329871 -0.0648109 115 
0.46113 0.0330151 -0.0638617 111 
0.461497 0.0329964 -0.0630553 113 
0.460675 0.033032 -0.0620871 114 
0.46042 0.0330417 -0.061198 114 
0.459885 0.0330642 -0.0602734 115 
0.458566 0.0331226 -0.0592496 111 
0.457813 0.0331551 -0.0583034 113 
0.456896 0.033195 -0.0573398 116 
0.456872 0.0331942 -0.0564903 121 
0.456626 0.0332035 -0.0556142 120 
0.455994 0.0332305 -0.0546929 120 
0.456915 0.0331865 -0.0539577 120 
0.454901 0.0332767 -0.0528784 123 
0.455432 0.0332505 -0.0520978 124 
0.45591 0.0332267 -0.0513095 124 
0.454952 0.0332686 -0.050361 122 
0.455209 0.033255 -0.0495484 118 
0.453653 0.0333243 -0.0485413 123 
0.453417 0.0333332 -0.0476789 118 
0.452909 0.0333545 -0.0467897 119 
0.453002 0.0333484 -0.0459635 119 
0.452769 0.0333571 -0.0451047 119 
0.451504 0.0334131 -0.0441464 120 
0.450679 0.033449 -0.0432352 120 
0.450504 0.0334551 -0.0423883 120 
0.450654 0.0334464 -0.0415721 121 
0.449888 0.0334796 -0.0406731 119 
0.449608 0.0334905 -0.03982 119 
0.449491 0.033494 -0.0389822 119 
0.448838 0.033522 -0.0380999 124 
0.448669 0.0335279 -0.0372601 125 
0.450055 0.0334626 -0.0365468 124 
0.44951 0.0334857 -0.0356761 124 
0.449074 0.0335038 -0.0348161 124 
0.449872 0.0334653 -0.0340507 126 
0.450404 0.0334391 -0.0332629 128 
0.449646 0.033472 -0.0323812 130 
0.449695 0.0334678 -0.0315587 129 
0.44996 0.0334538 -0.0307507 131 
0.450441 0.0334299 -0.0299562 133 
0.451356 0.0333861 -0.0291878 130 
0.450597 0.033419 -0.0283122 131 
0.450973 0.0333999 -0.027508 131 
0.450864 0.0334031 -0.0266742 134 
0.451946 0.0333516 -0.0259082 132 
0.452163 0.0333398 -0.0250912 133 
0.452056 0.0333428 -0.0242562 131 
0.454238 0.0332409 -0.0235386 134 
0.452331 0.0333265 -0.022612 135 
0.452062 0.0333369 -0.0217701 135 
0.452391 0.0333199 -0.0209565 140 
0.454524 0.0332202 -0.0202204 139 
0.453325 0.0332733 -0.0193375 138 
0.454369 0.0332236 -0.0185485 136 
0.453828 0.0332465 -0.0176955 140 
0.454601 0.0332091 -0.0168921 142 
0.454444 0.0332145 -0.016054 138 
0.455221 0.033177 -0.015247 141 
0.45567 0.0331545 -0.0144271 141 
0.455624 0.0331547 -0.0135913 143 
0.457238 0.0330787 -0.0128005 141 
0.457859 0.0330483 -0.0119789 144 
0.456539 0.033107 -0.0111099 144 
0.457883 0.0330434 -0.0103028 147 
0.457506 0.0330588 -0.00945723 146 
0.458354 0.0330179 -0.00863472 145 
0.458592 0.0330052 -0.00779945 147 
0.458439 0.0330103 -0.00695789 145 
0.458454 0.0330077 -0.00611896 145 
0.458749 0.0329922 -0.00528287 145 
0.459325 0.0329638 -0.00444806 145 
0.460748 0.0328966 -0.00361667 143 
0.460935 0.0328861 -0.00277423 143 
0.459828 0.032935 -0.00192744 144 
0.460804 0.0328883 -0.00108679 143 
0.461672 0.0328465 -0.000242616 141 
0.46141 0.0328566 0.000601706 141 
0.461715 0.0328407 0.00144766 143 
0.462077 0.0328221 0.00229514 145 
0.462611 0.0327956 0.0031454 148 
0.463889 0.0327349 0.00400521 148 
0.465003 0.0326818 0.00486783 143 
0.465258 0.0326681 0.00572272 141 
0.465572 0.0326517 0.00657953 140 
0.465657 0.0326459 0.00743353 144 
0.468176 0.0325281 0.00833514 147 
0.467972 0.0325355 0.00918824 142 
0.466956 0.0325803 0.0100219 147 
0.468032 0.0325289 0.0109041 150 
0.468354 0.0325121 0.0117701 148 
0.468328 0.0325114 0.0126274 153 
0.468769 0.0324891 0.013499 151 
0.469504 0.0324533 0.0143818 145 
0.468311 0.0325063 0.0152014 146 
0.468521 0.0324947 0.0160673 144 
0.468498 0.0324939 0.0169252 145 
0.468534 0.0324902 0.0177856 145 
0.468454 0.032492 0.0186413 146 
0.468492 0.0324883 0.019502 149 
0.468355 0.0324927 0.020355 151 
0.468161 0.0324997 0.0212049 148 
0.468201 0.0324959 0.0220658 159 
0.468358 0.0324867 0.0229329 159 
0.468516 0.0324775 0.0238007 158 
0.4678 0.0325085 0.0246215 158 
0.467726 0.03251 0.0254762 153 
0.467944 0.032498 0.0263477 161 
0.466768 0.0325503 0.0271362 158 
0.464908 0.0326342 0.027878 152 
0.464149 0.0326672 0.0286835 152 
0.465747 0.0325916 0.0296415 147 
0.46447 0.0326486 0.030411 151 
0.464058 0.0326657 0.0312361 153 
0.463647 0.0326827 0.03206 156 
0.463409 0.0326917 0.0328952 156 
0.463457 0.0326876 0.0337512 156 
0.461571 0.0327727 0.0344587 156 
0.460941 0.0327998 0.0352584 148 
0.460539 0.0328165 0.0360744 154 
0.460477 0.0328175 0.0369171 152 
0.458562 0.032904 0.0376034 153 
0.459005 0.0328816 0.0384862 157 
0.458608 0.032898 0.039297 149 
0.457767 0.0329349 0.0400664 150 
0.45782 0.0329306 0.0409152 147 
0.457427 0.0329468 0.0417226 144 
0.459327 0.0328571 0.0427479 144 
0.457146 0.032956 0.0433829 144 
0.456757 0.0329721 0.0441879 145 
0.457035 0.0329573 0.0450593 143 
0.455982 0.0330041 0.0457947 145 
0.456815 0.0329637 0.0467245 141 
0.456428 0.0329796 0.0475274 142 
0.456709 0.0329647 0.0484016 141 
0.458497 0.0328802 0.0494439 145 
0.457384 0.0329297 0.0501669 144 
0.457444 0.032925 0.0510202 143 
0.458456 0.0328763 0.0519845 141 
0.457177 0.0329335 0.0526826 141 
0.458637 0.0328641 0.0537045 142 
0.457303 0.0329239 0.054392 142 
0.458429 0.0328699 0.055379 142 
0.457097 0.0329296 0.056062 140 
0.460022 0.0327924 0.0572828 142 
0.458009 0.0328836 0.0578764 143 
0.458076 0.0328786 0.0587356 139 
0.458255 0.0328683 0.0596104 146 
0.458491 0.0328555 0.0604938 145 
0.459516 0.0328061 0.0614864 143 
0.458349 0.0328582 0.0621792 140 
0.458475 0.0328504 0.0630498 142 
0.459615 0.0327957 0.0640656 145 
0.459123 0.0328166 0.0648506 142 
0.460042 0.0327721 0.0658404 143 
0.460059 0.0327694 0.0667004 144 
0.459568 0.0327902 0.0674847 142 
0.460547 0.0327429 0.0684909 141 
0.460566 0.0327401 0.0693534 135 
0.46087 0.0327241 0.0702607 137 
0.461174 0.032708 0.0711697 138 
0.461195 0.0327051 0.0720351 141 
0.463963 0.0325749 0.0733444 140 
0.462551 0.0326384 0.073982 136 
0.461889 0.0326671 0.0747385 135 
0.463459 0.0325924 0.0758659 136 
0.462108 0.032653 0.0765061 133 
0.463394 0.0325914 0.0775922 135 
0.463708 0.0325749 0.0785157 137 
0.463907 0.0325637 0.0794208 138 
0.464628 0.0325283 0.0804191 138 
0.463905 0.0325599 0.0811632 137 
0.464685 0.0325217 0.0821758 131 
0.465178 0.0324969 0.0831397 135 
0.46608 0.0324531 0.0841812 137 
0.466403 0.0324361 0.0851189 141 
0.468075 0.0323566 0.0863118 143 
0.467287 0.0323911 0.0870445 142 
0.466443 0.0324283 0.0877641 141 
0.468118 0.0323486 0.0889687 135 
0.467507 0.0323749 0.0897331 138 
0.46766 0.0323658 0.0906466 146 
0.468108 0.032343 0.09162 140 
0.467792 0.0323557 0.0924419 143 
0.468537 0.0323191 0.0934786 138 
0.468575 0.0323153 0.0943738 144 
0.468733 0.032306 0.0952943 145 
0.46895 0.0322939 0.0962285 143 
0.4684 0.0323174 0.0970022 140 
0.4685 0.0323108 0.0979127 139 
0.469133 0.0322794 0.0989385 140 
0.468644 0.0323001 0.0997242 138 
0.469634 0.032252 0.100832 135 
0.470273 0.0322203 0.101867 140 
0.47008 0.0322273 0.102719 145 
0.469828 0.032237 0.103559 151 
0.471785 0.032144 0.104897 155 
0.469268 0.032259 0.105223 143 
0.468841 0.0322768 0.106021 145 
0.46877 0.0322781 0.1069 150 
0.469056 0.0322628 0.107863 147 
0.468512 0.032286 0.108632 142 
0.46803 0.0323064 0.109414 140 
0.468257 0.0322938 0.110365 147 
0.46754 0.0323252 0.111089 144 
0.467472 0.0323263 0.111969 146 
0.467701 0.0323136 0.112923 153 
0.467694 0.0323119 0.113819 146 
0.466803 0.0323513 0.114496 147 
0.466797 0.0323496 0.115392 148 
0.466969 0.0323396 0.116334 149 
0.46667 0.0323515 0.117157 155 
0.466489 0.0323579 0.11801 148 
0.466074 0.0323751 0.118802 153 
0.466129 0.0323705 0.119716 145 
0.466538 0.0323495 0.120724 149 
0.46589 0.0323776 0.121454 150 
0.464951 0.0324193 0.122105 150 
0.465066 0.0324119 0.123036 146 
0.464365 0.0324426 0.123746 147 
0.463491 0.0324812 0.124408 147 
0.463723 0.0324684 0.125371 150 
0.46384 0.0324609 0.126304 147 
0.463085 0.032494 0.126995 146 
0.461986 0.0325432 0.127586 147 
0.462857 0.0325006 0.128731 146 
0.462743 0.0325039 0.1296 149 
0.461877 0.0325422 0.130254 145 
0.461361 0.0325643 0.131006 144 
0.462232 0.0325216 0.132159 144 
0.460332 0.0326082 0.132506 143 
0.460682 0.0325898 0.133509 148 
0.460802 0.0325822 0.134446 143 
0.460289 0.032604 0.135195 147 
0.460238 0.0326044 0.136081 146 
0.460129 0.0326074 0.136951 147 
0.459275 0.0326453 0.137594 143 
0.459512 0.0326322 0.138568 148 
0.458546 0.0326752 0.139174 145 
0.4573 0.0327313 0.139689 145 
0.45822 0.0326864 0.140877 146 
0.456805 0.0327503 0.141335 147 
0.456701 0.0327532 0.142203 139 
0.456483 0.0327613 0.143035 146 
0.4557 0.0327958 0.143686 138 
0.455033 0.032825 0.144372 136 
0.455721 0.0327908 0.145495 135 
0.455223 0.032812 0.146235 133 
0.454052 0.0328647 0.146752 137 
0.453838 0.0328726 0.147582 131 
0.453962 0.0328648 0.148524 129 
0.454031 0.0328596 0.149449 130 
0.454212 0.0328491 0.150413 123 
0.453775 0.0328674 0.151169 125 
0.454183 0.0328464 0.152211 126 
0.453017 0.0328988 0.152718 123 
0.453031 0.0328961 0.153626 119 
0.453607 0.0328671 0.15473 126 
0.453397 0.0328749 0.155563 120 
0.453188 0.0328826 0.156397 121 
0.452531 0.0329113 0.157073 120 
0.453276 0.0328744 0.158243 110 
0.453181 0.0328768 0.159118 107 
0.452301 0.0329159 0.159713 113 
0.452822 0.0328895 0.160809 111 
0.453571 0.0328524 0.161991 107 
0.453308 0.0328626 0.162808 110 
0.45299 0.0328755 0.163604 106 
0.453685 0.0328409 0.164773 101 
0.453254 0.032859 0.165529 100 
0.454064 0.032819 0.166746 92 
0.453915 0.0328239 0.167608 105 
0.452584 0.0328842 0.168026 101 
0.452605 0.0328811 0.16895 103 
0.452683 0.0328754 0.169897 103 
0.453551 0.0328326 0.171148 102 
0.453347 0.0328401 0.17199 100 
0.454106 0.0328025 0.173205 105 
0.453394 0.0328337 0.173852 97 
0.454041 0.0328013 0.175028 98 
0.454804 0.0327635 0.176253 92 
0.454886 0.0327575 0.177214 92 
0.453719 0.0328101 0.177679 92 
0.453972 0.0327962 0.178707 90 
0.455136 0.0327395 0.180103 87 
0.455221 0.0327334 0.181069 87 
0.454621 0.0327595 0.181759 84 
0.45442 0.0327668 0.18261 89 
0.454791 0.0327473 0.183695 90 
0.454192 0.0327732 0.184384 83 
0.45502 0.0327323 0.18566 87 
0.455278 0.0327181 0.186705 82 
0.455251 0.0327172 0.187632 85 
0.45643 0.0326598 0.189066 92 
0.456347 0.0326616 0.189974 83 
0.456148 0.0326687 0.190833 83 
0.45595 0.0326759 0.191693 80 
0.457658 0.0325936 0.193368 80 
0.456131 0.0326632 0.19366 78 
0.456164 0.0326594 0.194622 85 
0.456602 0.0326368 0.19576 88 
0.456752 0.0326276 0.196775 84 
0.457482 0.0325911 0.198046 80 
0.457867 0.0325709 0.199168 78 
0.457961 0.0325643 0.200165 79 
0.458465 0.0325385 0.201345 78 
0.457512 0.0325811 0.201878 133 
0.457259 0.0325908 0.202722 78 
0.458228 0.0325431 0.204117 73 
0.458559 0.0325254 0.205227 73 
0.465969 0.0295003 -0.221043 7 
0.341977 0.0360421 -0.161343 10 
0.30326 0.0380844 -0.142484 7 
0.456446 0.0299963 -0.213615 16 
0.460949 0.0297564 -0.214765 10 
0.461542 0.0297229 -0.214073 12 
0.462551 0.0296675 -0.213573 16 
0.455939 0.0300144 -0.209547 13 
0.460427 0.0297752 -0.210658 13 
0.45394 0.0301157 -0.206723 9 
0.45555 0.0300285 -0.206509 13 
0.461085 0.0297339 -0.208069 14 
0.455562 0.0300235 -0.204613 9 
0.462986 0.0296292 -0.207002 12 
0.384377 0.0337806 -0.170913 11 
0.461046 0.0297274 -0.20421 12 
0.462941 0.029625 -0.204093 12 
0.460881 0.0297317 -0.202223 15 
0.45925 0.0298158 -0.200551 14 
0.458385 0.0298594 -0.199221 12 
0.461725 0.0296806 -0.199726 10 
0.4625 0.0296375 -0.199107 14 
0.417911 0.031993 -0.178953 8 
0.45213 0.0301815 -0.19275 12 
0.456812 0.0299318 -0.193816 10 
0.464846 0.0295048 -0.196287 13 
0.455973 0.029972 -0.19158 14 
0.455927 0.0299723 -0.190624 15 
0.453151 0.030117 -0.188526 13 
0.455665 0.0299819 -0.188643 13 
0.456193 0.0299518 -0.187927 13 
0.45874 0.029815 -0.188043 15 
0.455705 0.0299735 -0.185859 15 
0.452431 0.0301446 -0.183591 16 
0.453631 0.030079 -0.183154 14 
0.453646 0.0300761 -0.182235 15 
0.4472 0.0304153 -0.178719 12 
0.45675 0.0299076 -0.181628 13 
0.45223 0.0301448 -0.178899 15 
0.44957 0.0302836 -0.176927 13 
0.45109 0.0302011 -0.176612 15 
0.449275 0.0302952 -0.174985 17 
0.450792 0.0302127 -0.174666 17 
0.450533 0.0302244 -0.173652 16 
0.447845 0.0303647 -0.171703 16 
0.452246 0.0301295 -0.172486 17 
0.449318 0.0302826 -0.170455 18 
0.446212 0.0304451 -0.168369 14 
0.4503 0.0302264 -0.169013 18 
0.448444 0.0303227 -0.167408 18 
0.448411 0.0303224 -0.166493 19 
0.447721 0.030357 -0.165334 20 
0.443944 0.0305552 -0.163039 20 
0.44386 0.0305576 -0.162117 19 
0.444207 0.0305372 -0.161354 20 
0.446832 0.030396 -0.161416 24 
0.443935 0.0305476 -0.159475 22 
0.443584 0.0305642 -0.15846 22 
0.440998 0.0306994 -0.156649 25 
0.444982 0.0304861 -0.157184 25 
0.445765 0.0304425 -0.156572 30 
0.443262 0.0305733 -0.154804 24 
0.443504 0.0305585 -0.154005 26 
0.444282 0.0305152 -0.153392 24 
0.444257 0.0305145 -0.152499 27 
0.444715 0.0304882 -0.151774 28 
0.444583 0.0304932 -0.150845 28 
0.448024 0.0303086 -0.15113 30 
0.448272 0.0302934 -0.150325 27 
0.444457 0.0304939 -0.148158 27 
0.44524 0.0304504 -0.147539 28 
0.443715 0.0305294 -0.146153 31 
0.446544 0.0303772 -0.146208 33 
0.444742 0.0304709 -0.144736 35 
0.444506 0.0304814 -0.143782 33 
0.445129 0.0304464 -0.143107 32 
0.445269 0.0304369 -0.142275 31 
0.448279 0.030275 -0.14236 33 
0.445928 0.030398 -0.140732 33 
0.447802 0.0302964 -0.140446 36 
0.447727 0.0302984 -0.139543 37 
0.446949 0.0303378 -0.138422 37 
0.446713 0.0303483 -0.137473 41 
0.447507 0.0303042 -0.136842 40 
0.448031 0.0302743 -0.136126 37 
0.451351 0.0300958 -0.136257 35 
0.447832 0.0302809 -0.134314 34 
0.447761 0.0302827 -0.133417 36 
0.450471 0.0301366 -0.13335 36 
0.448271 0.0302517 -0.131821 41 
0.448962 0.0302129 -0.13115 39 
0.448783 0.0302205 -0.130224 41 
0.450625 0.0301205 -0.129885 41 
0.449734 0.0301659 -0.128752 43 
0.449665 0.0301676 -0.127858 44 
0.450143 0.0301402 -0.127121 46 
0.44931 0.0301826 -0.126012 43 
0.448645 0.030216 -0.124955 49 
0.449557 0.0301655 -0.124339 47 
0.451076 0.0300827 -0.123889 45 
0.450735 0.0300988 -0.122922 44 
0.452594 0.0299979 -0.122557 49 
0.451096 0.0300757 -0.121278 52 
0.450374 0.0301122 -0.120213 47 
0.45245 0.0299996 -0.119898 49 
0.451176 0.0300655 -0.118688 47 
0.452872 0.0299732 -0.118265 54 
0.452257 0.0300041 -0.117232 57 
0.451479 0.0300435 -0.116161 53 
0.45191 0.0300186 -0.115404 54 
0.45317 0.0299495 -0.114857 59 
0.452501 0.0299832 -0.113818 61 
0.455544 0.0298191 -0.113713 66 
0.453261 0.0299388 -0.112271 64 
0.453698 0.0299135 -0.111511 65 
0.454635 0.0298616 -0.110872 62 
0.455799 0.0297976 -0.110285 65 
0.454404 0.02987 -0.109077 69 
0.455345 0.0298179 -0.108434 69 
0.454896 0.0298398 -0.107457 69 
0.454283 0.0298706 -0.106445 70 
0.455949 0.0297798 -0.105968 69 
0.454945 0.0298313 -0.104866 68 
0.457008 0.0297193 -0.104474 71 
0.456951 0.0297204 -0.103591 72 
0.457007 0.0297155 -0.102734 75 
0.457119 0.0297076 -0.10189 73 
0.45768 0.0296756 -0.101146 74 
0.4583 0.0296406 -0.100413 77 
0.457908 0.0296596 -0.0994579 75 
0.458079 0.0296485 -0.0986264 72 
0.458813 0.0296073 -0.0979157 74 
0.459212 0.0295841 -0.0971311 82 
0.460291 0.0295245 -0.0964892 81 
0.459446 0.0295677 -0.0954415 78 
0.459168 0.0295806 -0.0945151 87 
0.461158 0.0294724 -0.0940552 82 
0.460368 0.0295126 -0.0930235 83 
0.460999 0.0294769 -0.0922814 85 
0.460949 0.0294776 -0.0914015 81 
0.462669 0.0293838 -0.0908717 86 
0.461306 0.0294546 -0.0897332 84 
0.46177 0.0294279 -0.0889541 89 
0.461836 0.0294224 -0.0880973 92 
0.462417 0.0293894 -0.0873385 88 
0.462599 0.0293777 -0.086503 95 
0.462724 0.029369 -0.0856567 95 
0.463079 0.0293481 -0.0848527 94 
0.462919 0.0293547 -0.0839539 95 
0.462875 0.0293551 -0.0830771 97 
0.464381 0.0292726 -0.0824776 88 
0.464222 0.0292791 -0.0815788 96 
0.464006 0.0292887 -0.0806711 99 
0.463906 0.0292921 -0.0797847 103 
0.464728 0.0292462 -0.0790566 104 
0.463996 0.0292834 -0.0780632 102 
0.463496 0.0293082 -0.0771119 101 
0.464088 0.0292746 -0.0763431 101 
0.464106 0.0292716 -0.0754789 104 
0.4647 0.0292379 -0.0747081 102 
0.464432 0.0292503 -0.0737977 108 
0.463819 0.0292811 -0.0728346 108 
0.464415 0.0292473 -0.0720622 106 
0.464666 0.0292318 -0.0712352 104 
0.463826 0.0292748 -0.0702416 104 
0.463791 0.0292748 -0.0693725 107 
0.463528 0.0292869 -0.06847 114 
0.464183 0.0292499 -0.0677032 111 
0.46232 0.0293477 -0.0665706 113 
0.462573 0.0293322 -0.0657471 115 
0.462428 0.029338 -0.064867 114 
0.462341 0.0293407 -0.0639958 116 
0.461345 0.0293921 -0.0630009 116 
0.460976 0.0294099 -0.0620948 112 
0.459932 0.0294639 -0.0611004 115 
0.459624 0.0294785 -0.0602069 112 
0.459485 0.029484 -0.0593368 119 
0.459571 0.0294774 -0.0584963 119 
0.458985 0.0295069 -0.0575712 119 
0.457954 0.0295602 -0.0565936 121 
0.457596 0.0295775 -0.0557023 119 
0.456462 0.0296363 -0.0547195 120 
0.45644 0.0296356 -0.0538725 121 
0.455314 0.029694 -0.0528976 126 
0.456066 0.0296518 -0.052142 117 
0.455329 0.0296894 -0.0512163 121 
0.45432 0.0297416 -0.0502637 126 
0.453644 0.0297759 -0.0493513 124 
0.453463 0.0297837 -0.0484945 123 
0.452791 0.0298179 -0.0475872 122 
0.45234 0.0298402 -0.0467054 122 
0.451619 0.0298769 -0.0457983 121 
0.451334 0.0298904 -0.0449374 118 
0.451103 0.0299008 -0.0440831 121 
0.450712 0.0299199 -0.0432146 121 
0.450645 0.0299216 -0.0423782 123 
0.451173 0.0298915 -0.0415969 125 
0.450837 0.0299076 -0.0407361 126 
0.450557 0.0299208 -0.0398817 124 
0.449686 0.0299656 -0.0389776 127 
0.450053 0.0299441 -0.0381814 123 
0.449186 0.0299887 -0.0372822 122 
0.449338 0.0299787 -0.0364687 128 
0.449544 0.0299657 -0.0356592 126 
0.45002 0.0299383 -0.0348698 125 
0.449638 0.029957 -0.0340143 124 
0.451031 0.0298804 -0.0332906 123 
0.450756 0.0298933 -0.0324427 126 
0.450052 0.0299292 -0.0315662 130 
0.449726 0.0299448 -0.030718 130 
0.450205 0.0299172 -0.0299243 132 
0.450579 0.0298953 -0.0291222 126 
0.451494 0.0298443 -0.0283525 127 
0.450737 0.0298831 -0.0274787 131 
0.451329 0.0298494 -0.0266868 131 
0.451005 0.0298649 -0.0258409 132 
0.452194 0.0297991 -0.0250793 132 
0.451816 0.0298176 -0.0242304 134 
0.452142 0.0297982 -0.0234191 139 
0.453013 0.0297495 -0.0226334 141 
0.451985 0.0298029 -0.0217547 136 
0.453673 0.0297103 -0.0210035 134 
0.454606 0.0296583 -0.0202133 137 
0.454775 0.0296473 -0.0193877 136 
0.452979 0.029742 -0.0184832 138 
0.453202 0.0297281 -0.0176623 140 
0.453918 0.0296877 -0.0168585 139 
0.454253 0.0296679 -0.016039 138 
0.455467 0.0296007 -0.015247 142 
0.455751 0.0295835 -0.014422 138 
0.455375 0.0296019 -0.013577 139 
0.456542 0.0295372 -0.0127751 137 
0.456111 0.0295585 -0.0119289 143 
0.456564 0.0295323 -0.0111048 143 
0.457628 0.0294731 -0.0102921 142 
0.458586 0.0294197 -0.00947353 147 
0.457265 0.0294888 -0.00861116 142 
0.457779 0.0294593 -0.00778272 141 
0.458294 0.0294297 -0.00695245 146 
0.458365 0.029424 -0.00611491 143 
0.458436 0.0294182 -0.00527715 143 
0.458843 0.0293944 -0.00444196 145 
0.459364 0.0293645 -0.00360602 144 
0.460222 0.0293164 -0.00276975 147 
0.461537 0.0292438 -0.00193159 146 
0.461669 0.0292347 -0.0010874 150 
0.46152 0.0292408 -0.000242961 145 
0.46222 0.0292012 0.000603247 150 
0.462128 0.0292042 0.00144844 147 
0.464256 0.0290877 0.00230759 145 
0.462627 0.0291735 0.00314352 141 
0.462879 0.0291581 0.0039925 143 
0.463928 0.0290996 0.00485203 142 
0.464754 0.0290532 0.00571239 143 
0.46524 0.0290251 0.0065705 145 
0.46636 0.0289628 0.00744163 141 
0.465467 0.0290091 0.00827785 146 
0.466244 0.0289652 0.00914635 144 
0.467952 0.0288712 0.0100393 146 
0.46775 0.0288802 0.010891 143 
0.467781 0.0288766 0.0117482 144 
0.467812 0.028873 0.0126057 155 
0.468194 0.0288505 0.013474 152 
0.468809 0.0288153 0.0143515 160 
0.467912 0.0288618 0.0151794 150 
0.46847 0.0288297 0.0160567 153 
0.469557 0.0287692 0.0169563 151 
0.469125 0.0287905 0.0177995 149 
0.468229 0.0288369 0.0186219 149 
0.468208 0.0288361 0.0194791 152 
0.467781 0.0288572 0.020318 155 
0.46846 0.0288186 0.0212077 154 
0.468151 0.0288334 0.0220515 157 
0.468424 0.0288167 0.0229239 156 
0.468698 0.0288 0.0237976 159 
0.468274 0.0288209 0.0246343 157 
0.468258 0.0288198 0.0254926 158 
0.465984 0.0289407 0.0262191 157 
0.465508 0.0289644 0.0270457 156 
0.465035 0.028988 0.0278708 160 
0.464105 0.0290363 0.0286652 157 
0.463807 0.0290504 0.0294979 152 
0.464139 0.0290306 0.0303722 160 
0.461794 0.0291553 0.0310618 153 
0.461445 0.0291723 0.0318854 153 
0.461548 0.0291648 0.0327411 152 
0.461144 0.0291847 0.0335591 156 
0.461136 0.0291832 0.0344064 157 
0.460058 0.0292395 0.0351695 155 
0.460896 0.0291923 0.0360835 155 
0.460608 0.029206 0.0369078 158 
0.458862 0.0292984 0.0376081 156 
0.458187 0.029333 0.0383945 152 
0.457737 0.0293554 0.0391986 152 
0.457956 0.0293417 0.0400614 151 
0.457063 0.029388 0.0408231 156 
0.457338 0.0293712 0.0416913 152 
0.457003 0.0293874 0.0425023 147 
0.457113 0.0293796 0.0433558 152 
0.45678 0.0293957 0.0441658 152 
0.456946 0.0293848 0.0450255 145 
0.456393 0.0294128 0.0458119 148 
0.455455 0.0294617 0.046556 145 
0.455954 0.0294328 0.0474505 145 
0.455459 0.0294576 0.0482391 144 
0.455573 0.0294496 0.0490934 141 
0.455798 0.0294355 0.049961 147 
0.454975 0.0294781 0.0507099 139 
0.45509 0.02947 0.051565 139 
0.456256 0.029405 0.0525449 142 
0.45665 0.0293817 0.0534369 143 
0.456103 0.0294094 0.0542161 143 
0.456444 0.0293891 0.0551032 141 
0.456785 0.0293687 0.0559922 148 
0.456572 0.0293783 0.056812 141 
0.456582 0.0293759 0.0576602 143 
0.455651 0.0294244 0.0583853 141 
0.457271 0.0293348 0.0594468 148 
0.456782 0.0293593 0.0602301 152 
0.457016 0.0293447 0.0611109 151 
0.456918 0.0293481 0.0619468 145 
0.456932 0.0293454 0.0627984 145 
0.45689 0.0293457 0.0636426 144 
0.457184 0.0293279 0.0645353 141 
0.457143 0.0293282 0.0653807 143 
0.457327 0.0293163 0.0662595 139 
0.458014 0.0292772 0.067215 149 
0.458648 0.0292409 0.0681653 138 
0.460017 0.0291647 0.0692316 138 
0.459022 0.0292167 0.0699352 145 
0.459944 0.0291648 0.0709376 142 
0.458613 0.029235 0.0715846 143 
0.459253 0.0291984 0.0725449 141 
0.459556 0.02918 0.0734533 145 
0.460539 0.0291248 0.0744755 138 
0.459601 0.0291737 0.0751809 138 
0.460587 0.0291183 0.0762081 139 
0.460441 0.0291242 0.0770462 136 
0.460807 0.0291025 0.0779726 139 
0.462028 0.0290343 0.0790502 140 
0.462283 0.0290185 0.0799624 137 
0.461911 0.0290367 0.080764 134 
0.462339 0.0290115 0.081709 139 
0.462711 0.0289894 0.0826459 137 
0.463774 0.0289297 0.0837121 130 
0.46369 0.0289323 0.0845691 132 
0.464009 0.028913 0.0855021 132 
0.46381 0.0289218 0.0863386 134 
0.464593 0.0288774 0.087363 132 
0.465147 0.0288453 0.0883467 131 
0.465937 0.0288005 0.0893789 138 
0.465972 0.0287966 0.0902656 136 
0.466532 0.0287642 0.0912578 138 
0.465986 0.0287918 0.0920297 137 
0.467483 0.0287085 0.0932157 137 
0.466293 0.0287711 0.0938563 134 
0.466624 0.0287512 0.0948078 135 
0.466487 0.0287566 0.0956636 141 
0.467405 0.0287047 0.0967417 138 
0.467974 0.0286718 0.0977497 138 
0.467428 0.0286995 0.0985209 136 
0.467999 0.0286664 0.0995326 138 
0.467513 0.0286909 0.100316 130 
0.467732 0.0286769 0.101254 137 
0.467776 0.0286725 0.102153 134 
0.467703 0.0286745 0.103028 135 
0.468455 0.0286316 0.10409 135 
0.468148 0.0286463 0.104913 144 
0.468194 0.0286417 0.105817 139 
0.468773 0.0286082 0.106845 144 
0.467936 0.0286518 0.107545 144 
0.467866 0.0286535 0.108423 144 
0.468505 0.0286167 0.10947 138 
0.467611 0.0286633 0.110153 142 
0.46772 0.0286554 0.111075 143 
0.467417 0.0286698 0.111898 143 
0.467586 0.0286586 0.112836 138 
0.467344 0.0286698 0.113673 142 
0.467573 0.0286553 0.114628 142 
0.467214 0.0286728 0.115437 146 
0.467091 0.0286775 0.116304 149 
0.466615 0.0287013 0.117082 149 
0.466552 0.0287027 0.117965 143 
0.465845 0.0287392 0.118681 148 
0.465959 0.0287309 0.119609 151 
0.466601 0.0286939 0.120678 149 
0.465485 0.0287527 0.121283 149 
0.464549 0.0288016 0.121933 154 
0.466597 0.028688 0.123383 152 
0.464197 0.0288167 0.123636 151 
0.464255 0.0288115 0.124551 152 
0.46408 0.028819 0.125403 152 
0.463267 0.0288612 0.126079 150 
0.463966 0.0288212 0.127173 154 
0.463212 0.0288602 0.127863 149 
0.462924 0.0288739 0.128682 153 
0.462058 0.028919 0.129337 151 
0.462061 0.0289168 0.130237 145 
0.461257 0.0289586 0.130906 144 
0.463053 0.0288587 0.132327 147 
0.461091 0.0289635 0.132658 148 
0.461039 0.0289644 0.133543 153 
0.461044 0.0289621 0.134446 156 
0.460646 0.0289817 0.135229 159 
0.459791 0.0290263 0.135874 152 
0.45974 0.029027 0.13676 151 
0.458489 0.0290932 0.137281 147 
0.457756 0.0291312 0.137956 149 
0.457422 0.0291474 0.138753 149 
0.456862 0.0291759 0.139478 146 
0.456474 0.029195 0.140256 145 
0.455973 0.0292203 0.140997 146 
0.454855 0.0292793 0.141542 144 
0.455258 0.0292553 0.142568 145 
0.455436 0.0292435 0.143523 139 
0.454433 0.0292962 0.1441 146 
0.454331 0.0292998 0.144965 140 
0.453557 0.02934 0.145612 141 
0.453455 0.0293435 0.146477 138 
0.452684 0.0293836 0.147121 136 
0.452807 0.0293748 0.14806 130 
0.452819 0.0293722 0.148963 134 
0.452719 0.0293756 0.149829 128 
0.452341 0.0293942 0.150601 127 
0.451742 0.0294249 0.151298 126 
0.45181 0.0294191 0.152221 120 
0.451768 0.0294194 0.153108 123 
0.452284 0.0293892 0.154187 121 
0.452019 0.0294016 0.154999 118 
0.4517 0.029417 0.15579 123 
0.452049 0.0293958 0.156817 120 
0.451508 0.0294234 0.157531 120 
0.451524 0.0294205 0.158441 113 
0.451707 0.0294084 0.159413 116 
0.452059 0.0293871 0.160446 114 
0.453085 0.029329 0.161726 115 
0.451648 0.0294055 0.162114 107 
0.451889 0.0293902 0.163112 111 
0.451629 0.0294024 0.163926 99 
0.452207 0.0293688 0.165051 101 
0.451779 0.0293901 0.165805 97 
0.45219 0.0293655 0.166871 104 
0.452828 0.0293286 0.168026 98 
0.4524 0.0293499 0.16878 109 
0.451749 0.0293835 0.169449 104 
0.45177 0.0293802 0.170373 99 
0.453478 0.0292847 0.171947 93 
0.452881 0.0293153 0.172637 100 
0.45223 0.0293489 0.173305 96 
0.451636 0.0293793 0.173994 95 
0.452221 0.0293452 0.175143 97 
0.452751 0.0293141 0.176275 94 
0.453001 0.0292983 0.177298 88 
0.452801 0.0293072 0.178143 91 
0.452658 0.0293129 0.179012 89 
0.453192 0.0292816 0.180153 89 
0.452992 0.0292904 0.181001 82 
0.453245 0.0292745 0.182033 87 
0.45282 0.0292956 0.182789 80 
0.454094 0.0292237 0.184244 79 
0.453045 0.0292791 0.184744 80 
0.453868 0.0292319 0.186018 84 
0.453897 0.0292282 0.186965 83 
0.454325 0.0292026 0.188081 83 
0.454185 0.0292082 0.18896 79 
0.454215 0.0292044 0.189911 82 
0.454417 0.0291912 0.190937 78 
0.454164 0.029203 0.191769 78 
0.45431 0.0291929 0.192773 77 
0.4552 0.0291419 0.1941 76 
0.455119 0.0291443 0.19501 77 
0.455037 0.0291466 0.195921 80 
0.455301 0.02913 0.196983 80 
0.45545 0.0291196 0.197997 77 
0.455658 0.0291061 0.199039 72 
0.455233 0.0291273 0.199801 77 
0.456421 0.0290599 0.201283 131 
0.456342 0.0290621 0.202202 72 
0.456321 0.0290611 0.203148 72 
0.45746 0.0289965 0.20462 69 
0.456604 0.0264208 -0.21647 12 
0.459285 0.0262561 -0.216781 15 
0.456723 0.0264093 -0.214602 9 
0.455226 0.026498 -0.212936 11 
0.46378 0.0259768 -0.215989 11 
0.454315 0.0265489 -0.210599 11 
0.454433 0.0265395 -0.209701 12 
1.17642 -0.0172712 -0.544268 11 
0.458715 0.0262754 -0.209768 12 
0.45617 0.0264277 -0.207643 12 
0.458723 0.0262706 -0.207855 14 
0.463138 0.0260004 -0.208902 12 
0.198229 0.0420832 -0.089611 10 
0.45903 0.0262455 -0.205123 14 
0.383697 0.0308174 -0.170497 9 
0.46494 0.0258823 -0.205848 11 
0.459747 0.0261954 -0.202579 10 
0.455762 0.0264353 -0.199866 16 
0.453433 0.0265746 -0.197898 12 
0.459361 0.0262124 -0.199552 10 
0.454988 0.0264759 -0.196698 11 
0.458912 0.0262354 -0.197458 9 
0.454097 0.0265258 -0.194435 11 
0.455703 0.0264261 -0.194187 13 
0.457782 0.0262976 -0.194136 14 
0.457793 0.0262949 -0.193198 14 
0.459192 0.0262077 -0.192848 14 
0.457699 0.0262963 -0.191276 13 
0.451404 0.0266768 -0.187701 17 
0.455202 0.0264438 -0.188358 11 
0.454703 0.026472 -0.187218 13 
0.453076 0.0265689 -0.185616 13 
0.453598 0.0265351 -0.184904 14 
0.452654 0.0265903 -0.183591 10 
0.451268 0.0266725 -0.182104 14 
0.448013 0.0268684 -0.179868 15 
0.458796 0.0262105 -0.183292 13 
0.454579 0.0264649 -0.18067 11 
0.454029 0.0264963 -0.179527 15 
0.454216 0.0264828 -0.178678 12 
0.455764 0.0263866 -0.178366 12 
0.449997 0.0267353 -0.175181 16 
0.448745 0.0268095 -0.173781 12 
0.453103 0.0265422 -0.174562 16 
0.450442 0.0267021 -0.172619 14 
0.451129 0.0266582 -0.171972 17 
0.446797 0.0269198 -0.169407 19 
0.447802 0.0268566 -0.168888 18 
0.446677 0.0269231 -0.16756 21 
0.44659 0.0269263 -0.166627 15 
0.444231 0.0270679 -0.164847 14 
0.445009 0.0270185 -0.164243 17 
0.444385 0.0270545 -0.163119 15 
0.44511 0.0270083 -0.162493 17 
0.445567 0.0269785 -0.161768 20 
0.444835 0.027021 -0.160609 22 
0.444215 0.0270568 -0.159494 23 
0.44067 0.0272707 -0.157332 24 
0.442234 0.0271734 -0.15701 30 
0.443702 0.027082 -0.156649 22 
0.443141 0.0271142 -0.155565 23 
0.442156 0.0271722 -0.154335 22 
0.445342 0.0269761 -0.154568 24 
0.447809 0.0268237 -0.154539 23 
0.444215 0.0270408 -0.152407 24 
0.445965 0.0269321 -0.152125 25 
0.446048 0.026925 -0.151268 23 
0.444034 0.0270458 -0.1497 26 
0.443956 0.0270486 -0.148794 31 
0.445543 0.0269498 -0.148447 32 
0.445519 0.0269493 -0.147557 27 
0.44469 0.0269978 -0.146402 28 
0.443812 0.0270494 -0.145234 31 
0.444646 0.0269966 -0.144631 32 
0.443077 0.0270903 -0.143243 30 
0.443588 0.0270571 -0.142536 27 
0.445602 0.0269323 -0.142309 30 
0.444669 0.0269872 -0.141135 31 
0.447721 0.0267991 -0.14123 36 
0.446888 0.0268479 -0.140087 36 
0.446922 0.0268438 -0.139221 34 
0.447119 0.0268298 -0.138405 32 
0.447533 0.0268026 -0.137657 36 
0.446057 0.0268907 -0.136327 39 
0.445878 0.0268996 -0.135399 34 
0.447695 0.0267868 -0.135079 40 
0.447407 0.0268024 -0.134117 40 
0.448039 0.0267618 -0.133434 42 
0.448185 0.0267509 -0.132603 41 
0.44779 0.0267731 -0.131612 40 
0.447072 0.026815 -0.130529 38 
0.448084 0.0267512 -0.129954 43 
0.446235 0.0268621 -0.128547 41 
0.448163 0.0267424 -0.128235 47 
0.449943 0.0266317 -0.127874 46 
0.447487 0.0267798 -0.126302 46 
0.448555 0.0267125 -0.125736 38 
0.448164 0.0267345 -0.124757 42 
0.449399 0.0266571 -0.124233 46 
0.451299 0.026539 -0.123889 44 
0.449702 0.0266346 -0.122578 45 
0.451549 0.0265198 -0.122212 48 
0.450771 0.0265653 -0.12113 47 
0.449779 0.026624 -0.119994 50 
0.450532 0.026576 -0.119327 51 
0.449869 0.0266146 -0.118283 55 
0.45106 0.0265398 -0.11773 51 
0.450342 0.0265818 -0.116675 53 
0.450716 0.0265569 -0.115906 57 
0.451255 0.026522 -0.115178 62 
0.451467 0.0265071 -0.114366 64 
0.451132 0.0265256 -0.113415 63 
0.451673 0.0264906 -0.112686 60 
0.452435 0.026442 -0.11201 59 
0.453974 0.0263459 -0.111524 60 
0.452755 0.0264185 -0.110356 65 
0.452971 0.0264034 -0.109543 72 
0.453132 0.0263915 -0.108716 65 
0.453625 0.0263594 -0.107969 63 
0.453953 0.0263374 -0.107181 67 
0.454393 0.0263085 -0.106419 71 
0.454004 0.0263304 -0.105461 65 
0.454389 0.0263048 -0.104686 71 
0.455164 0.0262554 -0.103999 69 
0.455775 0.0262161 -0.103272 68 
0.455774 0.0262142 -0.102405 68 
0.456053 0.0261951 -0.101602 77 
0.455664 0.026217 -0.100649 82 
0.456724 0.0261501 -0.100018 75 
0.456447 0.0261651 -0.099091 71 
0.457624 0.0260911 -0.0984805 82 
0.458806 0.0260167 -0.0978673 76 
0.457518 0.0260937 -0.0967243 81 
0.457914 0.0260675 -0.095942 81 
0.458705 0.0260171 -0.0952412 87 
0.458879 0.0260045 -0.0944101 81 
0.458997 0.0259953 -0.0935674 81 
0.458384 0.0260309 -0.0925762 87 
0.45946 0.025963 -0.0919279 98 
0.460032 0.025926 -0.0911754 92 
0.460776 0.0258784 -0.0904552 89 
0.460671 0.0258829 -0.0895665 89 
0.461474 0.0258317 -0.0888548 86 
0.461597 0.0258222 -0.0880099 87 
0.462291 0.0257777 -0.0872734 91 
0.461617 0.025817 -0.0862777 93 
0.462027 0.02579 -0.0854866 93 
0.462666 0.0257488 -0.0847367 87 
0.462564 0.0257531 -0.0838497 96 
0.463721 0.0256802 -0.0831908 92 
0.463448 0.025695 -0.0822724 97 
0.463634 0.0256816 -0.0814367 100 
0.46382 0.0256682 -0.0806009 101 
0.463663 0.0256759 -0.0797053 99 
0.463507 0.0256835 -0.078811 100 
0.463237 0.0256981 -0.0778984 98 
0.463311 0.0256916 -0.0770448 98 
0.463443 0.0256815 -0.0762009 98 
0.46369 0.0256644 -0.0753758 106 
0.465031 0.0255802 -0.0747267 109 
0.463786 0.0256546 -0.0736602 104 
0.463405 0.025676 -0.0727352 98 
0.464056 0.0256341 -0.0719727 108 
0.463962 0.0256379 -0.0710937 107 
0.464846 0.0255817 -0.0703639 105 
0.46395 0.0256348 -0.0693638 111 
0.463744 0.0256455 -0.06847 109 
0.463424 0.0256631 -0.0675606 113 
0.463278 0.0256702 -0.0666777 110 
0.462732 0.0257018 -0.065739 119 
0.464072 0.0256175 -0.065068 114 
0.462329 0.0257226 -0.0639642 109 
0.461505 0.0257713 -0.0629931 113 
0.460459 0.0258336 -0.0619956 112 
0.460826 0.0258091 -0.0611905 117 
0.459785 0.0258712 -0.0601995 116 
0.459309 0.0258985 -0.0592859 122 
0.459396 0.0258912 -0.0584461 121 
0.458587 0.025939 -0.0574938 115 
0.458786 0.0259248 -0.0566697 115 
0.457647 0.0259929 -0.0556819 113 
0.456681 0.0260504 -0.0547195 117 
0.457324 0.0260089 -0.0539512 114 
0.456029 0.0260866 -0.0529553 117 
0.455678 0.0261063 -0.0520726 123 
0.455438 0.0261192 -0.0512039 123 
0.454047 0.0262028 -0.0502091 128 
0.453974 0.0262054 -0.0493632 123 
0.453847 0.0262113 -0.048512 124 
0.453557 0.0262272 -0.0476445 125 
0.452886 0.0262666 -0.0467391 120 
0.452219 0.0263057 -0.0458367 121 
0.451933 0.0263214 -0.044975 120 
0.452244 0.0263004 -0.0441729 124 
0.452176 0.0263027 -0.0433336 127 
0.45092 0.0263781 -0.0423832 124 
0.450585 0.0263968 -0.0415225 125 
0.450412 0.0264056 -0.0406779 126 
0.450025 0.0264275 -0.0398153 129 
0.449908 0.0264329 -0.0389776 124 
0.450006 0.026425 -0.0381587 125 
0.45005 0.0264204 -0.0373354 125 
0.450902 0.0263661 -0.0365772 126 
0.450195 0.0264077 -0.0356931 125 
0.44992 0.0264228 -0.034845 133 
0.450665 0.0263751 -0.0340749 134 
0.449907 0.0264198 -0.033192 128 
0.450063 0.0264084 -0.0323774 127 
0.450756 0.0263638 -0.0315998 129 
0.450591 0.0263721 -0.0307616 126 
