ply
format ascii 1.0
comment Created by CloudCompare v2.11 alpha (Anoia)
comment Created 2025/12/9 17:12
obj_info Generated by CloudCompare!
element vertex 1438
property float x
property float y
property float z
property float scalar_Scalar_field
end_header
0.395782 -0.316518 0.080639 166 
0.394815 -0.316757 0.0815364 170 
0.393037 -0.317195 0.0823503 168 
0.391418 -0.317593 0.0831738 169 
0.390838 -0.317737 0.0840977 171 
0.387197 -0.318631 0.0847003 166 
0.386339 -0.318843 0.0855849 170 
0.384838 -0.319213 0.0863969 163 
0.383988 -0.319423 0.0872753 162 
0.382502 -0.319789 0.0880793 167 
0.380673 -0.320239 0.0888388 164 
0.379277 -0.320583 0.0896419 167 
0.37873 -0.320719 0.0905399 171 
0.378254 -0.320837 0.0914448 168 
0.37848 -0.320784 0.0924335 174 
0.378147 -0.320868 0.0933543 171 
0.378025 -0.3209 0.0943007 175 
0.377415 -0.321052 0.0951847 173 
0.378063 -0.320895 0.0962296 172 
0.374956 -0.321658 0.096784 177 
0.374563 -0.321756 0.0976885 179 
0.375345 -0.321567 0.0987508 179 
0.37516 -0.321615 0.0996839 179 
0.374699 -0.32173 0.100578 180 
0.374241 -0.321844 0.101472 179 
0.37461 -0.321756 0.102482 183 
0.370937 -0.322657 0.102908 188 
0.369267 -0.323067 0.103615 187 
0.369429 -0.32303 0.104588 175 
0.368713 -0.323207 0.10543 174 
0.367799 -0.323433 0.10624 175 
0.367559 -0.323494 0.10715 180 
0.366517 -0.323751 0.107934 178 
0.366749 -0.323697 0.108917 183 
0.364648 -0.324213 0.109526 187 
0.362827 -0.32466 0.110174 187 
0.359848 -0.325391 0.110625 184 
0.358452 -0.325735 0.111327 176 
0.358615 -0.325698 0.112287 174 
0.362234 -0.324814 0.113836 179 
0.363587 -0.324485 0.115009 184 
0.365883 -0.323926 0.116353 189 
0.366722 -0.323723 0.117449 187 
0.367163 -0.323617 0.118478 178 
0.369904 -0.322949 0.119924 176 
0.370012 -0.322925 0.120901 167 
0.372995 -0.322198 0.122408 168 
0.373039 -0.322189 0.123382 169 
0.373497 -0.32208 0.124433 168 
0.374649 -0.3218 0.125619 169 
0.377836 -0.321023 0.127199 170 
0.377744 -0.321048 0.128158 168 
0.377443 -0.321124 0.129076 160 
0.37883 -0.320787 0.130327 163 
0.379236 -0.32069 0.131388 167 
0.379925 -0.320523 0.132509 170 
0.38133 -0.320182 0.133779 165 
0.38375 -0.319593 0.135263 157 
0.387069 -0.318783 0.136944 156 
0.391028 -0.317818 0.138772 166 
0.39445 -0.316984 0.140503 156 
0.398607 -0.31597 0.142405 142 
0.452643 -0.302761 0.155078 126 
0.45311 -0.302649 0.156311 138 
0.451714 -0.302993 0.157137 141 
0.451438 -0.303063 0.158206 145 
0.4507 -0.303246 0.159172 149 
0.450521 -0.303293 0.160261 146 
0.44914 -0.303633 0.161077 145 
0.448318 -0.303836 0.162017 140 
0.446767 -0.304218 0.162785 140 
0.446045 -0.304397 0.163741 138 
0.445326 -0.304576 0.164696 144 
0.445338 -0.304575 0.165823 144 
0.444622 -0.304753 0.166776 139 
0.443095 -0.305129 0.16753 135 
0.4432 -0.305106 0.168677 138 
0.442763 -0.305215 0.169692 142 
0.441518 -0.305522 0.170506 141 
0.441355 -0.305565 0.171586 142 
0.440565 -0.30576 0.172508 139 
0.440137 -0.305868 0.173519 135 
0.439888 -0.305931 0.174575 135 
0.438659 -0.306234 0.175379 137 
0.439485 -0.306035 0.176711 140 
0.437459 -0.306532 0.177303 141 
0.438373 -0.306312 0.178661 132 
0.436798 -0.306699 0.179363 137 
0.43709 -0.30663 0.180559 133 
0.43632 -0.306821 0.18147 132 
0.434318 -0.307313 0.182045 132 
0.434435 -0.307287 0.183192 129 
0.433849 -0.307433 0.184147 135 
0.43309 -0.307621 0.185052 135 
0.432509 -0.307765 0.186005 133 
0.432191 -0.307846 0.18703 130 
0.432137 -0.307861 0.188129 136 
0.429562 -0.308493 0.18851 130 
0.429856 -0.308424 0.189705 135 
0.428939 -0.30865 0.190552 130 
0.428543 -0.30875 0.191548 133 
0.427976 -0.308891 0.192493 129 
0.427841 -0.308926 0.193565 124 
0.427363 -0.309046 0.194534 125 
0.428522 -0.308765 0.195993 124 
0.426497 -0.309262 0.196497 125 
0.425084 -0.30961 0.19718 123 
0.424443 -0.309769 0.198093 121 
0.424059 -0.309866 0.199084 121 
0.423592 -0.309983 0.200049 112 
0.422956 -0.31014 0.20096 113 
0.422407 -0.310277 0.201896 110 
0.421438 -0.310516 0.202698 117 
0.42081 -0.310672 0.203606 120 
0.420099 -0.310849 0.204485 124 
0.419642 -0.310963 0.205445 125 
0.419186 -0.311077 0.206403 122 
0.418481 -0.311251 0.20728 115 
0.418029 -0.311364 0.208237 120 
0.418078 -0.311355 0.209358 124 
0.41771 -0.311447 0.210343 119 
0.417511 -0.311499 0.211383 121 
0.416067 -0.311854 0.212005 117 
0.414549 -0.312227 0.212597 117 
0.413695 -0.312438 0.213409 117 
0.413747 -0.312428 0.214529 116 
0.413225 -0.312558 0.215452 105 
0.413278 -0.312548 0.216574 113 
0.411858 -0.312897 0.217183 114 
0.411097 -0.313085 0.218018 111 
0.410419 -0.313253 0.21888 112 
0.410637 -0.313203 0.220058 112 
0.409637 -0.31345 0.220804 109 
0.410262 -0.3133 0.222129 110 
0.408133 -0.313822 0.222464 108 
0.408432 -0.313751 0.223673 104 
0.40712 -0.314074 0.224295 104 
0.405735 -0.314415 0.224886 103 
0.406193 -0.314306 0.226154 107 
0.406654 -0.314196 0.227424 99 
0.404315 -0.314769 0.227652 102 
0.404454 -0.314738 0.228802 104 
0.402767 -0.315152 0.229264 106 
0.402828 -0.31514 0.230384 100 
0.40273 -0.315166 0.231444 97 
0.40303 -0.315096 0.232657 88 
0.401352 -0.315508 0.23311 96 
0.401493 -0.315476 0.234262 95 
0.399668 -0.315924 0.234649 97 
0.399653 -0.31593 0.235739 104 
0.398699 -0.316166 0.23646 101 
0.399704 -0.315923 0.237953 100 
0.398281 -0.316273 0.238485 99 
0.396788 -0.31664 0.238984 98 
0.395613 -0.316929 0.239606 96 
0.396453 -0.316726 0.241039 95 
0.395203 -0.317034 0.241627 93 
0.396586 -0.316699 0.243287 85 
0.395568 -0.31695 0.243967 80 
0.394554 -0.3172 0.244645 78 
0.393237 -0.317524 0.245194 81 
0.392614 -0.317679 0.246029 77 
0.391688 -0.317907 0.246734 78 
0.391527 -0.317949 0.247759 75 
0.392974 -0.317598 0.249466 81 
0.391589 -0.317939 0.249974 79 
0.391048 -0.318073 0.250839 87 
0.389219 -0.318522 0.251148 85 
0.388685 -0.318655 0.25201 84 
0.388528 -0.318696 0.253035 79 
0.387617 -0.318921 0.253731 81 
0.386261 -0.319254 0.254229 81 
0.389197 -0.31854 0.256614 78 
0.38528 -0.319499 0.255978 74 
0.385351 -0.319484 0.257101 81 
0.386397 -0.319231 0.258661 80 
0.384749 -0.319636 0.259016 75 
0.384897 -0.319602 0.260176 77 
0.384001 -0.319823 0.260864 76 
0.384373 -0.319735 0.262127 71 
0.384149 -0.319792 0.26312 75 
0.383479 -0.319958 0.263909 107 
0.385122 -0.31956 0.265764 71 
0.383631 -0.319926 0.266172 83 
0.383783 -0.319892 0.267341 72 
0.0821095 -0.394722 -0.0692362 9 
0.337402 -0.334015 -0.192043 10 
0.342791 -0.332736 -0.193658 12 
0.35674 -0.329421 -0.199391 14 
0.349005 -0.331263 -0.194625 10 
1.30475 -0.103994 -0.653819 8 
1.06386 -0.161282 -0.535083 9 
0.325758 -0.336797 -0.18052 10 
0.346864 -0.331781 -0.189522 12 
0.354104 -0.330062 -0.191914 14 
0.00298752 -0.41354 -0.0297886 8 
-0.0239124 -0.419932 -0.0185553 9 
0.354411 -0.329996 -0.188969 9 
0.339768 -0.33348 -0.181178 9 
0.358371 -0.329059 -0.188737 13 
0.347923 -0.331546 -0.18292 9 
0.153247 -0.377828 -0.0937182 11 
0.354912 -0.329889 -0.184069 11 
0.34337 -0.332635 -0.177837 12 
0.189948 -0.369108 -0.108215 9 
0.349707 -0.331133 -0.178674 12 
0.348809 -0.331349 -0.177266 11 
0.354504 -0.329998 -0.17878 13 
0.360336 -0.328614 -0.180333 12 
0.355356 -0.3298 -0.177119 11 
0.350995 -0.330839 -0.174198 12 
0.353198 -0.330318 -0.174148 11 
0.359793 -0.328753 -0.175987 14 
0.355554 -0.329763 -0.173139 15 
0.107045 -0.388826 -0.0666656 11 
0.349086 -0.331305 -0.168357 17 
0.349281 -0.33126 -0.167441 12 
0.353083 -0.330359 -0.168046 16 
0.351471 -0.330744 -0.166364 13 
0.35498 -0.329913 -0.166828 15 
0.349622 -0.331188 -0.163595 17 
0.348166 -0.331537 -0.161998 16 
0.352398 -0.330534 -0.162746 17 
0.352081 -0.330611 -0.161618 19 
0.349908 -0.33113 -0.159735 14 
0.351003 -0.330872 -0.159187 14 
0.34827 -0.331523 -0.157093 16 
0.347838 -0.331629 -0.155932 12 
0.350774 -0.330933 -0.156117 17 
0.347606 -0.331688 -0.15387 16 
0.351436 -0.33078 -0.154397 16 
0.346245 -0.332016 -0.151371 12 
0.34651 -0.331956 -0.150496 13 
0.351985 -0.330657 -0.151642 21 
0.346285 -0.332014 -0.148454 18 
0.339933 -0.333525 -0.145039 14 
0.342399 -0.332941 -0.145019 16 
0.342785 -0.332852 -0.144199 22 
0.342371 -0.332952 -0.143076 19 
0.346548 -0.331962 -0.14368 24 
0.344258 -0.332508 -0.141853 20 
0.345333 -0.332256 -0.141285 21 
0.346286 -0.332031 -0.140669 25 
0.347495 -0.331746 -0.140144 25 
0.345077 -0.332323 -0.138289 26 
0.342806 -0.332864 -0.1365 27 
0.344308 -0.33251 -0.136082 28 
0.345882 -0.332138 -0.135685 29 
0.34528 -0.332284 -0.134506 26 
0.346361 -0.332029 -0.133926 29 
0.349082 -0.331385 -0.133923 25 
0.348221 -0.331592 -0.132652 28 
0.348431 -0.331544 -0.131759 30 
0.348265 -0.331586 -0.130736 25 
0.349865 -0.331208 -0.130323 30 
0.348249 -0.331594 -0.128802 33 
0.348714 -0.331486 -0.127997 32 
0.349874 -0.331213 -0.127427 35 
0.34801 -0.331658 -0.125835 34 
0.350938 -0.330964 -0.125854 32 
0.351918 -0.330734 -0.125214 35 
0.35004 -0.331182 -0.123627 36 
0.348242 -0.331611 -0.122075 31 
0.349527 -0.331308 -0.121536 32 
0.351519 -0.330838 -0.121222 35 
0.350976 -0.330969 -0.120085 37 
0.351259 -0.330904 -0.119214 38 
0.350276 -0.33114 -0.117941 39 
0.352718 -0.330562 -0.117755 33 
0.351223 -0.330919 -0.116323 38 
0.353036 -0.330491 -0.115931 32 
0.352175 -0.330698 -0.114702 36 
0.354123 -0.330237 -0.114344 37 
0.352686 -0.330581 -0.112942 41 
0.355669 -0.329875 -0.11289 42 
0.354737 -0.330098 -0.111645 37 
0.355545 -0.329909 -0.110926 40 
0.355321 -0.329964 -0.109897 41 
0.35401 -0.330278 -0.108548 40 
0.35649 -0.329691 -0.10832 44 
0.355752 -0.329869 -0.107143 43 
0.357666 -0.329416 -0.106738 45 
0.359989 -0.328867 -0.106444 41 
0.356512 -0.329695 -0.104483 46 
0.358759 -0.329164 -0.104162 50 
0.358016 -0.329342 -0.10299 50 
0.359361 -0.329026 -0.102405 48 
0.360976 -0.328645 -0.101891 44 
0.360753 -0.328699 -0.100865 46 
0.361256 -0.328582 -0.100038 52 
0.362288 -0.32834 -0.0993552 48 
0.362597 -0.328269 -0.0984722 49 
0.362773 -0.328229 -0.0975532 50 
0.364345 -0.327858 -0.0970062 54 
0.36459 -0.327802 -0.0961032 53 
0.365571 -0.327572 -0.0953922 57 
0.366423 -0.327372 -0.0946452 60 
0.367548 -0.327108 -0.0939652 59 
0.366854 -0.327274 -0.0928162 57 
0.367105 -0.327217 -0.0919092 55 
0.367626 -0.327096 -0.0910712 56 
0.370184 -0.326491 -0.0907412 67 
0.370645 -0.326384 -0.0898812 65 
0.371379 -0.326212 -0.0890872 64 
0.371637 -0.326153 -0.0881752 55 
0.370937 -0.326321 -0.0870302 56 
0.371471 -0.326197 -0.0861852 59 
0.373655 -0.325681 -0.0857322 63 
0.373504 -0.325719 -0.0847182 65 
0.374112 -0.325577 -0.0838842 61 
0.374514 -0.325484 -0.0830012 64 
0.375682 -0.325209 -0.0822922 65 
0.375672 -0.325214 -0.0813112 63 
0.376078 -0.32512 -0.0804242 65 
0.375652 -0.325223 -0.0793502 58 
0.376478 -0.325029 -0.0785572 63 
0.376052 -0.325133 -0.0774842 65 
0.375628 -0.325236 -0.0764152 63 
0.377225 -0.324859 -0.0757852 59 
0.377708 -0.324747 -0.0749112 63 
0.377213 -0.324866 -0.0738272 59 
0.377629 -0.32477 -0.0729382 63 
0.376926 -0.324939 -0.0718142 61 
0.376297 -0.32509 -0.0707082 57 
0.377411 -0.324829 -0.0699632 60 
0.373735 -0.325703 -0.0682422 58 
0.373118 -0.325851 -0.0671506 59 
0.374012 -0.325641 -0.0663631 61 
0.373397 -0.32579 -0.0652747 62 
0.374017 -0.325645 -0.0644309 67 
0.376166 -0.325138 -0.0638799 69 
0.372585 -0.325989 -0.0622257 68 
0.373275 -0.325827 -0.0613945 69 
0.373007 -0.325893 -0.0603814 72 
0.373702 -0.325731 -0.0595481 69 
0.373572 -0.325764 -0.0585616 76 
0.372074 -0.326121 -0.057328 75 
0.372221 -0.326089 -0.0563957 81 
0.371686 -0.326218 -0.0553424 81 
0.372106 -0.32612 -0.0544593 76 
0.37205 -0.326136 -0.0534924 83 
0.371587 -0.326248 -0.0524561 84 
0.372896 -0.325939 -0.0517233 82 
0.372297 -0.326084 -0.0506652 85 
0.373132 -0.325888 -0.0498481 82 
0.373902 -0.325708 -0.0490175 87 
0.374469 -0.325575 -0.0481513 90 
0.375314 -0.325377 -0.047328 90 
0.37561 -0.32531 -0.0464148 94 
0.375215 -0.325405 -0.0453931 92 
0.37648 -0.325108 -0.0446295 101 
0.376431 -0.325121 -0.0436614 93 
0.37701 -0.324987 -0.0427878 93 
0.377589 -0.324852 -0.0419128 92 
0.378798 -0.324567 -0.0411284 90 
0.379313 -0.324447 -0.0402392 96 
0.380251 -0.324227 -0.0394088 100 
0.380911 -0.324073 -0.038536 99 
0.381716 -0.323885 -0.0376811 101 
0.38132 -0.323981 -0.0366591 91 
0.383335 -0.323505 -0.0359644 98 
0.38237 -0.323736 -0.0348658 111 
0.382047 -0.323815 -0.0338555 102 
0.383428 -0.32349 -0.033067 104 
0.384817 -0.323163 -0.0322745 105 
0.38521 -0.323073 -0.0313521 107 
0.385602 -0.322982 -0.0304287 105 
0.385422 -0.323026 -0.0294344 100 
0.387042 -0.322645 -0.0286564 103 
0.38708 -0.322638 -0.0276863 104 
0.388205 -0.322374 -0.0268422 98 
0.389771 -0.322005 -0.0260445 102 
0.389301 -0.322119 -0.0250131 109 
0.390218 -0.321904 -0.0241364 107 
0.3907 -0.321792 -0.0232094 98 
0.392212 -0.321436 -0.0223903 111 
0.392625 -0.32134 -0.0214511 106 
0.392524 -0.321366 -0.0204579 106 
0.393605 -0.321113 -0.0195842 114 
0.396257 -0.320487 -0.0188613 107 
0.394592 -0.320883 -0.0177116 110 
0.39561 -0.320645 -0.0168225 110 
0.396034 -0.320546 -0.0158748 107 
0.398263 -0.320021 -0.0150895 102 
0.397939 -0.3201 -0.0140691 107 
0.399125 -0.319821 -0.0131814 109 
0.399938 -0.319631 -0.0122578 104 
0.399466 -0.319745 -0.0112243 110 
0.399978 -0.319626 -0.0102729 113 
0.400948 -0.319398 -0.00935622 109 
0.401924 -0.31917 -0.00843632 116 
0.402215 -0.319103 -0.00746122 119 
0.402583 -0.319018 -0.00649102 116 
0.404338 -0.318605 -0.00561891 119 
0.404018 -0.318683 -0.00459552 118 
0.404546 -0.31856 -0.00363122 124 
0.405929 -0.318235 -0.00272132 125 
0.405765 -0.318276 -0.00170742 126 
0.406067 -0.318207 -0.000723228 124 
0.406138 -0.318192 0.00027588 126 
0.406832 -0.31803 0.00123878 125 
0.406672 -0.31807 0.00225228 128 
0.407838 -0.317797 0.00319287 124 
0.408461 -0.317652 0.00416619 125 
0.408382 -0.317673 0.00517738 128 
0.409244 -0.317471 0.00614218 133 
0.408148 -0.317733 0.00720188 131 
0.40815 -0.317735 0.00820787 137 
0.408388 -0.31768 0.00920367 134 
0.408394 -0.317682 0.0102098 134 
0.40926 -0.317479 0.0111821 139 
0.409503 -0.317424 0.0121808 141 
0.409589 -0.317406 0.0131859 142 
0.410622 -0.317163 0.0141595 147 
0.408666 -0.317629 0.0152313 141 
0.41088 -0.317107 0.0161719 143 
0.409474 -0.317442 0.0172213 146 
0.410038 -0.317311 0.0182143 136 
0.410132 -0.317291 0.0192207 131 
0.410463 -0.317215 0.0202222 137 
0.409929 -0.317344 0.0212423 136 
0.410261 -0.317267 0.0222444 138 
0.410438 -0.317228 0.0232504 137 
0.410853 -0.317132 0.0242535 142 
0.411032 -0.317092 0.0252612 143 
0.411846 -0.316902 0.0262628 144 
0.414259 -0.316333 0.0272536 141 
0.412609 -0.316726 0.028281 143 
0.413352 -0.316552 0.0292906 149 
0.414658 -0.316246 0.0303013 151 
0.416455 -0.315822 0.0313166 152 
0.4156 -0.316027 0.0323362 152 
0.415872 -0.315965 0.0333559 151 
0.416469 -0.315826 0.0343781 147 
0.416502 -0.315821 0.0353988 148 
0.417831 -0.315509 0.0364308 150 
0.418111 -0.315445 0.0374569 149 
0.419205 -0.315188 0.0384942 152 
0.419734 -0.315066 0.0395276 156 
0.421577 -0.314632 0.0405844 158 
0.422442 -0.314429 0.0416305 159 
0.423229 -0.314246 0.0426785 154 
0.423438 -0.314198 0.0437169 154 
0.423153 -0.314268 0.0447444 158 
0.425443 -0.313729 0.0458371 157 
0.425241 -0.313779 0.0468698 159 
0.425374 -0.31375 0.0479117 159 
0.425926 -0.313622 0.0489674 156 
0.425811 -0.313651 0.0500031 162 
0.425865 -0.313641 0.0510444 163 
0.426925 -0.313393 0.0521234 165 
0.42631 -0.313541 0.0531411 165 
0.424782 -0.313905 0.054119 165 
0.42651 -0.313498 0.0552312 168 
0.426654 -0.313467 0.0562789 168 
0.424876 -0.31389 0.0572376 161 
0.424356 -0.314015 0.0582508 164 
0.424003 -0.314101 0.0592706 163 
0.424067 -0.314088 0.0603111 169 
0.424715 -0.313937 0.0613838 171 
0.424616 -0.313963 0.062417 171 
0.42535 -0.313792 0.0634987 167 
0.426926 -0.313422 0.0646339 171 
0.425072 -0.313862 0.0655625 168 
0.425478 -0.313769 0.0666288 175 
0.426472 -0.313536 0.0677355 173 
0.426127 -0.31362 0.0687555 179 
0.427715 -0.313247 0.0699091 182 
0.427961 -0.313191 0.070973 178 
0.425605 -0.313751 0.0718466 179 
0.424351 -0.31405 0.0727945 173 
0.422275 -0.314543 0.0736743 168 
0.419644 -0.315168 0.0745024 172 
0.416716 -0.315863 0.0752965 164 
0.414701 -0.316342 0.0761556 168 
0.412067 -0.316967 0.0769544 170 
0.411751 -0.317044 0.0779451 162 
0.407892 -0.317959 0.07862 163 
0.407037 -0.318164 0.079553 168 
0.407275 -0.318109 0.0805844 162 
0.402562 -0.319226 0.0811485 171 
0.402109 -0.319336 0.082106 164 
0.398695 -0.320145 0.0827706 163 
0.397949 -0.320324 0.0836901 164 
0.397807 -0.32036 0.0846689 171 
0.39669 -0.320626 0.0855458 167 
0.397001 -0.320555 0.0865702 169 
0.393287 -0.321435 0.0871613 170 
0.391971 -0.321749 0.0880021 169 
0.391543 -0.321852 0.0889376 175 
0.389362 -0.32237 0.0896722 174 
0.38923 -0.322404 0.090636 169 
0.387721 -0.322763 0.0914374 170 
0.388245 -0.322641 0.0924766 166 
0.384731 -0.323474 0.0930275 170 
0.384749 -0.323472 0.0940011 171 
0.383839 -0.323689 0.0948588 165 
0.384072 -0.323636 0.095859 170 
0.383166 -0.323853 0.0967131 170 
0.383758 -0.323715 0.0977605 168 
0.382712 -0.323965 0.0985927 174 
0.383946 -0.323675 0.099729 175 
0.380919 -0.324393 0.100287 175 
0.380661 -0.324456 0.101218 172 
0.379912 -0.324636 0.10208 174 
0.379869 -0.324648 0.103039 177 
0.377865 -0.325124 0.103716 169 
0.378173 -0.325054 0.104723 171 
0.37834 -0.325016 0.105712 166 
0.377811 -0.325143 0.106597 168 
0.377006 -0.325336 0.107438 167 
0.376203 -0.325528 0.108277 167 
0.376235 -0.325523 0.109244 164 
0.375784 -0.325632 0.110134 163 
0.377553 -0.325216 0.111379 166 
0.376404 -0.325489 0.112159 162 
0.376023 -0.325581 0.11306 164 
0.376337 -0.32551 0.114075 169 
0.376234 -0.325536 0.115023 164 
0.376411 -0.325497 0.116018 163 
0.376589 -0.325457 0.117014 166 
0.378303 -0.325054 0.118278 167 
0.379255 -0.324831 0.119416 169 
0.380212 -0.324607 0.120559 173 
0.380185 -0.324616 0.121529 168 
0.380441 -0.324558 0.122551 169 
0.381194 -0.324382 0.123665 168 
0.38032 -0.324591 0.124482 171 
0.379732 -0.324732 0.125349 163 
0.381123 -0.324406 0.126589 166 
0.381456 -0.324329 0.127632 170 
0.383431 -0.323865 0.128995 166 
0.386652 -0.323107 0.13061 161 
0.389771 -0.322372 0.132217 159 
0.391374 -0.321996 0.133536 153 
0.393063 -0.321599 0.134878 152 
0.395967 -0.320916 0.136475 150 
0.400204 -0.319917 0.138357 159 
0.40428 -0.318957 0.140223 151 
0.406613 -0.318408 0.141742 139 
0.451724 -0.307756 0.152306 129 
0.451907 -0.307715 0.153471 139 
0.452186 -0.307652 0.154656 148 
0.451445 -0.30783 0.155623 149 
0.450706 -0.308006 0.156587 148 
0.449971 -0.308183 0.15755 145 
0.450252 -0.308119 0.158738 136 
0.44906 -0.308403 0.159595 138 
0.447051 -0.30888 0.160264 142 
0.446237 -0.309075 0.161198 138 
0.445882 -0.309162 0.162236 144 
0.445982 -0.30914 0.16338 137 
0.445356 -0.309291 0.164354 142 
0.443647 -0.309697 0.165069 144 
0.444111 -0.30959 0.166298 140 
0.443131 -0.309824 0.167182 138 
0.442786 -0.309908 0.168216 145 
0.44235 -0.310014 0.169228 141 
0.441648 -0.310182 0.170173 142 
0.441217 -0.310286 0.171183 139 
0.44034 -0.310496 0.172081 137 
0.440538 -0.310452 0.173247 140 
0.43922 -0.310766 0.174029 141 
0.437112 -0.311266 0.174603 139 
0.438019 -0.311054 0.17595 138 
0.437687 -0.311135 0.176978 130 
0.436562 -0.311403 0.177797 138 
0.436674 -0.311379 0.178941 133 
0.436965 -0.311313 0.180133 137 
0.434702 -0.31185 0.18064 140 
0.433329 -0.312177 0.18138 133 
0.432746 -0.312317 0.182331 133 
0.432775 -0.312313 0.183449 134 
0.432195 -0.312452 0.184399 132 
0.431616 -0.312591 0.185348 132 
0.430521 -0.312853 0.18615 123 
0.43038 -0.312888 0.187219 130 
0.428774 -0.31327 0.18787 127 
0.430101 -0.31296 0.189357 135 
0.429358 -0.313137 0.190253 127 
0.428446 -0.313355 0.191097 131 
0.427453 -0.313592 0.191914 130 
0.427061 -0.313687 0.192906 132 
0.425819 -0.313983 0.193644 127 
0.426026 -0.313936 0.194812 129 
0.424704 -0.314251 0.195521 126 
0.423726 -0.314484 0.196329 125 
0.423428 -0.314557 0.197342 123 
0.423553 -0.31453 0.198485 120 
0.424102 -0.314403 0.19976 121 
0.421698 -0.314973 0.200119 121 
0.420901 -0.315164 0.200972 125 
0.419856 -0.315413 0.201746 124 
0.41965 -0.315464 0.202781 124 
0.421285 -0.315081 0.204405 120 
0.419072 -0.315605 0.2048 120 
0.418952 -0.315636 0.205863 115 
0.418333 -0.315785 0.206764 116 
0.416722 -0.316168 0.207339 114 
0.416935 -0.31612 0.208509 120 
0.415745 -0.316403 0.209216 119 
0.415711 -0.316414 0.210305 114 
0.414363 -0.316734 0.210953 117 
0.415729 -0.316415 0.212513 117 
0.414874 -0.316619 0.213325 115 
0.413531 -0.316938 0.213968 118 
0.411545 -0.317409 0.214385 123 
0.412329 -0.317227 0.215753 114 
0.410433 -0.317677 0.216192 112 
0.413744 -0.316898 0.218447 107 
0.410216 -0.317733 0.218309 113 
0.410918 -0.31757 0.219655 111 
0.409275 -0.31796 0.22017 112 
0.409169 -0.317987 0.221229 113 
0.40834 -0.318186 0.222029 107 
0.408315 -0.318194 0.223117 103 
0.406928 -0.318524 0.22371 103 
0.407546 -0.31838 0.225033 100 
0.40481 -0.319028 0.225124 104 
0.405106 -0.318961 0.226327 104 
0.404529 -0.3191 0.227208 104 
0.405862 -0.318788 0.228802 102 
0.402353 -0.319618 0.228579 100 
0.402807 -0.319513 0.229844 95 
0.402079 -0.319687 0.230661 88 
0.401275 -0.31988 0.231447 93 
0.400004 -0.320182 0.232051 89 
0.398817 -0.320464 0.232683 91 
0.3981 -0.320636 0.233494 91 
0.399408 -0.32033 0.235095 84 
0.398924 -0.320446 0.235999 92 
0.397666 -0.320746 0.236594 95 
0.396877 -0.320934 0.237372 96 
0.395552 -0.321249 0.237933 87 
0.394692 -0.321454 0.238677 87 
0.39537 -0.321297 0.240039 88 
0.393364 -0.321772 0.240316 86 
0.393428 -0.32176 0.241429 81 
0.393264 -0.321801 0.242451 77 
0.393866 -0.321662 0.243788 72 
0.391566 -0.322206 0.243927 78 
0.391784 -0.322157 0.245106 78 
0.390409 -0.322484 0.245619 81 
0.38972 -0.322649 0.246417 79 
0.38956 -0.322689 0.247436 81 
0.390611 -0.322444 0.248971 88 
0.389017 -0.322822 0.249381 85 
0.387507 -0.323181 0.249821 82 
0.387425 -0.323202 0.250873 90 
0.386671 -0.323383 0.251633 82 
0.38839 -0.32298 0.253469 77 
0.385764 -0.323602 0.253411 81 
0.38405 -0.324008 0.253744 85 
0.386128 -0.323521 0.255747 76 
0.3859 -0.323577 0.256736 80 
0.385749 -0.323615 0.257758 78 
0.38597 -0.323566 0.258949 75 
0.384552 -0.323902 0.259403 69 
0.384254 -0.323975 0.260359 71 
0.383586 -0.324135 0.261146 76 
0.38403 -0.324033 0.26244 71 
0.384252 -0.323983 0.263635 102 
0.383214 -0.32423 0.264251 70 
0.382402 -0.324424 0.264968 77 
0.382994 -0.324287 0.266337 75 
0.341322 -0.336924 -0.194348 10 
0.338598 -0.337552 -0.192013 8 
0.348565 -0.335266 -0.195843 18 
0.355119 -0.333765 -0.197983 10 
0.354976 -0.3338 -0.196879 10 
0.348543 -0.335279 -0.192767 12 
0.353189 -0.334215 -0.19396 12 
0.353377 -0.334174 -0.193021 13 
0.349356 -0.335099 -0.190096 9 
0.34903 -0.335176 -0.188925 14 
0.345215 -0.336054 -0.186125 13 
0.343394 -0.336474 -0.184271 13 
0.360824 -0.332477 -0.191343 10 
0.346913 -0.335672 -0.18389 13 
0.3471 -0.335631 -0.182968 14 
0.341774 -0.336856 -0.179528 10 
0.0975335 -0.392897 -0.0685102 9 
0.348175 -0.335391 -0.180436 11 
0.349131 -0.335174 -0.17986 12 
0.354033 -0.334052 -0.18105 12 
0.350474 -0.334871 -0.178445 11 
0.346907 -0.335691 -0.175853 15 
0.622889 -0.272376 -0.297132 10 
0.344585 -0.336229 -0.172833 13 
0.348369 -0.335363 -0.173496 12 
0.364538 -0.331656 -0.179539 10 
0.349202 -0.335177 -0.171857 15 
0.358627 -0.333017 -0.174923 18 
0.356254 -0.333564 -0.172885 10 
0.413285 -0.320483 -0.196252 11 
0.346622 -0.335778 -0.166767 17 
1.61107 -0.0457368 -0.703234 11 
0.352363 -0.334465 -0.167201 13 
0.354569 -0.333962 -0.167124 12 
0.348477 -0.335361 -0.163581 13 
0.344714 -0.336226 -0.161031 19 
0.356214 -0.333591 -0.164791 11 
0.350406 -0.334926 -0.161402 11 
0.351116 -0.334765 -0.160699 16 
0.348706 -0.33532 -0.158727 15 
0.346197 -0.335898 -0.156727 19 
0.345895 -0.335969 -0.155624 11 
0.34466 -0.336255 -0.154151 19 
0.342937 -0.336652 -0.15249 15 
0.347558 -0.335595 -0.153346 17 
0.346379 -0.335868 -0.151902 21 
0.343346 -0.336565 -0.149738 16 
0.34466 -0.336266 -0.149279 13 
0.344364 -0.336336 -0.148193 13 
0.341729 -0.336943 -0.146208 17 
0.348328 -0.335432 -0.147772 19 
0.344284 -0.336361 -0.145255 18 
0.343313 -0.336586 -0.143919 22 
0.348247 -0.335457 -0.144814 17 
0.346695 -0.335815 -0.143258 29 
0.341036 -0.337115 -0.140178 29 
0.343075 -0.33665 -0.139976 25 
0.344634 -0.336294 -0.13959 23 
0.342436 -0.3368 -0.137821 21 
0.343008 -0.336672 -0.137072 25 
0.346242 -0.335932 -0.137285 28 
0.344773 -0.336271 -0.135792 24 
0.344361 -0.336368 -0.134684 27 
0.345621 -0.336082 -0.134173 27 
0.3462 -0.335951 -0.133418 27 
0.345725 -0.336062 -0.13229 33 
0.349436 -0.335214 -0.13263 30 
0.347326 -0.3357 -0.13093 25 
0.346851 -0.335811 -0.129804 29 
0.344828 -0.336277 -0.12815 31 
0.348647 -0.335404 -0.128501 29 
0.34792 -0.335572 -0.127293 23 
0.345954 -0.336025 -0.12567 29 
0.348974 -0.335336 -0.125729 32 
0.349187 -0.335289 -0.124841 34 
0.348774 -0.335385 -0.123745 28 
0.348176 -0.335525 -0.12259 30 
0.349519 -0.335219 -0.122075 35 
0.349109 -0.335316 -0.120983 36 
0.34801 -0.335569 -0.119672 33 
0.349104 -0.335321 -0.11907 34 
0.349509 -0.33523 -0.118245 35 
0.353271 -0.334371 -0.118486 29 
0.351333 -0.334817 -0.116913 29 
0.351238 -0.334841 -0.115926 39 
0.351902 -0.334691 -0.115177 38 
0.350482 -0.335019 -0.113781 36 
0.352475 -0.334564 -0.11344 42 
0.355766 -0.333812 -0.11349 40 
0.35324 -0.334393 -0.111761 41 
0.354935 -0.334007 -0.111316 41 
0.351723 -0.334745 -0.109395 47 
0.352709 -0.334522 -0.108737 45 
0.35697 -0.333548 -0.109042 44 
0.354629 -0.334086 -0.107394 47 
0.355434 -0.333904 -0.106674 49 
0.356178 -0.333736 -0.105933 49 
0.356152 -0.333744 -0.104968 50 
0.357094 -0.333531 -0.10428 52 
0.354629 -0.334097 -0.102624 45 
0.356142 -0.333753 -0.102097 50 
0.356826 -0.333598 -0.101334 50 
0.357641 -0.333414 -0.100605 51 
0.358719 -0.333169 -0.0999462 48 
0.35708 -0.333547 -0.0985402 49 
0.360368 -0.332796 -0.0984802 45 
0.362182 -0.332383 -0.0980092 44 
0.359088 -0.333094 -0.0962192 50 
0.361548 -0.332532 -0.0959172 50 
0.361462 -0.332554 -0.0949342 49 
0.363221 -0.332154 -0.0944352 53 
0.362607 -0.332297 -0.0933142 60 
0.364838 -0.331788 -0.0929292 50 
0.365952 -0.331535 -0.0922502 54 
0.366001 -0.331526 -0.0912972 54 
0.364851 -0.331791 -0.0900432 50 
0.3661 -0.331508 -0.0893932 56 
0.367356 -0.331222 -0.0887402 57 
0.366737 -0.331366 -0.0876222 56 
0.367594 -0.331172 -0.0868672 57 
0.368724 -0.330916 -0.0861762 54 
0.368778 -0.330906 -0.0852222 63 
0.369102 -0.330834 -0.0843342 63 
0.370173 -0.330591 -0.0836202 59 
0.370568 -0.330503 -0.0827452 58 
0.370896 -0.33043 -0.0818542 61 
0.371498 -0.330294 -0.0810242 58 
0.370468 -0.330532 -0.0798212 56 
0.371206 -0.330365 -0.0790232 58 
0.371675 -0.330261 -0.0781612 59 
0.371395 -0.330327 -0.0771322 55 
0.372342 -0.330112 -0.0763752 56 
0.372268 -0.330131 -0.0753922 49 
0.370699 -0.330493 -0.0740862 50 
0.372122 -0.330169 -0.0734282 51 
0.373006 -0.329969 -0.0726512 51 
0.374444 -0.329642 -0.0719882 51 
0.37184 -0.33024 -0.0704772 56 
0.374027 -0.329742 -0.0699652 58 
0.372043 -0.330199 -0.0685932 63 
0.372862 -0.330013 -0.0677972 73 
0.370618 -0.330529 -0.0663841 76 
0.37225 -0.330158 -0.0657501 76 
0.369745 -0.330733 -0.0642965 70 
0.372802 -0.330036 -0.0639364 71 
0.370834 -0.330488 -0.0625962 66 
0.370569 -0.330551 -0.061589 71 
0.370035 -0.330676 -0.0605325 74 
0.370313 -0.330615 -0.0596303 74 
0.370387 -0.3306 -0.0586902 75 
0.370058 -0.330677 -0.0576763 74 
0.369865 -0.330724 -0.0566888 69 
0.370145 -0.330662 -0.0557873 77 
0.369146 -0.330892 -0.0546585 80 
0.369494 -0.330815 -0.0537701 87 
0.369574 -0.330799 -0.0528344 85 
0.370328 -0.330629 -0.0520144 85 
0.370209 -0.330658 -0.0510437 85 
0.371305 -0.33041 -0.0502777 85 
0.370577 -0.330579 -0.0492059 87 
0.372082 -0.330236 -0.0485029 92 
0.372779 -0.330079 -0.0476638 91 
0.372729 -0.330093 -0.046703 91 
0.373498 -0.329919 -0.0458721 96 
0.373177 -0.329995 -0.0448686 97 
0.374085 -0.329789 -0.0440562 98 
0.374039 -0.329802 -0.0430954 102 
0.375914 -0.329375 -0.0424239 99 
0.376212 -0.329309 -0.0415118 100 
0.375616 -0.329448 -0.0404681 101 
0.376261 -0.329302 -0.0396062 99 
0.377254 -0.329077 -0.0387918 109 
0.377836 -0.328947 -0.0379161 106 
0.378419 -0.328815 -0.0370388 102 
0.378935 -0.3287 -0.0361504 105 
0.378895 -0.328711 -0.0351855 104 
0.378855 -0.328722 -0.0342212 105 
0.380002 -0.328462 -0.0334128 98 
0.382425 -0.32791 -0.0327648 109 
0.381261 -0.328179 -0.031652 108 
0.3832 -0.327738 -0.0309325 107 
0.383873 -0.327586 -0.0300499 109 
0.383128 -0.327758 -0.0289931 108 
0.383662 -0.327639 -0.028092 100 
0.384338 -0.327486 -0.0272061 110 
0.384732 -0.327398 -0.0262852 112 
0.386488 -0.326999 -0.0255179 114 
0.387392 -0.326795 -0.0246488 116 
0.387504 -0.326771 -0.02369 109 
0.387908 -0.326681 -0.0227622 115 
0.389616 -0.326293 -0.0219715 115 
0.390825 -0.326019 -0.0211226 115 
0.391016 -0.325977 -0.0201655 115 
0.392088 -0.325735 -0.019296 115 
0.392944 -0.325541 -0.0184015 115 
0.393876 -0.32533 -0.0175115 111 
0.393927 -0.325321 -0.0165348 118 
0.394569 -0.325176 -0.015613 120 
0.395065 -0.325065 -0.0146758 119 
0.39601 -0.324851 -0.0137766 119 
0.396511 -0.324739 -0.0128357 117 
0.398513 -0.324284 -0.0120204 122 
0.397819 -0.324445 -0.010974 122 
0.398327 -0.324331 -0.010028 126 
0.399816 -0.323993 -0.00915793 126 
0.399273 -0.324119 -0.00812532 126 
0.400845 -0.323762 -0.00725453 126 
0.401895 -0.323525 -0.00633952 128 
0.401122 -0.323703 -0.00529031 127 
0.402328 -0.32343 -0.00438201 126 
0.401936 -0.323522 -0.00336112 127 
0.4033 -0.323212 -0.00245751 124 
0.403139 -0.323252 -0.00145142 124 
0.403591 -0.323151 -0.000484019 126 
0.402896 -0.323312 0.000553682 127 
0.405038 -0.322825 0.00142358 126 
0.405419 -0.32274 0.00240058 124 
0.4048 -0.322884 0.00343327 122 
0.40526 -0.322781 0.00440678 126 
0.404874 -0.322871 0.00542468 127 
0.405259 -0.322786 0.00640348 126 
0.407504 -0.322275 0.00729668 126 
0.407196 -0.322348 0.00831278 128 
0.406269 -0.322562 0.00935408 136 
0.407592 -0.322262 0.0102995 138 
0.406976 -0.322405 0.0113256 131 
0.407682 -0.322246 0.0123001 135 
0.407379 -0.322317 0.0133128 135 
0.407543 -0.322282 0.0143087 139 
0.407165 -0.322371 0.0153221 140 
0.407564 -0.322282 0.0163111 142 
0.406723 -0.322477 0.0173358 141 
0.408134 -0.322156 0.0182991 143 
0.407527 -0.322298 0.019316 136 
0.408476 -0.322083 0.0202963 144 
0.408415 -0.322099 0.0213004 145 
0.409057 -0.321955 0.0222915 147 
0.410487 -0.321631 0.0232721 143 
0.409801 -0.32179 0.0242885 147 
0.409979 -0.321751 0.0252915 144 
0.41063 -0.321605 0.0262902 148 
0.411204 -0.321476 0.027292 144 
0.412255 -0.321238 0.0282928 144 
0.412915 -0.32109 0.0292994 148 
0.413498 -0.320959 0.0303088 144 
0.413765 -0.3209 0.0313207 148 
0.414114 -0.320823 0.0323336 149 
0.414862 -0.320655 0.0333491 149 
0.41698 -0.320173 0.0343739 150 
0.415648 -0.32048 0.0353839 150 
0.416968 -0.320181 0.0364115 147 
0.417972 -0.319954 0.0374408 149 
0.41955 -0.319596 0.0384811 147 
0.419833 -0.319534 0.039509 151 
0.419629 -0.319583 0.0405302 154 
0.421302 -0.319203 0.0415845 149 
0.422001 -0.319046 0.0426258 151 
0.422291 -0.318982 0.043661 151 
0.423077 -0.318805 0.0447091 153 
0.426524 -0.31802 0.0458286 152 
0.423419 -0.318731 0.0467805 156 
0.424212 -0.318553 0.0478357 152 
0.42559 -0.318241 0.0489124 161 
0.425808 -0.318193 0.0499558 165 
0.427616 -0.317783 0.0510562 167 
0.427252 -0.317868 0.0520829 168 
0.426639 -0.318011 0.0530986 160 
0.425779 -0.318209 0.054102 165 
0.42617 -0.318122 0.0551559 166 
0.426564 -0.318035 0.0562115 165 
0.426374 -0.318081 0.0572415 163 
0.426019 -0.318164 0.0582629 161 
0.427503 -0.317828 0.059376 166 
0.427568 -0.317815 0.0604205 170 
0.426212 -0.318127 0.0613883 170 
0.425862 -0.31821 0.0624077 174 
0.425931 -0.318196 0.0634501 170 
0.425749 -0.31824 0.0644781 173 
0.426153 -0.31815 0.0655418 173 
0.427899 -0.317754 0.066693 173 
0.426883 -0.317989 0.0676693 169 
0.427795 -0.317783 0.0687726 173 
0.428797 -0.317557 0.0698857 173 
0.428369 -0.317657 0.0709006 181 
0.428869 -0.317545 0.0719823 187 
0.428527 -0.317625 0.0730027 184 
0.428272 -0.317686 0.0740287 173 
0.425758 -0.318262 0.0748752 169 
0.425008 -0.318436 0.0758553 165 
0.422279 -0.319061 0.0766686 168 
0.422774 -0.31895 0.0777454 170 
0.418117 -0.320015 0.0783771 165 
0.416827 -0.320312 0.07929 168 
0.416348 -0.320424 0.0802717 168 
0.412993 -0.321192 0.0809857 166 
0.410231 -0.321824 0.0817432 165 
0.409139 -0.322076 0.0826512 169 
0.408599 -0.322201 0.0836097 166 
0.407204 -0.322522 0.0844807 171 
0.404197 -0.32321 0.0851821 163 
0.403517 -0.323368 0.0861142 167 
0.402457 -0.323612 0.0870038 164 
0.40049 -0.324063 0.087792 170 
0.399444 -0.324304 0.0886739 170 
0.399686 -0.324252 0.0896959 171 
0.3997 -0.32425 0.0906935 173 
0.398208 -0.324593 0.0915174 171 
0.398827 -0.324454 0.0925838 172 
0.394955 -0.32534 0.0931168 166 
0.394899 -0.325355 0.0940982 171 
0.394844 -0.32537 0.0950798 177 
0.395236 -0.325283 0.0961176 170 
0.394515 -0.325449 0.0970157 173 
0.395132 -0.325311 0.098084 175 
0.391171 -0.326217 0.0985558 174 
0.391341 -0.32618 0.0995615 180 
0.39078 -0.32631 0.10047 177 
0.391025 -0.326257 0.101486 184 
0.389883 -0.326519 0.102312 181 
0.389255 -0.326665 0.103206 173 
0.387906 -0.326975 0.103995 168 
0.385989 -0.327414 0.104697 167 
0.385947 -0.327426 0.105667 164 
0.386265 -0.327356 0.10669 169 
0.385936 -0.327433 0.107618 165 
0.385682 -0.327494 0.108556 162 
0.385929 -0.327439 0.109571 159 
0.385532 -0.327532 0.110487 160 
0.385639 -0.32751 0.111482 166 
0.386177 -0.32739 0.112546 164 
0.385495 -0.327547 0.113415 163 
0.384888 -0.327688 0.114295 161 
0.389185 -0.326711 0.115985 169 
0.386257 -0.32738 0.116481 167 
0.386298 -0.327373 0.11747 167 
0.386627 -0.327301 0.118509 172 
0.387537 -0.327096 0.11965 171 
0.389835 -0.326574 0.121039 170 
0.38988 -0.326566 0.122037 168 
0.390219 -0.326491 0.123089 165 
0.39122 -0.326265 0.124263 160 
0.391489 -0.326206 0.125307 163 
0.392867 -0.325894 0.126558 161 
0.394626 -0.325495 0.127887 155 
0.397602 -0.324819 0.129453 156 
0.397959 -0.32474 0.13053 152 
0.398015 -0.32473 0.131552 153 
0.400045 -0.32427 0.132959 153 
0.402245 -0.32377 0.134409 155 
0.40571 -0.322983 0.136119 153 
0.409935 -0.322022 0.137996 150 
0.414715 -0.320935 0.140003 153 
0.427334 -0.318061 0.143636 154 
0.446043 -0.3138 0.14858 154 
0.451429 -0.312575 0.150815 141 
0.452073 -0.312431 0.152072 145 
0.451701 -0.312518 0.153115 146 
0.450318 -0.312836 0.153941 145 
0.450227 -0.312859 0.155042 148 
0.449219 -0.313091 0.155942 141 
0.448398 -0.313281 0.156881 140 
0.448127 -0.313345 0.157939 145 
0.448772 -0.313201 0.159203 147 
0.445955 -0.313846 0.159686 145 
0.447506 -0.313495 0.161157 145 
0.44606 -0.313827 0.161943 138 
0.445796 -0.313889 0.162999 139 
0.443639 -0.314383 0.163611 138 
0.442393 -0.31467 0.164431 139 
0.441957 -0.314772 0.165439 138 
0.442059 -0.314751 0.166576 134 
0.441179 -0.314954 0.167476 137 
0.440748 -0.315055 0.168483 135 
0.439518 -0.315338 0.169292 138 
0.439268 -0.315397 0.170341 136 
0.440174 -0.315194 0.171678 137 
0.438772 -0.315516 0.172438 135 
0.437467 -0.315816 0.173217 137 
0.43643 -0.316054 0.17406 143 
0.438745 -0.315529 0.175767 136 
0.436035 -0.31615 0.176174 138 
0.435531 -0.316267 0.177151 138 
0.436169 -0.316124 0.178428 132 
0.43418 -0.31658 0.179009 127 
0.433944 -0.316636 0.180053 128 
0.433187 -0.316811 0.180956 138 
0.431739 -0.317143 0.181669 135 
0.432374 -0.317001 0.182948 134 
0.432837 -0.316898 0.184183 133 
0.430961 -0.317328 0.184769 132 
0.429184 -0.317735 0.185377 135 
0.429816 -0.317594 0.186658 136 
0.42899 -0.317785 0.187528 130 
0.428337 -0.317936 0.188445 132 
0.427772 -0.318067 0.189386 133 
0.426357 -0.318392 0.190079 133 
0.426732 -0.318309 0.19129 129 
0.426173 -0.318439 0.192228 126 
0.424853 -0.318742 0.192939 127 
0.425313 -0.31864 0.194177 129 
0.424082 -0.318923 0.19491 131 
0.423783 -0.318993 0.19592 133 
0.423065 -0.31916 0.196803 133 
0.423273 -0.319115 0.197967 133 
0.421719 -0.319471 0.198589 129 
0.420841 -0.319674 0.199416 126 
0.421718 -0.319476 0.200789 131 
0.420007 -0.319868 0.201352 132 
0.419551 -0.319975 0.202306 131 
0.419096 -0.320081 0.20326 127 
0.418477 -0.320224 0.20416 126 
0.417447 -0.320461 0.204925 125 
0.416339 -0.320716 0.205662 125 
0.417622 -0.320427 0.207177 129 
0.41561 -0.320887 0.207615 123 
0.415822 -0.320842 0.20878 132 
0.414641 -0.321113 0.209484 120 
0.413058 -0.321476 0.21005 123 
0.41384 -0.3213 0.211406 125 
0.414543 -0.321143 0.212741 125 
0.410936 -0.321966 0.212608 117 
0.411067 -0.321939 0.213745 114 
0.412171 -0.32169 0.215219 113 
0.409557 -0.322288 0.215407 115 
0.410253 -0.322132 0.216742 119 
0.409582 -0.322287 0.2176 117 
0.407871 -0.322679 0.218089 113 
0.407604 -0.322742 0.219085 115 
0.409906 -0.322221 0.220999 114 
0.406756 -0.32294 0.220963 110 
0.406254 -0.323057 0.221873 100 
0.405039 -0.323336 0.222522 100 
0.405491 -0.323236 0.223777 101 
0.405391 -0.323261 0.224831 106 
0.403865 -0.323611 0.225359 104 
0.402662 -0.323887 0.226002 100 
0.403113 -0.323787 0.227259 96 
0.401288 -0.324205 0.227664 89 
0.401503 -0.324158 0.228832 95 
0.401093 -0.324254 0.229765 95 
0.402171 -0.324011 0.231267 90 
0.399808 -0.324552 0.231451 92 
0.399712 -0.324576 0.232502 90 
0.399929 -0.324529 0.233676 86 
0.397509 -0.325082 0.23382 86 
0.396876 -0.325229 0.234658 96 
0.396937 -0.325217 0.235769 92 
0.394772 -0.325712 0.235997 101 
0.394987 -0.325666 0.237166 96 
0.397358 -0.325129 0.239202 94 
0.394195 -0.325851 0.239018 96 
0.393267 -0.326065 0.239728 89 
0.39295 -0.326139 0.240683 88 
0.393166 -0.326093 0.241857 89 
0.391637 -0.326443 0.242314 84 
0.391172 -0.326551 0.243205 85 
0.390256 -0.326762 0.243909 80 
0.389719 -0.326887 0.244768 78 
0.388434 -0.327182 0.245311 82 
0.388425 -0.327186 0.246389 81 
0.389315 -0.326986 0.247849 80 
0.38669 -0.327586 0.247815 76 
0.387726 -0.327353 0.24934 80 
0.387121 -0.327493 0.250164 80 
0.385553 -0.327852 0.250569 80 
0.386588 -0.327619 0.2521 81 
0.385095 -0.327961 0.252533 83 
0.385683 -0.32783 0.253874 84 
0.385827 -0.327799 0.255023 78 
0.385526 -0.32787 0.255976 78 
0.384929 -0.328009 0.256797 77 
0.383964 -0.328231 0.257451 81 
0.383298 -0.328385 0.258237 76 
0.383294 -0.328388 0.259321 79 
0.382556 -0.328558 0.260073 77 
0.383808 -0.328276 0.26173 81 
0.382702 -0.32853 0.262312 113 
0.382702 -0.328533 0.2634 71 
0.382334 -0.328619 0.26432 75 
0.382334 -0.328621 0.26541 75 
0.353328 -0.338094 -0.199606 10 
0.355017 -0.337723 -0.199396 12 
0.340625 -0.34091 -0.191396 9 
0.0841455 -0.397659 -0.0681012 10 
0.336402 -0.341849 -0.187367 8 
0.345724 -0.339789 -0.190825 12 
0.346981 -0.339513 -0.190412 11 
0.349778 -0.338896 -0.190723 10 
0.350478 -0.338744 -0.190036 11 
0.00347449 -0.415507 -0.0297354 11 
0.339498 -0.341178 -0.182877 10 
0.347784 -0.339347 -0.185734 15 
0.348925 -0.339097 -0.185252 10 
0.344442 -0.340091 -0.182179 9 
0.346511 -0.339635 -0.182128 12 
0.340787 -0.340904 -0.178514 11 
0.351409 -0.338556 -0.182345 12 
0.345441 -0.339879 -0.178638 13 
0.349805 -0.338916 -0.179601 12 
0.348024 -0.339312 -0.177798 14 
0.355617 -0.337635 -0.180178 12 
0.352048 -0.338427 -0.177579 17 
0.35699 -0.337336 -0.178751 12 
0.344454 -0.340111 -0.17223 14 
0.347591 -0.33942 -0.17261 14 
0.351857 -0.338478 -0.17347 12 
0.354118 -0.337981 -0.173444 14 
0.350965 -0.33868 -0.171079 13 
0.351288 -0.338611 -0.170217 15 
0.35059 -0.338768 -0.168919 13 
0.347677 -0.339414 -0.166686 12 
0.34762 -0.339429 -0.165672 12 
0.34388 -0.340258 -0.163112 12 
0.348894 -0.339152 -0.164226 17 
0.349724 -0.338971 -0.163581 11 
0.345832 -0.339834 -0.160979 11 
0.345465 -0.339917 -0.159847 17 
0.349747 -0.338973 -0.160619 16 
0.344676 -0.340096 -0.157565 14 
0.348311 -0.339295 -0.158061 18 
0.350344 -0.338848 -0.157897 11 
0.345639 -0.33989 -0.155023 12 
0.346649 -0.339669 -0.154449 19 
0.347474 -0.339489 -0.153799 17 
0.348867 -0.339183 -0.153371 17 
0.341377 -0.340841 -0.149449 12 
0.343597 -0.340353 -0.149352 14 
0.338377 -0.341509 -0.146356 20 
0.340447 -0.341053 -0.1462 14 
0.345618 -0.339913 -0.147228 15 
0.342674 -0.340566 -0.145133 24 
0.343242 -0.340442 -0.144387 22 
0.341365 -0.34086 -0.142713 25 
0.339081 -0.341367 -0.140896 28 
0.343047 -0.340492 -0.141428 26 
0.342331 -0.340652 -0.140201 29 
0.34339 -0.340421 -0.139635 23 
0.343347 -0.340432 -0.13866 27 
0.341231 -0.340902 -0.136928 26 
0.343264 -0.340455 -0.136714 25 
0.346304 -0.339786 -0.136858 29 
0.344287 -0.340234 -0.13517 31 
0.344184 -0.340258 -0.134177 33 
0.343471 -0.340418 -0.132967 33 
0.342698 -0.340591 -0.13174 25 
0.346471 -0.33976 -0.132116 31 
0.344703 -0.340153 -0.13054 30 
0.345712 -0.339932 -0.129936 34 
0.344873 -0.340119 -0.128692 35 
0.348805 -0.339253 -0.129089 27 
0.347645 -0.339512 -0.127733 28 
0.346861 -0.339687 -0.126511 34 
0.348255 -0.339381 -0.126026 35 
0.346976 -0.339666 -0.124641 33 
0.348121 -0.339415 -0.12407 31 
0.345792 -0.339932 -0.122344 36 
0.348922 -0.339243 -0.122425 30 
0.347394 -0.339582 -0.120971 33 
0.348605 -0.339317 -0.120413 35 
0.348446 -0.339354 -0.11941 33 
0.350477 -0.338908 -0.11911 33 
0.349191 -0.339194 -0.117745 37 
0.349409 -0.339148 -0.116863 36 
0.349252 -0.339185 -0.115863 37 
0.350222 -0.338973 -0.115216 43 
0.351196 -0.33876 -0.114568 39 
0.354523 -0.338027 -0.114643 43 
0.353855 -0.338177 -0.113479 40 
0.352937 -0.338382 -0.112243 43 
0.35133 -0.33874 -0.110802 44 
0.351994 -0.338595 -0.110052 40 
0.353483 -0.338268 -0.109547 40 
0.355686 -0.337784 -0.109248 41 
0.353365 -0.338299 -0.107607 43 
0.354927 -0.337956 -0.107113 42 
0.3542 -0.338119 -0.105948 45 
0.35577 -0.337774 -0.10545 50 
0.355551 -0.337825 -0.104434 49 
0.355654 -0.337804 -0.10351 48 
0.355247 -0.337896 -0.102443 48 
0.354905 -0.337974 -0.101396 50 
0.355583 -0.337826 -0.100636 47 
0.356201 -0.337692 -0.0998562 54 
0.357783 -0.337345 -0.0993412 47 
0.359053 -0.337067 -0.0987352 52 
0.358386 -0.337217 -0.0975992 53 
0.359918 -0.33688 -0.0970582 52 
0.359185 -0.337045 -0.0959072 54 
0.358712 -0.337151 -0.0948282 55 
0.361946 -0.33644 -0.0947272 58 
0.360425 -0.336777 -0.0933732 54 
0.360473 -0.336769 -0.0924312 58 
0.361889 -0.336458 -0.0918422 56 
0.360959 -0.336666 -0.0906492 53 
0.361726 -0.336499 -0.0898912 56 
0.363283 -0.336158 -0.0893282 58 
0.363464 -0.33612 -0.0884172 49 
0.363845 -0.336038 -0.0875552 53 
0.364754 -0.335839 -0.0868222 56 
0.365601 -0.335655 -0.0860712 50 
0.365456 -0.335689 -0.0850772 48 
0.36604 -0.335562 -0.0842602 47 
0.365431 -0.335699 -0.0831572 49 
0.365089 -0.335776 -0.0821212 52 
0.367606 -0.335223 -0.0817532 51 
0.368532 -0.335021 -0.0810092 49 
0.368791 -0.334966 -0.0801072 50 
0.366313 -0.335516 -0.0785832 55 
0.368105 -0.335122 -0.0780322 55 
0.367095 -0.335347 -0.0768492 53 
0.368626 -0.335011 -0.0762332 63 
0.368419 -0.335059 -0.0752292 63 
0.366812 -0.335416 -0.0739232 59 
0.367876 -0.335184 -0.0731992 63 
0.367539 -0.33526 -0.0721722 66 
0.36727 -0.335322 -0.0711622 71 
0.367867 -0.335192 -0.0703352 73 
0.368199 -0.335121 -0.0694512 77 
0.368935 -0.334961 -0.0686502 74 
0.368199 -0.335125 -0.0675462 70 
0.368535 -0.335054 -0.0666616 76 
0.367736 -0.335232 -0.0655494 73 
0.368807 -0.334998 -0.0648118 77 
0.368477 -0.335073 -0.0637952 72 
0.368948 -0.334971 -0.0629366 75 
0.367351 -0.335326 -0.0616785 79 
0.369092 -0.334944 -0.0610629 82 
0.367564 -0.335283 -0.0598244 85 
0.367904 -0.33521 -0.0589413 88 
0.36718 -0.335372 -0.0578608 90 
0.366991 -0.335416 -0.0568811 87 
0.367997 -0.335196 -0.0561191 82 
0.366018 -0.335635 -0.0548195 85 
0.367221 -0.335372 -0.0540911 84 
0.367366 -0.335342 -0.0531733 84 
0.368845 -0.335018 -0.0524861 89 
0.366862 -0.335458 -0.0512016 88 
0.368339 -0.335134 -0.0505103 93 
0.368888 -0.335015 -0.0496586 93 
0.368837 -0.335029 -0.0487061 93 
0.370059 -0.334761 -0.0479621 90 
0.370883 -0.334582 -0.0471497 93 
0.370901 -0.33458 -0.0462059 96 
0.370988 -0.334563 -0.0452733 93 
0.371345 -0.334487 -0.0443828 99 
0.3715 -0.334454 -0.0434605 98 
0.371859 -0.334377 -0.0425688 98 
0.371882 -0.334375 -0.0416257 105 
0.372176 -0.334312 -0.040723 103 
0.374305 -0.333845 -0.0400877 102 
0.375013 -0.333691 -0.0392397 103 
0.37497 -0.333703 -0.0382827 107 
0.376094 -0.333457 -0.0374897 106 
0.375503 -0.333589 -0.0364558 105 
0.376493 -0.333373 -0.03564 106 
0.376934 -0.333278 -0.0347472 106 
0.378484 -0.332939 -0.0339999 109 
0.378446 -0.332949 -0.0330395 107 
0.378756 -0.332883 -0.0321244 106 
0.378927 -0.332848 -0.0311909 114 
0.379865 -0.332643 -0.0303528 113 
0.380457 -0.332515 -0.0294691 106 
0.381963 -0.332185 -0.028694 110 
0.38193 -0.332195 -0.02773 112 
0.382248 -0.332127 -0.0268077 112 
0.382921 -0.331981 -0.0259253 113 
0.384658 -0.3316 -0.0251614 109 
0.385765 -0.331358 -0.024321 113 
0.38545 -0.33143 -0.0233208 115 
0.386135 -0.331281 -0.0224297 117 
0.387968 -0.330879 -0.0216579 117 
0.387869 -0.330903 -0.0206785 114 
0.389139 -0.330626 -0.0198395 119 
0.389691 -0.330506 -0.0189241 115 
0.390754 -0.330274 -0.0180569 120 
0.391385 -0.330138 -0.0171443 121 
0.391434 -0.330129 -0.0161749 120 
0.392142 -0.329975 -0.0152662 124 
0.392926 -0.329805 -0.014362 125 
0.394521 -0.329455 -0.0135271 125 
0.395906 -0.329153 -0.012668 121 
0.395296 -0.32929 -0.0116347 125 
0.395721 -0.329198 -0.0106899 123 
0.396149 -0.329106 -0.00974383 127 
0.397025 -0.328915 -0.00883183 128 
0.398203 -0.328658 -0.00793992 131 
0.399163 -0.328449 -0.00702742 132 
0.399525 -0.328371 -0.00606762 134 
0.399588 -0.32836 -0.00508521 125 
0.40116 -0.328015 -0.00420772 125 
0.400772 -0.328103 -0.00319192 123 
0.402125 -0.327807 -0.00229222 123 
0.401586 -0.327928 -0.00126682 124 
0.402946 -0.327631 -0.000361115 121 
0.403244 -0.327568 0.000613183 134 
0.402023 -0.327839 0.00167678 122 
0.40255 -0.327725 0.00263728 134 
0.403919 -0.327426 0.00355399 132 
0.403535 -0.327513 0.00456747 136 
0.404375 -0.32733 0.00551768 136 
0.405141 -0.327164 0.00647448 136 
0.404836 -0.327233 0.00748408 132 
0.406067 -0.326964 0.00842358 140 
0.405763 -0.327034 0.00943337 142 
0.40569 -0.327052 0.0104325 146 
0.405389 -0.327121 0.0114402 145 
0.404935 -0.327223 0.0124522 146 
0.405634 -0.327071 0.0134218 142 
0.405719 -0.327055 0.0144144 146 
0.406114 -0.32697 0.0153975 142 
0.405664 -0.327072 0.016407 140 
0.40606 -0.326987 0.0173913 140 
0.405612 -0.327088 0.0183987 136 
0.406319 -0.326934 0.0193769 142 
0.406181 -0.326967 0.0203762 146 
0.406351 -0.326932 0.0213687 141 
0.408459 -0.32647 0.0223268 147 
0.407779 -0.326622 0.023338 142 
0.409198 -0.326312 0.0243165 144 
0.40883 -0.326395 0.0253226 149 
0.409475 -0.326255 0.0263166 149 
0.409343 -0.326287 0.0273197 146 
0.410306 -0.326077 0.0283149 147 
0.411114 -0.325901 0.0293146 151 
0.412164 -0.325673 0.0303166 152 
0.412666 -0.325565 0.0313231 146 
0.413724 -0.325334 0.0323321 149 
0.413517 -0.325382 0.0333415 146 
0.415138 -0.325027 0.0343588 152 
0.415091 -0.32504 0.0353712 145 
0.417045 -0.324612 0.0364005 143 
0.41668 -0.324695 0.0374131 146 
0.417681 -0.324477 0.0384412 147 
0.41901 -0.324187 0.0394778 151 
0.419212 -0.324145 0.0405014 151 
0.420796 -0.323798 0.0415506 145 
0.420675 -0.323827 0.0425721 150 
0.421534 -0.323641 0.0436144 149 
0.422478 -0.323435 0.0446622 152 
0.423263 -0.323265 0.0457095 154 
0.424382 -0.323021 0.0467691 154 
0.426586 -0.322538 0.0478651 152 
0.424811 -0.322931 0.0488448 153 
0.427606 -0.322319 0.0499697 159 
0.426326 -0.322603 0.0509622 156 
0.426546 -0.322557 0.0520055 155 
0.426602 -0.322547 0.0530433 160 
0.427327 -0.32239 0.0541088 159 
0.42822 -0.322195 0.0551845 163 
0.428029 -0.32224 0.0562152 165 
0.427087 -0.32245 0.0572104 163 
0.428571 -0.322125 0.0583197 165 
0.429222 -0.321984 0.0593929 161 
0.427276 -0.322415 0.0603329 158 
0.426592 -0.322568 0.0613341 159 
0.42591 -0.322721 0.0623329 163 
0.426893 -0.322507 0.0634259 161 
0.427212 -0.322439 0.0644831 159 
0.427952 -0.322278 0.0655677 168 
0.428108 -0.322247 0.0666181 171 
0.428181 -0.322233 0.0676638 171 
0.429515 -0.321942 0.0687953 173 
0.429339 -0.321983 0.0698271 173 
0.429416 -0.321968 0.0708766 171 
0.429158 -0.322027 0.071902 170 
0.430419 -0.321753 0.0730408 185 
0.431093 -0.321607 0.0741395 183 
0.430752 -0.321684 0.0751608 185 
0.431175 -0.321593 0.0762429 181 
0.430498 -0.321745 0.0772357 180 
0.426222 -0.322688 0.0779211 175 
0.424565 -0.323055 0.0788174 172 
0.424403 -0.323093 0.0798402 176 
