0.418797,-0.109469,0.108194,144
0.418274,-0.109261,0.108881,139
0.418729,-0.109445,0.109838,140
0.418765,-0.109462,0.110681,140
0.418243,-0.109255,0.111366,146
0.418792,-0.109477,0.112355,143
0.41855,-0.109382,0.11312,137
0.418076,-0.109194,0.113818,140
0.418673,-0.109435,0.114826,142
0.419039,-0.109584,0.115769,139
0.418611,-0.109414,0.11648,132
0.418091,-0.109208,0.117162,132
0.41855,-0.109394,0.118136,140
0.418217,-0.109263,0.118874,134
0.418491,-0.109375,0.119796,129
0.418766,-0.109487,0.120719,135
0.417734,-0.109076,0.121242,135
0.418055,-0.109206,0.122181,132
0.418004,-0.109188,0.123005,132
0.418654,-0.10945,0.12405,127
0.417717,-0.109077,0.124597,130
0.418788,-0.109508,0.125779,129
0.41785,-0.109134,0.126323,130
0.417847,-0.109135,0.127166,134
0.417752,-0.109099,0.127979,129
0.41761,-0.109044,0.128777,132
0.417003,-0.108803,0.129422,133
0.417513,-0.10901,0.130435,133
0.417373,-0.108955,0.131234,136
0.417419,-0.108976,0.132096,134
0.417465,-0.108997,0.132959,133
0.417418,-0.10898,0.133791,137
0.417093,-0.108851,0.134528,133
0.417,-0.108817,0.135345,137
0.416955,-0.1088,0.136178,134
0.41677,-0.108728,0.136964,133
0.41612,-0.10847,0.137586,137
0.416494,-0.108622,0.138567,136
0.417009,-0.10883,0.139601,145
0.415339,-0.108164,0.139857,142
0.415619,-0.108278,0.140808,138
0.416692,-0.10871,0.142046,140
0.415209,-0.108118,0.142362,136
0.415074,-0.108066,0.143164,140
0.414615,-0.107884,0.143848,133
0.414573,-0.107869,0.144684,130
0.414209,-0.107725,0.145401,128
0.414814,-0.10797,0.14648,129
0.413481,-0.107438,0.146833,133
0.414408,-0.107812,0.148036,133
0.412803,-0.107171,0.148281,132
0.412488,-0.107046,0.149013,131
0.412219,-0.106941,0.149762,131
0.411905,-0.106817,0.150493,130
0.41214,-0.106913,0.151437,131
0.410824,-0.106388,0.151776,126
0.410649,-0.10632,0.152559,129
0.411429,-0.106635,0.15372,122
0.410435,-0.106239,0.15418,120
0.410352,-0.106207,0.155,116
0.410359,-0.106212,0.155857,121
0.409551,-0.105891,0.156385,124
0.40974,-0.105968,0.157315,123
0.409431,-0.105847,0.158044,120
0.409575,-0.105906,0.158959,117
0.409629,-0.10593,0.159837,119
0.409683,-0.105954,0.160717,115
0.40942,-0.105851,0.161465,118
0.40952,-0.105893,0.162365,116
0.40944,-0.105863,0.163191,110
0.409087,-0.105724,0.163901,111
0.409823,-0.10602,0.165075,110
0.40947,-0.105881,0.165786,103
0.409527,-0.105906,0.166673,101
0.409674,-0.105967,0.1676,104
0.409549,-0.105919,0.16841,100
0.409834,-0.106035,0.1694,100
0.409391,-0.10586,0.170072,104
0.410543,-0.106324,0.171447,107
0.410328,-0.10624,0.172221,104
0.410982,-0.106504,0.173383,105
0.409807,-0.106035,0.173728,99
0.410323,-0.106244,0.174832,105
0.410291,-0.106233,0.17569,101
0.410718,-0.106406,0.176758,99
0.410458,-0.106304,0.177514,93
0.410198,-0.106202,0.17827,100
0.411223,-0.106615,0.179619,96
0.410687,-0.106403,0.18025,96
0.411439,-0.106706,0.181479,102
0.411225,-0.106623,0.18226,99
0.411104,-0.106576,0.183085,97
0.411675,-0.106807,0.184237,95
0.411415,-0.106705,0.184998,90
0.410972,-0.10653,0.185671,88
0.411405,-0.106705,0.186764,158
0.412025,-0.106956,0.187949,89
0.411905,-0.10691,0.18878,95
0.411785,-0.106864,0.189611,95
0.414781,-0.110711,-0.20301,14
0.411145,-0.109231,-0.200248,15
0.413813,-0.110321,-0.200713,15
0.409738,-0.108662,-0.197749,13
0.411318,-0.109308,-0.197658,15
0.414033,-0.110417,-0.198131,11
0.415836,-0.111154,-0.198136,12
0.412097,-0.109632,-0.195376,14
0.412481,-0.109791,-0.194676,11
0.414128,-0.110464,-0.194598,16
0.412321,-0.10973,-0.192818,12
0.4142,-0.110498,-0.192849,15
0.413651,-0.110277,-0.191691,17
0.415684,-0.111107,-0.191786,15
0.414099,-0.110464,-0.190129,11
0.414441,-0.110605,-0.189405,15
0.414455,-0.110613,-0.188523,19
0.41873,-0.112358,-0.189668,15
0.414953,-0.11082,-0.186985,10
0.415814,-0.111173,-0.186503,18
0.416206,-0.111335,-0.185799,15
0.414203,-0.110521,-0.183977,14
0.414078,-0.110472,-0.183037,14
0.417245,-0.111765,-0.183618,17
0.411839,-0.109564,-0.180246,16
0.417371,-0.111821,-0.181901,21
0.413029,-0.110053,-0.179038,17
0.416553,-0.111492,-0.179758,16
0.417278,-0.11179,-0.179202,20
0.414944,-0.11084,-0.177272,17
0.41717,-0.11175,-0.177388,12
0.41512,-0.110916,-0.175595,22
0.416169,-0.111346,-0.175183,15
0.418124,-0.112145,-0.175164,17
0.416535,-0.1115,-0.173588,20
0.415803,-0.111203,-0.172392,18
0.416997,-0.111692,-0.172034,15
0.415281,-0.110995,-0.170418,14
0.414601,-0.11072,-0.169255,23
0.416539,-0.111512,-0.169211,20
0.414782,-0.110798,-0.167593,20
0.415409,-0.111055,-0.166989,22
0.416553,-0.111524,-0.1666,21
0.415638,-0.111153,-0.165347,25
0.416221,-0.111393,-0.164721,24
0.414936,-0.110871,-0.163322,24
0.41343,-0.110259,-0.161837,24
0.416053,-0.111331,-0.162049,21
0.414447,-0.110678,-0.16053,17
0.4135,-0.110294,-0.159285,22
0.412421,-0.109856,-0.157992,18
0.413272,-0.110205,-0.157476,19
0.409694,-0.108748,-0.155196,21
0.409314,-0.108595,-0.154197,24
0.411469,-0.109476,-0.154198,20
0.410404,-0.109044,-0.152931,23
0.407242,-0.107756,-0.150852,22
0.409283,-0.108591,-0.150802,25
0.407965,-0.108055,-0.149451,26
0.408395,-0.108232,-0.148775,26
0.406286,-0.107374,-0.147132,24
0.406181,-0.107334,-0.146257,23
0.407185,-0.107745,-0.1458,25
0.405005,-0.106858,-0.144149,25
0.404157,-0.106514,-0.143003,26
0.404318,-0.106582,-0.142235,33
0.403388,-0.106205,-0.141065,38
0.40229,-0.105759,-0.139839,35
0.401501,-0.105439,-0.138731,33
0.403262,-0.106159,-0.138547,28
0.403772,-0.106369,-0.137908,32
0.402069,-0.105677,-0.136477,41
0.403922,-0.106434,-0.136315,36
0.402738,-0.105953,-0.135076,40
0.402857,-0.106004,-0.134299,42
0.402587,-0.105896,-0.133386,42
0.403096,-0.106105,-0.132745,39
0.402697,-0.105944,-0.13179,44
0.403727,-0.106367,-0.131326,39
0.403327,-0.106205,-0.130373,43
0.403491,-0.106274,-0.129612,42
0.403829,-0.106414,-0.12891,46
0.404124,-0.106537,-0.128192,43
0.405775,-0.107212,-0.127923,48
0.403977,-0.106481,-0.126512,47
0.404143,-0.10655,-0.125752,52
0.404701,-0.10678,-0.12512,51
0.404215,-0.106584,-0.124148,48
0.403817,-0.106424,-0.123208,51
0.405246,-0.107009,-0.122851,51
0.406642,-0.10758,-0.122479,48
0.405452,-0.107096,-0.121288,57
0.40514,-0.106971,-0.120378,54
0.405571,-0.107149,-0.1197,57
0.406925,-0.107703,-0.119305,58
0.405648,-0.107184,-0.1181,57
0.406387,-0.107488,-0.117513,57
0.405945,-0.107309,-0.116567,59
0.407037,-0.107757,-0.116084,58
0.406857,-0.107686,-0.115218,57
0.406722,-0.107632,-0.114367,58
0.406982,-0.107741,-0.113633,58
0.406628,-0.107598,-0.112719,65
0.406845,-0.107688,-0.111973,64
0.407634,-0.108012,-0.11139,64
0.408028,-0.108176,-0.110693,61
0.408424,-0.108339,-0.109994,62
0.409353,-0.10872,-0.109444,63
0.408908,-0.10854,-0.108509,63
0.408686,-0.108452,-0.107637,67
0.410017,-0.108997,-0.107193,70
0.409483,-0.108781,-0.106235,71
0.41015,-0.109055,-0.105606,71
0.410641,-0.109257,-0.104927,79
0.411133,-0.10946,-0.104246,76
0.411268,-0.109518,-0.10347,79
0.412122,-0.109868,-0.102882,81
0.411719,-0.109705,-0.101965,82
0.41262,-0.110075,-0.101386,76
0.412803,-0.110152,-0.10062,79
0.413664,-0.110505,-0.100026,80
0.412988,-0.110231,-0.0990418,80
0.414077,-0.110678,-0.0985017,82
0.414489,-0.110848,-0.09779,83
0.415176,-0.11113,-0.0971446,77
0.416369,-0.111619,-0.0966201,81
0.416098,-0.111511,-0.0957378,89
0.417251,-0.111983,-0.095198,98
0.41744,-0.112063,-0.0944251,91
0.418369,-0.112444,-0.0938261,90
0.419396,-0.112865,-0.0932465,88
0.419588,-0.112945,-0.0924703,91
0.419921,-0.113083,-0.0917259,86
0.421425,-0.113699,-0.0912468,84
0.421573,-0.113762,-0.0904567,86
0.421439,-0.113709,-0.0896037,94
0.422294,-0.11406,-0.0889701,93
0.422586,-0.114181,-0.0882101,93
0.423114,-0.114399,-0.0875008,99
0.423455,-0.11454,-0.0867495,97
0.424081,-0.114798,-0.0860581,101
0.424662,-0.115037,-0.0853549,100
0.425629,-0.115434,-0.0847302,101
0.424874,-0.115127,-0.0837465,101
0.425602,-0.115427,-0.0830696,106
0.425949,-0.11557,-0.082313,105
0.426393,-0.115754,-0.0815748,109
0.426213,-0.115682,-0.0807116,108
0.427043,-0.116023,-0.0800478,109
0.426623,-0.115854,-0.0791381,110
0.426781,-0.11592,-0.0783418,105
0.427036,-0.116026,-0.0775636,110
0.426714,-0.115897,-0.0766761,108
0.427114,-0.116062,-0.0759249,114
0.427322,-0.116149,-0.0751372,110
0.427242,-0.116119,-0.0742964,113
0.427838,-0.116364,-0.0735781,111
0.427035,-0.116038,-0.0726088,114
0.426619,-0.11587,-0.0717114,115
0.426542,-0.115841,-0.0708747,115
0.426704,-0.115909,-0.0700801,111
0.426291,-0.115742,-0.0691875,109
0.425737,-0.115518,-0.0682731,112
0.425089,-0.115255,-0.0673459,114
0.424919,-0.115188,-0.0665,114
0.423991,-0.114811,-0.0655324,113
0.423115,-0.114455,-0.0645774,119
0.42342,-0.114582,-0.0638124,121
0.422501,-0.114208,-0.0628561,115
0.422712,-0.114297,-0.0620774,122
0.422642,-0.11427,-0.0612555,114
0.42229,-0.114128,-0.0603922,116
0.420726,-0.113491,-0.0593518,112
0.421031,-0.113618,-0.0585899,118
0.420545,-0.113421,-0.0577136,115
0.419875,-0.11315,-0.0568137,116
0.419855,-0.113143,-0.0560074,114
0.419651,-0.113062,-0.0551761,119
0.419632,-0.113056,-0.0543711,118
0.41966,-0.11307,-0.0535727,115
0.419504,-0.113008,-0.0527502,114
0.419625,-0.113059,-0.0519646,118
0.419747,-0.113111,-0.0511789,118
0.419777,-0.113125,-0.0503814,124
0.420086,-0.113253,-0.0496183,123
0.420441,-0.1134,-0.04886,128
0.420658,-0.113491,-0.0480841,132
0.420041,-0.113241,-0.0472097,130
0.420074,-0.113256,-0.046413,130
0.420338,-0.113366,-0.0456426,135
0.420325,-0.113363,-0.0448406,129
0.420499,-0.113436,-0.0440591,133
0.42044,-0.113414,-0.0432525,134
0.420475,-0.11343,-0.042456,134
0.420604,-0.113484,-0.0416693,134
0.420454,-0.113425,-0.0408543,131
0.420537,-0.113461,-0.040063,137
0.42076,-0.113554,-0.0392853,137
0.421355,-0.113799,-0.0385423,136
0.421673,-0.113931,-0.0377712,136
0.421992,-0.114063,-0.0369992,137
0.421891,-0.114024,-0.0361888,138
0.421931,-0.114042,-0.0353911,146
0.421411,-0.113832,-0.034546,141
0.421219,-0.113755,-0.0337303,142
0.42224,-0.114174,-0.0330138,145
0.421721,-0.113965,-0.0321718,141
0.421904,-0.114041,-0.031386,142
0.422087,-0.114118,-0.0305997,143
0.42227,-0.114195,-0.0298129,144
0.422267,-0.114195,-0.0290123,141
0.422452,-0.114273,-0.0282247,135
0.42245,-0.114274,-0.0274241,142
0.422309,-0.114218,-0.0266146,141
0.422588,-0.114334,-0.0258323,146
0.422541,-0.114317,-0.0250291,139
0.423104,-0.114549,-0.0242622,145
0.423246,-0.114609,-0.0234691,146
0.422778,-0.11442,-0.0226421,148
0.424096,-0.11496,-0.0219118,149
0.423815,-0.114847,-0.0210947,146
0.424148,-0.114985,-0.020309,146
0.424057,-0.11495,-0.0195021,147
0.423261,-0.114627,-0.0186639,147
0.423877,-0.114881,-0.0178897,147
0.424165,-0.115,-0.0170998,152
0.424406,-0.115101,-0.0163069,155
0.424176,-0.115009,-0.0154957,154
0.424466,-0.115129,-0.0147037,154
0.424804,-0.115269,-0.0139122,160
0.424954,-0.115332,-0.0131136,153
0.424773,-0.11526,-0.0123049,161
0.427065,-0.116199,-0.0115637,161
0.424933,-0.11533,-0.0107028,160
0.426082,-0.115801,-0.00992596,158
0.424858,-0.115303,-0.00909468,156
0.42539,-0.115523,-0.00830176,157
0.426353,-0.115918,-0.00751409,152
0.424845,-0.115304,-0.00668544,153
0.426711,-0.116068,-0.00590686,161
0.425392,-0.115531,-0.00508565,159
0.424554,-0.11519,-0.00427407,156
0.424143,-0.115025,-0.00346889,158
0.424205,-0.115052,-0.00266773,161
0.424267,-0.115079,-0.00186634,157
0.424425,-0.115145,-0.0010648,155
0.423781,-0.114884,-0.000263373,159
0.424175,-0.115047,0.000538534,160
0.423486,-0.114768,0.00133669,153
0.423504,-0.114777,0.00213701,155
0.423616,-0.114825,0.00293827,154
0.42265,-0.114432,0.00372823,155
0.423279,-0.114691,0.00453496,156
0.423722,-0.114874,0.00534148,155
0.423132,-0.114634,0.00613233,158
0.42334,-0.114722,0.00693598,158
0.423174,-0.114656,0.00773267,158
0.422915,-0.114552,0.00852663,158
0.423172,-0.114659,0.00933246,156
0.423101,-0.114632,0.0101306,164
0.423359,-0.114739,0.010938,160
0.421607,-0.114025,0.0116844,158
0.422518,-0.114399,0.0125114,160
0.421563,-0.114011,0.0132771,166
0.421263,-0.11389,0.0140633,165
0.421057,-0.113807,0.0148519,167
0.420851,-0.113725,0.0156399,164
0.420507,-0.113587,0.0164212,166
0.420581,-0.113619,0.01722,166
0.420285,-0.1135,0.0180019,161
0.420684,-0.113665,0.0188166,167
0.420481,-0.113584,0.0196025,166
0.420418,-0.11356,0.0203951,166
0.420448,-0.113574,0.0211926,162
0.420247,-0.113494,0.0219773,164
0.420186,-0.113471,0.0227695,163
0.420079,-0.113429,0.0235588,169
0.419972,-0.113387,0.0243479,164
0.420004,-0.113402,0.0251458,168
0.418243,-0.112684,0.0258238,163
0.419103,-0.113037,0.0266757,161
0.418998,-0.112997,0.0274628,162
0.418206,-0.112675,0.0281994,161
0.418838,-0.112935,0.0290398,165
0.419841,-0.113347,0.0299114,163
0.418266,-0.112705,0.0305837,165
0.418715,-0.112891,0.0314138,161
0.417927,-0.11257,0.0321432,162
0.419065,-0.113038,0.0330333,160
0.419426,-0.113187,0.0338606,165
0.418958,-0.112998,0.0346157,162
0.419089,-0.113053,0.0354237,166
0.419405,-0.113184,0.0362497,164
0.419583,-0.113259,0.0370641,165
0.418932,-0.112995,0.0377989,161
0.418835,-0.112957,0.0385862,165
0.418831,-0.112957,0.0393827,158
0.419888,-0.113391,0.0402889,163
0.419745,-0.113335,0.0410735,162
0.419557,-0.11326,0.0418529,161
0.41937,-0.113186,0.0426319,156
0.420015,-0.113452,0.0435028,161
0.419505,-0.113245,0.0442459,155
0.419597,-0.113284,0.0450565,158
0.419642,-0.113305,0.0458624,156
0.41992,-0.11342,0.0466964,160
0.419412,-0.113214,0.0474366,157
0.420246,-0.113558,0.0483404,157
0.419645,-0.113314,0.0490681,157
0.419416,-0.113222,0.049841,154
0.419742,-0.113357,0.050685,155
0.419606,-0.113304,0.05147,158
0.418963,-0.113043,0.0521872,156
0.419383,-0.113216,0.0530458,156
0.419341,-0.113201,0.0538431,157
0.419392,-0.113224,0.0546535,153
0.419907,-0.113436,0.05553,160
0.420005,-0.113479,0.0563493,155
0.420012,-0.113483,0.0571559,155
0.419833,-0.113412,0.0579355,157
0.419841,-0.113417,0.0587425,153
0.418647,-0.112931,0.0593679,160
0.418194,-0.112748,0.0601026,157
0.418295,-0.112791,0.0609219,155
0.418488,-0.112872,0.0617567,150
0.418913,-0.113048,0.0626295,155
0.418646,-0.112941,0.0633926,152
0.419489,-0.113287,0.0643366,153
0.417656,-0.112539,0.0648408,156
0.417437,-0.112452,0.0656089,157
0.417495,-0.112477,0.0664235,155
0.416912,-0.11224,0.0671284,155
0.417016,-0.112285,0.067951,154
0.417075,-0.112311,0.0687664,155
0.417043,-0.1123,0.0695662,153
0.416782,-0.112195,0.0703252,153
0.416934,-0.112259,0.0711586,153
0.415352,-0.111614,0.0716739,152
0.416324,-0.112014,0.0726584,151
0.416431,-0.112059,0.0734847,153
0.416036,-0.1119,0.0742163,151
0.416739,-0.112189,0.0751577,151
0.415023,-0.111489,0.0756325,154
0.414949,-0.111461,0.0764232,150
0.415194,-0.111563,0.0772772,152
0.415076,-0.111517,0.0780599,153
0.415095,-0.111526,0.0788703,151
0.415068,-0.111518,0.079672,157
0.415133,-0.111546,0.0804929,151
0.414835,-0.111426,0.0812387,151
0.41481,-0.111418,0.0820414,148
0.415149,-0.111559,0.0829219,155
0.415626,-0.111756,0.0838339,153
0.415147,-0.111561,0.0845408,147
0.414942,-0.111479,0.0853063,147
0.415283,-0.111621,0.0861923,148
0.415078,-0.111539,0.0869584,153
0.415239,-0.111607,0.0878062,146
0.416085,-0.111955,0.0888112,144
0.415607,-0.111762,0.0895164,147
0.41513,-0.111568,0.0902204,146
0.415429,-0.111693,0.0911041,144
0.415409,-0.111687,0.0919145,145
0.417872,-0.112697,0.0933151,150
0.415462,-0.111712,0.0935587,147
0.416084,-0.111969,0.0945258,142
0.415608,-0.111776,0.0952282,143
0.415225,-0.111621,0.095952,145
0.416077,-0.111972,0.0969812,145
0.415556,-0.111761,0.097671,146
0.415769,-0.11185,0.0985441,143
0.416396,-0.112109,0.099524,148
0.417441,-0.112538,0.100614,146
0.416872,-0.112307,0.101292,146
0.417458,-0.112549,0.10227,146
0.417629,-0.112621,0.103141,142
0.417523,-0.11258,0.10394,142
0.41802,-0.112785,0.1049,143
0.41796,-0.112763,0.105713,142
0.417392,-0.112532,0.106389,140
0.417472,-0.112567,0.10724,144
0.417461,-0.112565,0.108066,142
0.417496,-0.112581,0.108907,139
0.418182,-0.112864,0.109929,145
0.418218,-0.112881,0.110773,143
0.417883,-0.112746,0.111511,143
0.418106,-0.112839,0.112409,143
0.417446,-0.112571,0.113053,141
0.418181,-0.112874,0.114101,140
0.417475,-0.112587,0.114731,139
0.417467,-0.112586,0.115564,138
0.417599,-0.112642,0.116438,137
0.417592,-0.112641,0.117273,131
0.41726,-0.112507,0.118011,131
0.416928,-0.112373,0.118748,139
0.41748,-0.112601,0.119753,129
0.416685,-0.112277,0.120348,130
0.416633,-0.112258,0.12117,134
0.416721,-0.112296,0.122036,131
0.417506,-0.11262,0.123122,133
0.417688,-0.112697,0.124021,127
0.416661,-0.112278,0.124538,131
0.416333,-0.112146,0.125274,131
0.416237,-0.112108,0.126085,132
0.416327,-0.112147,0.126955,131
0.417301,-0.112548,0.128115,132
0.416369,-0.112169,0.128655,134
0.416367,-0.11217,0.129498,132
0.416737,-0.112324,0.130466,132
0.415901,-0.111983,0.131033,136
0.415993,-0.112023,0.131909,135
0.416085,-0.112063,0.132786,141
0.416271,-0.112141,0.133696,135
0.4159,-0.111991,0.134417,136
0.415484,-0.111822,0.135121,137
0.415392,-0.111787,0.135937,133
0.415393,-0.111789,0.136786,134
0.416044,-0.112058,0.137863,136
0.414518,-0.111435,0.138175,137
0.414382,-0.111381,0.138975,143
0.414569,-0.11146,0.13989,142
0.413972,-0.111218,0.140526,146
0.413607,-0.11107,0.141243,139
0.413886,-0.111187,0.142194,143
0.41343,-0.111002,0.142877,139
0.41325,-0.11093,0.143661,140
0.412795,-0.110746,0.144344,137
0.412296,-0.110543,0.145008,140
0.412163,-0.110491,0.145808,140
0.411985,-0.11042,0.146592,137
0.41167,-0.110293,0.147323,139
0.411857,-0.110372,0.148246,140
0.411498,-0.110227,0.14896,139
0.410548,-0.10984,0.149446,133
0.410735,-0.109918,0.15037,128
0.410196,-0.1097,0.151011,129
0.409162,-0.109278,0.151457,132
0.408673,-0.10908,0.152114,119
0.409717,-0.10951,0.153378,117
0.408685,-0.109089,0.15382,118
0.408557,-0.109038,0.15462,119
0.408204,-0.108896,0.155329,122
0.408571,-0.109048,0.15633,121
0.408309,-0.108943,0.157077,124
0.407643,-0.108672,0.157657,124
0.408415,-0.108991,0.158829,124
0.407838,-0.108756,0.159445,121
0.408027,-0.108836,0.160379,121
0.408712,-0.109119,0.161522,124
0.408812,-0.109162,0.162423,127
0.408099,-0.108872,0.162981,121
0.408967,-0.10923,0.164209,116
0.408797,-0.109162,0.164997,109
0.408174,-0.108909,0.165592,107
0.408366,-0.108989,0.166536,105
0.408286,-0.108959,0.167364,106
0.408162,-0.10891,0.168173,106
0.408762,-0.109158,0.1693,113
0.409137,-0.109314,0.170332,105
0.408696,-0.109135,0.171004,108
0.409026,-0.109273,0.172018,105
0.408766,-0.109168,0.172771,98
0.40928,-0.109381,0.173872,98
0.409066,-0.109295,0.174646,106
0.409901,-0.10964,0.175897,101
0.40955,-0.109498,0.176612,99
0.409656,-0.109543,0.177535,101
0.409671,-0.109552,0.178417,98
0.409138,-0.109336,0.179047,97
0.408971,-0.109269,0.179846,97
0.409032,-0.109296,0.180751,96
0.410054,-0.109717,0.182109,100
0.409841,-0.109632,0.18289,95
0.410134,-0.109754,0.18391,88
0.410381,-0.109858,0.18491,92
0.410582,-0.109943,0.185891,97
0.410002,-0.109707,0.186498,160
0.410711,-0.11,0.187726,88
0.410361,-0.109858,0.188443,93
0.410564,-0.109944,0.189431,99
0.431142,-0.121151,-0.2119,7
0.410136,-0.112399,-0.200177,11
0.408586,-0.111755,-0.198492,12
0.413929,-0.113984,-0.200321,15
0.412815,-0.113522,-0.198857,15
0.41069,-0.112639,-0.19689,15
0.413025,-0.113614,-0.19717,15
0.410484,-0.112557,-0.195007,14
0.412349,-0.113337,-0.195045,13
0.411804,-0.113112,-0.193884,12
0.414761,-0.114346,-0.194451,13
0.412294,-0.11332,-0.192346,13
0.414456,-0.114224,-0.192513,15
0.414469,-0.114231,-0.191626,11
0.412381,-0.113363,-0.189724,18
0.419198,-0.116207,-0.192119,18
0.412456,-0.113399,-0.187988,14
0.416409,-0.115049,-0.188988,21
0.413183,-0.113706,-0.186564,12
0.419345,-0.116277,-0.18859,17
0.417924,-0.115686,-0.187024,17
0.413788,-0.113965,-0.184195,19
0.417619,-0.115564,-0.185095,18
0.415835,-0.114822,-0.183377,17
0.415521,-0.114694,-0.182346,18
0.414319,-0.114195,-0.180909,17
0.415742,-0.11479,-0.180677,14
0.416654,-0.115172,-0.180208,16
0.416387,-0.115063,-0.179202,18
0.416593,-0.115151,-0.178411,16
0.417651,-0.115595,-0.178002,12
0.415451,-0.11468,-0.176137,14
0.420215,-0.116668,-0.17737,15
0.415394,-0.11466,-0.174354,19
0.41687,-0.115278,-0.174125,13
0.415619,-0.114758,-0.172698,16
0.414843,-0.114437,-0.171485,21
0.414909,-0.114466,-0.17064,18
0.417749,-0.115653,-0.170988,21
0.417674,-0.115624,-0.170077,20
0.415249,-0.114615,-0.168168,18
0.414664,-0.114373,-0.167048,20
0.412739,-0.113573,-0.165368,18
0.412347,-0.113411,-0.164339,25
0.415473,-0.114717,-0.164779,19
0.413497,-0.113895,-0.163091,19
0.417064,-0.115384,-0.163698,20
0.410926,-0.112827,-0.16031,20
0.414538,-0.114335,-0.160927,21
0.41345,-0.113884,-0.159621,24
0.411682,-0.113149,-0.158047,17
0.413821,-0.114042,-0.158049,19
0.410546,-0.112679,-0.155882,20
0.409801,-0.11237,-0.154734,17
0.407757,-0.11152,-0.153077,20
0.410259,-0.112566,-0.153215,23
0.408033,-0.111639,-0.151496,23
0.409227,-0.112139,-0.151116,20
0.407728,-0.111516,-0.149692,19
0.407532,-0.111437,-0.148775,24
0.404813,-0.110305,-0.146896,21
0.405546,-0.110612,-0.146341,25
0.404036,-0.109985,-0.144936,25
0.403061,-0.10958,-0.143739,25
0.40296,-0.10954,-0.142873,26
0.402903,-0.109518,-0.142025,32
0.401115,-0.108775,-0.14054,32
0.403572,-0.109801,-0.140618,33
0.402776,-0.109471,-0.139502,34
0.403154,-0.109631,-0.138815,33
0.402707,-0.109447,-0.137829,35
0.402999,-0.10957,-0.137111,36
0.402727,-0.109459,-0.136192,38
0.401721,-0.109041,-0.135015,39
0.402704,-0.109453,-0.134542,44
0.401829,-0.10909,-0.133417,38
0.401303,-0.108873,-0.132416,38
0.403453,-0.109772,-0.132343,42
0.402619,-0.109426,-0.131237,41
0.403476,-0.109785,-0.130712,38
0.402946,-0.109566,-0.129715,41
0.403111,-0.109637,-0.128953,45
0.403275,-0.109708,-0.128192,45
0.40444,-0.110196,-0.127763,47
0.403475,-0.109795,-0.126627,46
0.403034,-0.109613,-0.125667,47
0.403546,-0.109829,-0.125021,47
0.405062,-0.110463,-0.124697,51
0.404226,-0.110116,-0.123612,47
0.405485,-0.110643,-0.1232,46
0.404605,-0.110278,-0.122104,49
0.403903,-0.109987,-0.121069,52
0.404984,-0.110441,-0.120596,57
0.405459,-0.110641,-0.119931,60
0.405585,-0.110695,-0.119156,57
0.406061,-0.110896,-0.118488,53
0.405356,-0.110604,-0.11746,57
0.405832,-0.110804,-0.116792,63
0.406091,-0.110914,-0.116058,59
0.405911,-0.110841,-0.115192,66
0.407225,-0.111391,-0.11477,60
0.406255,-0.110988,-0.113671,62
0.406559,-0.111117,-0.112949,64
0.407083,-0.111338,-0.112291,65
0.407301,-0.111431,-0.111542,65
0.408491,-0.111929,-0.111071,67
0.407869,-0.111672,-0.110082,65
0.408487,-0.111932,-0.109444,66
0.40769,-0.111601,-0.10841,66
0.408927,-0.11212,-0.107943,70
0.40937,-0.112306,-0.107254,71
0.410171,-0.112643,-0.106661,72
0.409859,-0.112514,-0.105763,67
0.411065,-0.11302,-0.105275,73
0.410842,-0.112928,-0.104401,72
0.411739,-0.113305,-0.103826,75
0.411965,-0.113401,-0.103071,75
0.411786,-0.113329,-0.10221,74
0.412508,-0.113632,-0.101584,79
0.412781,-0.113748,-0.100839,76
0.413416,-0.114015,-0.100187,74
0.41419,-0.11434,-0.0995671,80
0.414693,-0.114552,-0.0988769,81
0.415335,-0.114822,-0.0982196,80
0.415201,-0.114768,-0.097369,83
0.416902,-0.11548,-0.0969676,81
0.41663,-0.115368,-0.0960819,83
0.417556,-0.115757,-0.0954855,82
0.417514,-0.115741,-0.0946554,84
0.418956,-0.116345,-0.0941761,83
0.418497,-0.116155,-0.0932465,85
0.419153,-0.116431,-0.0925781,92
0.420138,-0.116845,-0.0919831,91
0.4208,-0.117123,-0.0913108,96
0.421042,-0.117226,-0.0905414,90
0.421143,-0.11727,-0.08974,90
0.422186,-0.117708,-0.0891476,96
0.422289,-0.117752,-0.0883447,96
0.422675,-0.117916,-0.0876036,100
0.424251,-0.118576,-0.0871177,98
0.42426,-0.118581,-0.0862914,94
0.424556,-0.118707,-0.0855261,99
0.424232,-0.118574,-0.0846304,100
0.425197,-0.118979,-0.0840036,105
0.425256,-0.119005,-0.0831873,106
0.426468,-0.119513,-0.0826054,106
0.427106,-0.119782,-0.0819037,107
0.426636,-0.119587,-0.0809792,104
0.426552,-0.119554,-0.0801331,102
0.426806,-0.119662,-0.0793537,106
0.42653,-0.119549,-0.0784715,108
0.426592,-0.119577,-0.0776553,100
0.426511,-0.119545,-0.0768121,104
0.425709,-0.119213,-0.0758353,104
0.426589,-0.119582,-0.0751727,109
0.426077,-0.11937,-0.0742526,112
0.426141,-0.119399,-0.0734391,103
0.426014,-0.119348,-0.0725917,106
0.425984,-0.119337,-0.0717621,108
0.425284,-0.119047,-0.0708163,105
0.425016,-0.118937,-0.0699483,103
0.425178,-0.119007,-0.0691549,109
0.424531,-0.118739,-0.068225,112
0.424836,-0.118868,-0.0674566,110
0.424001,-0.118522,-0.0665,110
0.423312,-0.118236,-0.0655707,112
0.422815,-0.11803,-0.0646754,113
0.421709,-0.11757,-0.0636862,115
0.421638,-0.117543,-0.0628634,112
0.420726,-0.117164,-0.0619117,113
0.42103,-0.117293,-0.0611488,120
0.420262,-0.116974,-0.0602243,117
0.419961,-0.11685,-0.0593724,113
0.419153,-0.116515,-0.0584479,113
0.418993,-0.11645,-0.0576205,112
0.419204,-0.11654,-0.0568465,114
0.418861,-0.116399,-0.0559945,117
0.41875,-0.116354,-0.0551761,117
0.418363,-0.116195,-0.0543211,117
0.418207,-0.116131,-0.0534988,116
0.418741,-0.116357,-0.0527684,114
0.418632,-0.116313,-0.0519527,116
0.419215,-0.116558,-0.051226,116
0.418461,-0.116246,-0.0503293,117
0.418354,-0.116203,-0.0495158,117
0.418753,-0.116371,-0.0487646,122
0.418416,-0.116233,-0.0479241,124
0.41877,-0.116382,-0.0471664,125
0.418756,-0.116379,-0.046365,126
0.418651,-0.116337,-0.0455536,126
0.418822,-0.11641,-0.0447737,130
0.419133,-0.116542,-0.0440086,135
0.419444,-0.116674,-0.0432425,128
0.419156,-0.116555,-0.0424122,131
0.419007,-0.116495,-0.0415977,133
0.419689,-0.116782,-0.0408683,130
0.419911,-0.116876,-0.0400906,130
0.420318,-0.117049,-0.0393304,129
0.419522,-0.116718,-0.0384539,134
0.420487,-0.117123,-0.0377452,135
0.420386,-0.117083,-0.0369355,131
0.420425,-0.117101,-0.0361389,134
0.420604,-0.117178,-0.0353546,137
0.420737,-0.117235,-0.0345658,134
0.420081,-0.116963,-0.033711,136
0.420958,-0.117332,-0.0329836,140
0.421279,-0.117468,-0.0322087,142
0.421321,-0.117487,-0.0314112,139
0.42127,-0.117468,-0.0306067,138
0.42136,-0.117507,-0.0298129,142
0.421451,-0.117547,-0.0290189,139
0.421448,-0.117548,-0.0282183,142
0.42154,-0.117588,-0.0274241,140
0.421212,-0.117454,-0.0266024,141
0.422004,-0.117786,-0.025853,144
0.421771,-0.117691,-0.0250377,140
0.421958,-0.117771,-0.0242483,143
0.421725,-0.117676,-0.0234344,143
0.421866,-0.117737,-0.0226421,145
0.422148,-0.117856,-0.0218569,148
0.423417,-0.118388,-0.0211212,146
0.423091,-0.118254,-0.0203021,144
0.423423,-0.118395,-0.0195154,148
0.423145,-0.118281,-0.0186999,149
0.423903,-0.118599,-0.0179304,144
0.423531,-0.118446,-0.0171114,148
0.423442,-0.118411,-0.0163051,147
0.423448,-0.118415,-0.0155027,149
0.423549,-0.118459,-0.0147037,151
0.423886,-0.118602,-0.0139122,150
0.42394,-0.118627,-0.0131107,155
0.423713,-0.118534,-0.0123007,152
0.423957,-0.118638,-0.0115046,153
0.42425,-0.118762,-0.0107087,155
0.424354,-0.118808,-0.00990735,156
0.424885,-0.119031,-0.00911464,155
0.425798,-0.119415,-0.00832714,155
0.426095,-0.119541,-0.00752548,161
0.425727,-0.119389,-0.00671261,159
0.426025,-0.119516,-0.00590998,164
0.425752,-0.119404,-0.00509985,155
0.425766,-0.119411,-0.00429342,157
0.424594,-0.118924,-0.00347856,156
0.424845,-0.119031,-0.00267564,153
0.425668,-0.119376,-0.00187346,153
0.425161,-0.119166,-0.00106656,159
0.425747,-0.119414,-0.00026067,158
0.425574,-0.119343,0.000545348,161
0.425164,-0.119174,0.00134952,160
0.4258,-0.119441,0.00215933,159
0.424348,-0.118837,0.00295302,160
0.42541,-0.119282,0.00376847,157
0.424813,-0.119035,0.0045667,153
0.425307,-0.119243,0.00537891,155
0.425233,-0.119214,0.0061835,156
0.425302,-0.119245,0.00699055,161
0.423904,-0.118663,0.00776715,158
0.425204,-0.119208,0.00860022,161
0.424847,-0.119061,0.00939717,159
0.423831,-0.118638,0.0101749,156
0.423431,-0.118473,0.0109666,157
0.423549,-0.118524,0.0117728,159
0.423621,-0.118556,0.012578,161
0.4228,-0.118215,0.0133523,157
0.423155,-0.118365,0.0141669,159
0.423463,-0.118496,0.0149813,157
0.424056,-0.118746,0.0158086,158
0.422438,-0.118071,0.0165433,168
0.422419,-0.118065,0.0173436,158
0.422073,-0.117923,0.0181286,160
0.422149,-0.117956,0.0189329,166
0.422459,-0.118088,0.0197497,164
0.421881,-0.117848,0.0205207,158
0.422051,-0.117922,0.0213308,163
0.421662,-0.117761,0.0221097,158
0.421927,-0.117873,0.0229259,160
0.420237,-0.117169,0.0236238,165
0.420409,-0.117242,0.0244325,165
0.420163,-0.117142,0.025215,157
0.421544,-0.117721,0.0261058,166
0.420555,-0.117309,0.0268384,166
0.419524,-0.11688,0.0275642,163
0.419374,-0.11682,0.0283506,165
0.419409,-0.116836,0.0291504,164
0.419306,-0.116795,0.0299399,161
0.419296,-0.116793,0.0307365,164
0.41924,-0.116771,0.0315295,161
0.419277,-0.116789,0.0323302,160
0.419223,-0.116768,0.0331235,159
0.419307,-0.116805,0.0339289,164
0.419207,-0.116765,0.0347184,165
0.418739,-0.116572,0.0354741,160
0.418871,-0.116629,0.036284,161
0.419188,-0.116763,0.0371124,164
0.418813,-0.116608,0.037875,162
0.418946,-0.116666,0.0386867,162
0.41885,-0.116628,0.0394759,162
0.418754,-0.116589,0.040265,166
0.418842,-0.116628,0.0410735,164
0.419162,-0.116764,0.0419074,162
0.419113,-0.116746,0.0427025,167
0.418927,-0.11667,0.0434823,164
0.41948,-0.116903,0.0443455,156
0.419155,-0.116769,0.0451098,159
0.419386,-0.116867,0.0459384,155
0.419016,-0.116715,0.0466964,162
0.420779,-0.117454,0.0477125,160
0.418787,-0.116623,0.0482719,160
0.418788,-0.116625,0.0490739,155
0.418837,-0.116648,0.0498822,155
0.419024,-0.116728,0.050709,156
0.41898,-0.116712,0.0515065,156
0.41843,-0.116484,0.0522364,152
0.418619,-0.116564,0.0530646,153
0.419039,-0.116742,0.0539258,152
0.418674,-0.116591,0.0546793,152
0.418772,-0.116634,0.0554973,154
0.419009,-0.116735,0.056336,158
0.4192,-0.116817,0.0571694,158
0.419115,-0.116784,0.0579628,158
0.418891,-0.116692,0.0587356,156
0.418945,-0.116717,0.0595501,156
0.417939,-0.116298,0.0602017,154
0.41758,-0.116149,0.0609506,156
0.417727,-0.116213,0.0617785,158
0.416682,-0.115778,0.0624163,161
0.417839,-0.116264,0.0634075,160
0.416428,-0.115675,0.063982,157
0.415891,-0.115453,0.0646965,152
0.415994,-0.115497,0.0655167,156
0.416279,-0.115619,0.066369,151
0.415562,-0.115321,0.0670499,151
0.416076,-0.115538,0.067943,150
0.416271,-0.115622,0.0687825,153
0.41592,-0.115476,0.0695255,152
0.416071,-0.115542,0.0703581,154
0.414765,-0.114997,0.0709259,154
0.415553,-0.115329,0.0718752,153
0.414251,-0.114786,0.0724381,148
0.414448,-0.11487,0.0732788,154
0.414328,-0.114822,0.0740604,152
0.414118,-0.114736,0.0748246,154
0.413954,-0.114669,0.0755973,154
0.415014,-0.115115,0.0766109,154
0.414169,-0.114764,0.0772502,151
0.414233,-0.114792,0.078069,152
0.413889,-0.11465,0.0788059,153
0.413818,-0.114622,0.0795977,151
0.413928,-0.11467,0.0804272,151
0.413766,-0.114605,0.0812008,150
0.413832,-0.114634,0.0820222,154
0.414124,-0.114759,0.0828928,148
0.41401,-0.114713,0.0836773,149
0.414213,-0.1148,0.084531,146
0.41428,-0.11483,0.0853562,144
0.41453,-0.114936,0.0862225,146
0.416059,-0.115579,0.0873769,146
0.414168,-0.114789,0.0877652,148
0.414146,-0.114782,0.0885725,147
0.414489,-0.114927,0.089464,142
0.414559,-0.114958,0.0902943,143
0.414493,-0.114933,0.0910934,144
0.414564,-0.114965,0.0919252,146
0.414682,-0.115016,0.0927688,148
0.414754,-0.115048,0.0936025,145
0.414553,-0.114966,0.0943709,141
0.414854,-0.115094,0.0952617,143
0.414472,-0.114936,0.0959857,140
0.415139,-0.115217,0.0969698,142
0.415306,-0.115289,0.0978315,142
0.414969,-0.11515,0.0985673,144
0.415182,-0.115241,0.0994422,145
0.415029,-0.115179,0.100225,144
0.415793,-0.115501,0.101245,141
0.416192,-0.11567,0.102173,141
0.415305,-0.115301,0.102765,142
0.415797,-0.115509,0.10372,145
0.415691,-0.115467,0.104517,140
0.415311,-0.115309,0.105241,141
0.415758,-0.115498,0.106188,140
0.415378,-0.115341,0.106912,140
0.415596,-0.115435,0.107799,137
0.415677,-0.11547,0.10865,132
0.415344,-0.115333,0.109386,139
0.415517,-0.115408,0.110264,135
0.415507,-0.115406,0.111091,137
0.415405,-0.115365,0.111892,137
0.416919,-0.116001,0.11316,141
0.416679,-0.115902,0.113925,138
0.415424,-0.115379,0.114393,140
0.416524,-0.115842,0.11555,138
0.414994,-0.115203,0.115931,138
0.41688,-0.115995,0.117329,138
0.415532,-0.115432,0.11776,139
0.416913,-0.116013,0.119015,137
0.415381,-0.115373,0.119386,137
0.415421,-0.115392,0.120235,134
0.416432,-0.115818,0.121385,134
0.416057,-0.115662,0.122108,136
0.415636,-0.115488,0.122816,129
0.41517,-0.115295,0.123509,129
0.415351,-0.115373,0.124405,127
0.415163,-0.115296,0.125186,132
0.415113,-0.115278,0.12601,135
0.415203,-0.115317,0.12688,128
0.415154,-0.115299,0.127707,130
0.415568,-0.115474,0.128685,134
0.414827,-0.115166,0.129284,137
0.414964,-0.115225,0.130173,138
0.414962,-0.115227,0.131017,139
0.414224,-0.11492,0.131613,138
0.414823,-0.115172,0.13266,138
0.414454,-0.11502,0.13338,137
0.414869,-0.115196,0.134369,139
0.413718,-0.114716,0.134818,141
0.414086,-0.114872,0.135792,139
0.413306,-0.114548,0.136366,143
0.413124,-0.114473,0.137149,141
0.414968,-0.115248,0.138649,142
0.413311,-0.114556,0.138909,149
0.413175,-0.114501,0.139709,146
0.412765,-0.114331,0.14041,142
0.412447,-0.1142,0.141143,138
0.411857,-0.113955,0.141776,138
0.411404,-0.113767,0.142458,141
0.412732,-0.114326,0.143797,141
0.41237,-0.114176,0.144514,144
0.412191,-0.114103,0.145298,144
0.411419,-0.113782,0.14586,140
0.410923,-0.113576,0.146523,145
0.411109,-0.113656,0.147445,146
0.410705,-0.113489,0.148142,141
0.410211,-0.113284,0.148803,141
0.409899,-0.113156,0.149534,137
0.410131,-0.113255,0.150475,132
0.408601,-0.112616,0.150729,135
0.407977,-0.112357,0.151333,131
0.407848,-0.112305,0.152132,128
0.407317,-0.112084,0.15277,125
0.407502,-0.112164,0.153694,122
0.407195,-0.112037,0.154421,123
0.406844,-0.111892,0.15513,125
0.40712,-0.11201,0.156093,116
0.406635,-0.111809,0.156747,124
0.407045,-0.111983,0.157768,120
0.407232,-0.112063,0.158699,119
0.406703,-0.111844,0.159333,113
0.407025,-0.111981,0.160322,116
0.407078,-0.112005,0.161201,118
0.407312,-0.112105,0.162156,111
0.407232,-0.112073,0.162981,116
0.407781,-0.112306,0.164074,106
0.407476,-0.11218,0.164804,98
0.407667,-0.112262,0.165747,95
0.407182,-0.112061,0.166399,98
0.407373,-0.112143,0.167345,98
0.40761,-0.112245,0.168311,100
0.407937,-0.112384,0.16932,100
0.408356,-0.112562,0.170372,105
0.40751,-0.112209,0.170863,105
0.408019,-0.112425,0.171958,107
0.40749,-0.112205,0.172589,102
0.408181,-0.112497,0.173769,98
0.408195,-0.112505,0.174646,98
0.408073,-0.112456,0.175462,102
0.40786,-0.112369,0.176237,97
0.408965,-0.112834,0.177619,95
0.407979,-0.112423,0.178039,105
0.408494,-0.112641,0.179153,103
0.408737,-0.112745,0.180143,96
0.408571,-0.112677,0.180943,97
0.40845,-0.112629,0.181765,97
0.409196,-0.112944,0.182998,91
0.408985,-0.112857,0.183779,88
0.40978,-0.113193,0.185042,87
0.409798,-0.113202,0.185935,88
0.40922,-0.112962,0.186542,150
0.40988,-0.113241,0.187748,89
0.410221,-0.113386,0.188802,97
0.410286,-0.113416,0.189724,90
0.413555,-0.117452,-0.203301,11
0.412954,-0.117199,-0.202088,15
0.410035,-0.115957,-0.199691,13
0.411017,-0.116378,-0.199298,14
0.41075,-0.116267,-0.198268,14
0.416824,-0.118856,-0.200445,12
0.408566,-0.115341,-0.195382,9
0.410647,-0.116229,-0.195537,15
0.410798,-0.116296,-0.194722,15
0.415298,-0.118215,-0.196066,14
0.415783,-0.118424,-0.195406,14
0.423574,-0.121745,-0.198341,11
0.413968,-0.117655,-0.192719,16
0.414592,-0.117923,-0.192129,19
0.409957,-0.11595,-0.188986,17
0.413633,-0.117519,-0.189878,19
0.41496,-0.118087,-0.189626,14
0.40968,-0.115839,-0.186207,12
0.4165,-0.118747,-0.188575,14
0.413596,-0.117512,-0.186304,19
0.413051,-0.117282,-0.18516,15
0.416352,-0.118691,-0.185825,19
0.416178,-0.118618,-0.184852,15
0.413284,-0.117387,-0.182616,17
0.420315,-0.120386,-0.184987,14
0.413037,-0.117287,-0.180738,14
0.418233,-0.119503,-0.182238,11
0.415031,-0.118141,-0.179887,13
0.419556,-0.120071,-0.181057,15
0.4153,-0.118259,-0.178242,18
0.417964,-0.119397,-0.178556,21
0.415569,-0.118379,-0.176598,18
0.415352,-0.118288,-0.17562,14
0.419112,-0.119893,-0.176404,18
0.413986,-0.11771,-0.173259,15
0.417528,-0.119222,-0.173936,14
0.418164,-0.119495,-0.17333,15
0.419422,-0.120034,-0.172993,15
0.418724,-0.119738,-0.171807,21
0.416047,-0.118599,-0.169774,24
0.4135,-0.117516,-0.16781,16
0.416463,-0.118781,-0.1682,21
0.416436,-0.118772,-0.167313,16
0.416927,-0.118983,-0.166645,20
0.41456,-0.117976,-0.164779,18
0.41617,-0.118665,-0.164581,19
0.415209,-0.118257,-0.163311,16
0.416026,-0.118608,-0.162779,17
0.41151,-0.116685,-0.16006,21
0.412405,-0.117069,-0.159565,17
0.410462,-0.116243,-0.157918,19
0.415462,-0.118376,-0.159077,21
0.411926,-0.116871,-0.156794,20
0.411036,-0.116494,-0.155583,25
0.408886,-0.115579,-0.153876,21
0.408551,-0.115438,-0.152895,25
0.408577,-0.115451,-0.152058,22
0.405836,-0.114285,-0.150143,23
0.405332,-0.114072,-0.149108,23
0.406644,-0.114634,-0.148775,22
0.405829,-0.114288,-0.147622,27
0.40537,-0.114095,-0.146609,26
0.404473,-0.113715,-0.145433,23
0.402971,-0.113076,-0.144034,24
0.403131,-0.113146,-0.143264,27
0.402551,-0.112901,-0.142219,26
0.401411,-0.112417,-0.140969,31
0.401527,-0.112469,-0.140188,34
0.402597,-0.112927,-0.139755,31
0.403149,-0.113164,-0.13913,36
0.402745,-0.112994,-0.138158,34
0.401521,-0.112474,-0.136894,34
0.401768,-0.112582,-0.136161,39
0.402059,-0.112708,-0.135443,43
0.400842,-0.11219,-0.134193,43
0.400317,-0.111969,-0.133191,40
0.401983,-0.112681,-0.132956,41
0.402448,-0.112882,-0.132298,42
0.402179,-0.112769,-0.131386,39
0.402948,-0.113099,-0.130831,40
0.403286,-0.113245,-0.130127,38
0.402799,-0.113039,-0.129143,43
0.402834,-0.113056,-0.128337,47
0.402782,-0.113036,-0.127503,48
0.402903,-0.11309,-0.126727,43
0.402765,-0.113033,-0.125866,47
0.403147,-0.113198,-0.125176,47
0.402361,-0.112865,-0.124106,49
0.404567,-0.113807,-0.124005,47
0.40408,-0.113602,-0.123032,50
0.403813,-0.113489,-0.122132,48
0.404024,-0.113581,-0.121385,49
0.404976,-0.11399,-0.12087,48
0.404839,-0.113933,-0.120012,55
0.404834,-0.113933,-0.119196,55
0.404436,-0.113765,-0.11826,51
0.405347,-0.114156,-0.117726,52
0.40578,-0.114342,-0.117044,55
0.405688,-0.114305,-0.116203,56
0.406298,-0.114567,-0.115572,56
0.405768,-0.114343,-0.114601,60
0.405589,-0.114269,-0.113736,64
0.406506,-0.114662,-0.113194,62
0.406503,-0.114663,-0.11238,60
0.40862,-0.115568,-0.11218,63
0.408129,-0.11536,-0.111223,65
0.407685,-0.115173,-0.110283,64
0.407374,-0.115042,-0.109382,68
0.408833,-0.115666,-0.10898,66
0.409588,-0.11599,-0.108376,72
0.409542,-0.115973,-0.107548,67
0.410121,-0.116222,-0.106893,71
0.410299,-0.1163,-0.106126,73
0.410567,-0.116416,-0.105384,73
0.411644,-0.116878,-0.104858,67
0.41124,-0.116707,-0.103934,75
0.41178,-0.11694,-0.103261,77
0.412638,-0.117308,-0.10267,84
0.412369,-0.117195,-0.101783,81
0.413456,-0.117661,-0.101247,76
0.41373,-0.11778,-0.100499,76
0.413687,-0.117763,-0.0996705,84
0.414372,-0.118058,-0.0990255,81
0.415014,-0.118333,-0.0983674,87
0.416025,-0.118767,-0.0977985,93
0.415753,-0.118653,-0.0969114,89
0.416354,-0.118911,-0.0962381,87
0.416634,-0.119033,-0.0954855,88
0.417145,-0.119253,-0.0947875,83
0.418168,-0.119691,-0.094209,85
0.418313,-0.119755,-0.0934205,83
0.418783,-0.119958,-0.0927078,89
0.419441,-0.12024,-0.0920369,84
0.420617,-0.120744,-0.0914821,92
0.420624,-0.120749,-0.0906581,88
0.42228,-0.121458,-0.0902047,88
0.422334,-0.121483,-0.0893889,89
0.422626,-0.121609,-0.0886255,87
0.422587,-0.121595,-0.0877892,92
0.423687,-0.122066,-0.0871999,98
0.424173,-0.122276,-0.0864749,94
0.423753,-0.122099,-0.0855564,95
0.424526,-0.12243,-0.0848904,102
0.424775,-0.122539,-0.0841129,107
0.424929,-0.122607,-0.0833152,106
0.425084,-0.122675,-0.0825175,106
0.426056,-0.123091,-0.0818843,102
0.426453,-0.123263,-0.0811329,106
0.426176,-0.123147,-0.0802471,106
0.425997,-0.123072,-0.0793819,104
0.426299,-0.123203,-0.078611,98
0.426072,-0.123109,-0.0777381,108
0.425894,-0.123035,-0.0768758,103
0.425526,-0.122879,-0.0759788,103
0.425206,-0.122745,-0.0750928,105
0.425174,-0.122733,-0.0742613,106
0.424951,-0.12264,-0.0733958,106
0.424729,-0.122548,-0.0725318,111
0.424508,-0.122455,-0.0716692,110
0.424145,-0.122302,-0.070783,106
0.424212,-0.122333,-0.069973,107
0.423518,-0.122039,-0.0690332,111
0.423064,-0.121847,-0.068137,112
0.422895,-0.121777,-0.0672907,112
0.422727,-0.121707,-0.0664455,108
0.422276,-0.121517,-0.0655554,116
0.421031,-0.120987,-0.0645398,111
0.420773,-0.120879,-0.0636862,111
0.41991,-0.120513,-0.0627393,120
0.420398,-0.120723,-0.0620053,118
0.419863,-0.120497,-0.0611134,123
0.41998,-0.120549,-0.0603221,115
0.41954,-0.120363,-0.0594481,116
0.418824,-0.120059,-0.0585357,116
0.41825,-0.119816,-0.057647,114
0.417678,-0.119574,-0.0567613,113
0.417888,-0.119665,-0.055988,116
0.417135,-0.119346,-0.055081,112
0.41831,-0.11985,-0.05444,112
0.417099,-0.119334,-0.0534742,113
0.416807,-0.119212,-0.0526352,116
0.416927,-0.119265,-0.0518513,122
0.416728,-0.119182,-0.0510263,119
0.416894,-0.119255,-0.0502485,116
0.417153,-0.119367,-0.0494817,116
0.416955,-0.119285,-0.0486584,121
0.417857,-0.119672,-0.0479681,125
0.417476,-0.119511,-0.0471231,119
0.417371,-0.119468,-0.0463119,122
0.417587,-0.119562,-0.0455379,124
0.417758,-0.119637,-0.0447583,127
0.417745,-0.119634,-0.0439581,130
0.417505,-0.119533,-0.0431336,121
0.417493,-0.11953,-0.0423345,130
0.417666,-0.119606,-0.0415548,126
0.417885,-0.119701,-0.0407794,130
0.418059,-0.119778,-0.0399988,133
0.419525,-0.120405,-0.039344,132
0.418179,-0.119833,-0.0384143,132
0.418492,-0.119969,-0.0376458,132
0.418163,-0.11983,-0.0368172,134
0.418754,-0.120084,-0.0360727,134
0.419116,-0.120241,-0.035306,134
0.41934,-0.120338,-0.0345262,137
0.419011,-0.1202,-0.0336994,138
0.418591,-0.120023,-0.0328668,141
0.419648,-0.120476,-0.0321534,140
0.418859,-0.120141,-0.0312929,145
0.419132,-0.120259,-0.0305159,136
0.419452,-0.120398,-0.0297414,140
0.420097,-0.120675,-0.028989,141
0.419909,-0.120597,-0.0281764,139
0.420139,-0.120697,-0.0273928,139
0.420416,-0.120818,-0.0266115,143
0.420276,-0.12076,-0.0258028,140
0.420601,-0.1209,-0.0250234,146
0.420647,-0.120922,-0.0242262,145
0.420695,-0.120944,-0.0234291,147
0.420696,-0.120947,-0.0226293,151
0.42205,-0.121527,-0.0219018,146
0.421959,-0.12149,-0.0210947,147
0.420889,-0.121035,-0.0202399,143
0.421778,-0.121417,-0.0194822,151
0.422016,-0.12152,-0.0186914,151
0.421833,-0.121444,-0.0178816,143
0.421978,-0.121508,-0.0170862,148
0.421844,-0.121453,-0.0162793,143
0.422458,-0.121717,-0.0155009,151
0.422418,-0.121702,-0.0146971,151
0.422894,-0.121907,-0.0139107,147
0.423231,-0.122053,-0.013118,150
0.424372,-0.122543,-0.0123476,149
0.423107,-0.122004,-0.0115071,150
0.423257,-0.12207,-0.0107075,153
0.423032,-0.121976,-0.00989862,154
0.424694,-0.122688,-0.00913067,151
0.424137,-0.122452,-0.00831352,150
0.424716,-0.122702,-0.00751815,152
0.42506,-0.122851,-0.00671692,153
0.425121,-0.122878,-0.0059106,152
0.425086,-0.122866,-0.00510301,154
0.425242,-0.122934,-0.00429732,155
0.425399,-0.123003,-0.00349101,157
0.425557,-0.123073,-0.00268408,154
0.425191,-0.122919,-0.00187492,153
0.425302,-0.122968,-0.00106773,155
0.425509,-0.123058,-0.000259999,155
0.425383,-0.123006,0.000547591,154
0.425211,-0.122935,0.00135446,158
0.425419,-0.123026,0.00216331,156
0.424962,-0.122832,0.00296704,157
0.424934,-0.122822,0.00377368,151
0.425334,-0.122995,0.0045858,154
0.425116,-0.122904,0.00539031,150
0.426472,-0.123485,0.00622077,153
0.426732,-0.123599,0.00703589,157
0.425228,-0.122958,0.00781492,152
0.425536,-0.123091,0.00862978,160
0.42513,-0.12292,0.00942806,160
0.425154,-0.122932,0.0102364,159
0.425321,-0.123005,0.011049,157
0.425393,-0.123038,0.0118595,165
0.425038,-0.122888,0.0126562,162
0.425301,-0.123003,0.0134732,164
0.424852,-0.122813,0.014265,163
0.42431,-0.122583,0.0150514,160
0.423864,-0.122395,0.0158397,163
0.424318,-0.122591,0.0166651,165
0.424535,-0.122686,0.0174818,165
0.424327,-0.122599,0.0182794,164
0.423459,-0.12223,0.0190437,160
0.424008,-0.122466,0.0198773,163
0.424133,-0.122522,0.0206907,165
0.424353,-0.122618,0.02151,164
0.42429,-0.122593,0.022314,162
0.423802,-0.122386,0.0230928,165
0.422375,-0.121778,0.0238121,159
0.422174,-0.121694,0.0246035,164
0.421832,-0.12155,0.025385,167
0.421305,-0.121327,0.0261529,163
0.421947,-0.121603,0.0269998,163
0.421281,-0.12132,0.0277561,161
0.421269,-0.121317,0.028558,162
0.420885,-0.121155,0.0293319,159
0.420968,-0.121192,0.0301406,166
0.421144,-0.12127,0.0309573,164
0.421135,-0.121268,0.0317597,162
0.421172,-0.121286,0.0325662,165
0.420838,-0.121145,0.0333412,163
0.420876,-0.121163,0.0341478,168
0.420869,-0.121162,0.0349506,164
0.421002,-0.121221,0.0357664,165
0.420576,-0.121041,0.0365307,168
0.419272,-0.120485,0.0372094,160
0.419266,-0.120485,0.0380099,166
0.419771,-0.120702,0.0388615,162
0.42037,-0.120961,0.039725,158
0.419901,-0.120762,0.0404805,161
0.419019,-0.120387,0.0411904,166
0.419062,-0.120407,0.0419968,164
0.418967,-0.120369,0.0427885,161
0.418734,-0.120271,0.0435647,163
0.420168,-0.120886,0.04453,165
0.419286,-0.120511,0.0452329,166
0.418363,-0.120118,0.0459275,160
0.418547,-0.120199,0.0467517,162
0.41864,-0.120241,0.0475657,163
0.418779,-0.120302,0.0483861,165
0.418642,-0.120246,0.0491726,163
0.418552,-0.120209,0.0499648,167
0.41837,-0.120133,0.050745,160
0.418327,-0.120117,0.051543,157
0.418192,-0.120061,0.052329,158
0.418243,-0.120085,0.0531398,159
0.418339,-0.120128,0.0539576,159
0.418252,-0.120093,0.0547504,160
0.418257,-0.120097,0.0555563,158
0.417987,-0.119983,0.0563227,160
0.417809,-0.119909,0.0571019,158
0.417954,-0.119973,0.0579286,162
0.418054,-0.120018,0.0587495,159
0.416181,-0.119219,0.0592702,157
0.417196,-0.119655,0.06023,156
0.416701,-0.119445,0.0609578,160
0.415842,-0.11908,0.0616262,158
0.415988,-0.119144,0.062453,158
0.415542,-0.118955,0.0631844,157
0.415507,-0.118942,0.063982,155
0.415062,-0.118754,0.0647116,154
0.415255,-0.118839,0.0655474,153
0.415176,-0.118807,0.0663379,156
0.415006,-0.118736,0.0671127,153
0.414656,-0.118588,0.0678555,152
0.415032,-0.118751,0.0687261,154
0.41441,-0.118487,0.0694197,156
0.414152,-0.118379,0.0701772,157
0.413353,-0.118039,0.0708349,155
0.413683,-0.118182,0.071699,152
0.413021,-0.117901,0.072379,150
0.41403,-0.118335,0.073373,154
0.414908,-0.118712,0.0743467,154
0.414698,-0.118624,0.0751137,155
0.413175,-0.117975,0.0756237,150
0.412787,-0.117811,0.076352,150
0.413075,-0.117936,0.0772142,154
0.413318,-0.118042,0.078069,150
0.413202,-0.117994,0.0788519,151
0.41295,-0.117888,0.0796069,145
0.412654,-0.117764,0.0803522,149
0.412854,-0.117851,0.0812008,146
0.412693,-0.117785,0.0819744,148
0.41312,-0.117969,0.0828735,149
0.412915,-0.117883,0.0836383,146
0.413524,-0.118146,0.0845804,145
0.413365,-0.11808,0.0853562,145
0.413252,-0.118034,0.086142,145
0.413185,-0.118007,0.0869381,149
0.413434,-0.118115,0.0878062,145
0.413232,-0.118031,0.0885725,146
0.413256,-0.118043,0.0893908,147
0.413235,-0.118036,0.0901993,148
0.413578,-0.118185,0.0910934,144
0.414559,-0.118606,0.0921409,143
0.414996,-0.118795,0.093063,147
0.414977,-0.118789,0.0938774,145
0.41505,-0.118823,0.0947146,145
0.413801,-0.11829,0.0952282,139
0.413511,-0.118168,0.0959745,142
0.413903,-0.118338,0.0968902,142
0.415577,-0.119056,0.0981309,145
0.413688,-0.11825,0.0984749,143
0.413763,-0.118284,0.099314,141
0.413702,-0.11826,0.100119,145
0.414097,-0.118431,0.101043,142
0.414173,-0.118466,0.101885,141
0.414661,-0.118677,0.102838,146
0.414328,-0.118536,0.103574,140
0.413949,-0.118376,0.104297,142
0.414576,-0.118646,0.105291,136
0.414197,-0.118486,0.106014,139
0.414139,-0.118463,0.106824,138
0.414173,-0.11848,0.10766,140
0.414803,-0.118751,0.108663,140
0.414379,-0.118572,0.109373,144
0.414323,-0.11855,0.110186,141
0.414359,-0.118567,0.111026,139
0.414074,-0.118448,0.111774,139
0.413836,-0.118348,0.112535,145
0.414239,-0.118522,0.113483,144
0.414001,-0.118423,0.114245,143
0.413947,-0.118401,0.11506,142
0.414122,-0.118478,0.115945,142
0.414115,-0.118477,0.116776,140
0.414016,-0.118437,0.11758,144
0.414468,-0.118633,0.118552,142
0.4146,-0.118691,0.119428,143
0.41441,-0.118612,0.120206,146
0.413991,-0.118435,0.120913,137
0.414078,-0.118474,0.121777,139
0.414257,-0.118552,0.122671,140
0.414252,-0.118552,0.123509,139
0.415123,-0.118927,0.124626,138
0.414382,-0.118612,0.12523,136
0.414011,-0.118456,0.125951,139
0.415114,-0.11893,0.127151,133
0.413914,-0.118418,0.127601,135
0.413911,-0.118419,0.128442,136
0.414093,-0.118499,0.129345,139
0.414276,-0.118579,0.13025,142
0.414091,-0.118502,0.131033,140
0.413492,-0.118248,0.131675,141
0.414043,-0.118486,0.132707,143
0.414089,-0.118508,0.13357,140
0.413859,-0.118411,0.134337,144
0.414182,-0.118552,0.135297,143
0.413999,-0.118475,0.136082,141
0.413954,-0.118458,0.136915,144
0.412761,-0.117949,0.137343,148
0.412214,-0.117717,0.137996,147
0.412261,-0.117739,0.13886,153
0.412675,-0.117919,0.139857,141
0.411809,-0.11755,0.140393,149
