ply
format ascii 1.0
comment Created by CloudCompare v2.11 alpha (Anoia)
comment Created 2025/12/9 17:12
obj_info Generated by CloudCompare!
element vertex 1381
property float x
property float y
property float z
property float scalar_Scalar_field
end_header
0.437316 -0.0338601 -0.0973695 161 
0.437525 -0.0339044 -0.0964415 161 
0.438156 -0.0340346 -0.0953885 162 
0.438578 -0.0341223 -0.0943935 162 
0.438896 -0.0341888 -0.0934275 159 
0.4398 -0.0343742 -0.0922835 151 
0.439535 -0.0343224 -0.0914885 154 
0.44039 -0.0344979 -0.0903525 159 
0.440927 -0.034609 -0.0893105 162 
0.441305 -0.0346878 -0.0883145 156 
0.441738 -0.0347778 -0.0872985 159 
0.442281 -0.03489 -0.0862465 167 
0.442394 -0.0349148 -0.0853265 165 
0.442507 -0.0349398 -0.0844055 165 
0.442621 -0.034965 -0.0834835 170 
0.442627 -0.0349682 -0.0825935 164 
0.443555 -0.0351587 -0.0814065 162 
0.442911 -0.03503 -0.0807245 164 
0.442918 -0.0350336 -0.0798325 168 
0.44336 -0.0351254 -0.0787965 166 
0.442934 -0.035041 -0.0780445 170 
0.443215 -0.0350999 -0.0770585 176 
0.443224 -0.0351039 -0.0761615 172 
0.443071 -0.0350748 -0.0753185 167 
0.443081 -0.0350789 -0.0744205 161 
0.443745 -0.0352158 -0.0732985 159 
0.442288 -0.0349221 -0.0728995 158 
0.442191 -0.0349044 -0.0720375 161 
0.442799 -0.03503 -0.0709305 161 
0.44254 -0.0349794 -0.0701225 161 
0.442227 -0.0349179 -0.0693345 159 
0.442185 -0.0349115 -0.0684505 158 
0.44247 -0.0349714 -0.0674495 157 
0.442756 -0.0350315 -0.0664475 157 
0.442661 -0.0350144 -0.0655795 148 
0.442404 -0.0349642 -0.0647695 145 
0.442364 -0.0349583 -0.0638805 141 
0.442543 -0.0349967 -0.0629125 150 
0.443213 -0.0351349 -0.0617615 144 
0.443285 -0.0351514 -0.0608285 136 
0.442865 -0.0350682 -0.0600765 139 
0.442882 -0.0350738 -0.0591615 137 
0.443391 -0.0351794 -0.0580615 135 
0.443903 -0.0352854 -0.0569585 140 
0.444142 -0.035336 -0.0559555 142 
0.445098 -0.0355323 -0.0546765 139 
0.444621 -0.0354376 -0.0539435 128 
0.444146 -0.0353432 -0.0532095 131 
0.444332 -0.035383 -0.0522215 138 
0.444463 -0.0354118 -0.0512525 140 
0.445092 -0.0355417 -0.0500875 134 
0.445336 -0.0355933 -0.0490715 141 
0.445691 -0.0356677 -0.0480085 137 
0.446381 -0.0358101 -0.0468095 136 
0.446461 -0.0358284 -0.0458515 131 
0.44682 -0.0359035 -0.0447805 130 
0.447516 -0.0360471 -0.0435705 115 
0.447318 -0.0360089 -0.0427195 117 
0.447849 -0.0361189 -0.0415715 112 
0.448157 -0.0361836 -0.0405115 112 
0.448578 -0.0362714 -0.0394025 111 
0.448775 -0.0363136 -0.0383845 110 
0.44886 -0.036333 -0.0374105 106 
0.447986 -0.0361576 -0.0368375 111 
0.449314 -0.0364296 -0.0353405 106 
0.449911 -0.0365531 -0.0341455 104 
0.449941 -0.0365615 -0.0331885 109 
0.450599 -0.0366972 -0.0319625 110 
0.45103 -0.0367871 -0.0308295 107 
0.450719 -0.0367261 -0.0300145 108 
0.451209 -0.0368279 -0.0288525 105 
0.451529 -0.0368951 -0.0277615 119 
0.451678 -0.0369275 -0.0267435 120 
0.451712 -0.0369366 -0.0257745 115 
0.45261 -0.0371214 -0.0244215 111 
0.4523 -0.0370605 -0.0236015 108 
0.452508 -0.0371052 -0.0225495 101 
0.45191 -0.0369858 -0.0218575 106 
0.45235 -0.0370775 -0.0206995 104 
0.452041 -0.0370168 -0.0198785 109 
0.452598 -0.0371323 -0.0186625 120 
0.45281 -0.0371775 -0.0176025 108 
0.452907 -0.0371994 -0.0165925 105 
0.453236 -0.0372685 -0.0154735 109 
0.409609 -0.0241958 -0.419489 10 
0.410668 -0.0244022 -0.419121 9 
0.411016 -0.0244713 -0.418408 11 
0.418998 -0.0260139 -0.421343 13 
0.411188 -0.0245085 -0.416732 11 
0.412781 -0.0248181 -0.416608 18 
0.412892 -0.0248415 -0.415779 15 
0.411854 -0.0246431 -0.414412 15 
0.414078 -0.0250745 -0.414574 12 
0.41265 -0.0248009 -0.413029 14 
0.412475 -0.024769 -0.412071 13 
0.412874 -0.0248481 -0.411379 15 
0.416761 -0.0256005 -0.412286 15 
0.413051 -0.0248863 -0.409709 18 
0.414704 -0.0252075 -0.409586 19 
0.414528 -0.0251754 -0.408629 16 
0.413342 -0.0249485 -0.40722 21 
0.416647 -0.0255886 -0.407828 18 
0.415207 -0.0253127 -0.406308 15 
0.416389 -0.0255428 -0.405958 18 
0.417577 -0.0257742 -0.405606 19 
0.41735 -0.0257325 -0.404628 20 
0.415812 -0.0254375 -0.403079 23 
0.41989 -0.026227 -0.403982 23 
0.4176 -0.0257868 -0.402109 20 
0.417375 -0.0257453 -0.401137 22 
0.416713 -0.0256194 -0.39998 22 
0.419668 -0.0261921 -0.400371 22 
0.419539 -0.0261692 -0.399439 20 
0.418479 -0.0259664 -0.398115 23 
0.421456 -0.0265436 -0.398496 22 
0.420634 -0.0263867 -0.397274 21 
0.418197 -0.0259181 -0.395383 17 
0.422461 -0.0267436 -0.396281 25 
0.421536 -0.0265671 -0.395022 25 
0.420568 -0.0263819 -0.39375 24 
0.420885 -0.0264453 -0.393007 26 
0.421451 -0.0265565 -0.392365 24 
0.422167 -0.0266969 -0.391782 26 
0.421395 -0.0265498 -0.390599 23 
0.42043 -0.0263654 -0.389342 23 
0.423628 -0.0269852 -0.389748 25 
0.4235 -0.0269625 -0.388823 33 
0.422975 -0.026863 -0.387744 30 
0.422252 -0.0267254 -0.38659 32 
0.422425 -0.0267607 -0.385788 33 
0.423693 -0.0270077 -0.385412 37 
0.424768 -0.0272174 -0.384957 35 
0.425949 -0.0274476 -0.384538 33 
0.42562 -0.0273861 -0.38354 34 
0.426704 -0.0275976 -0.38308 33 
0.426425 -0.0275457 -0.382102 36 
0.425996 -0.0274648 -0.381069 40 
0.426981 -0.0276571 -0.380566 32 
0.427513 -0.027762 -0.379893 40 
0.427894 -0.0278376 -0.379162 35 
0.429808 -0.0282094 -0.378993 38 
0.429169 -0.0280879 -0.377884 39 
0.428329 -0.0279276 -0.376707 41 
0.42999 -0.0282505 -0.376436 39 
0.431456 -0.028536 -0.376089 37 
0.430506 -0.0283543 -0.374875 38 
0.431356 -0.0285207 -0.374304 42 
0.432003 -0.0286477 -0.373659 43 
0.433847 -0.0290062 -0.373432 43 
0.43294 -0.0288328 -0.372238 43 
0.432865 -0.0288203 -0.371337 44 
0.434925 -0.0292205 -0.371174 39 
0.435321 -0.0292991 -0.370433 42 
0.434305 -0.0291047 -0.369209 37 
0.434961 -0.0292336 -0.368557 49 
0.434574 -0.0291607 -0.367551 48 
0.43586 -0.0294114 -0.367108 46 
0.435472 -0.0293384 -0.366103 52 
0.43629 -0.0294986 -0.3655 45 
0.435326 -0.0293141 -0.364308 49 
0.43688 -0.0296166 -0.363943 49 
0.435862 -0.0294218 -0.362738 43 
0.438372 -0.0299091 -0.362676 45 
0.438882 -0.0300098 -0.361963 45 
0.438332 -0.0299055 -0.360911 44 
0.439481 -0.0301297 -0.3604 47 
0.436712 -0.0295963 -0.358652 51 
0.439231 -0.0300853 -0.358569 51 
0.438576 -0.0299607 -0.357491 56 
0.438718 -0.0299901 -0.356661 50 
0.440349 -0.0303076 -0.35629 48 
0.440599 -0.0303579 -0.355491 43 
0.439198 -0.0300889 -0.354192 44 
0.440673 -0.0303762 -0.353764 45 
0.440977 -0.0304371 -0.352981 41 
0.441122 -0.0304671 -0.352151 43 
0.442018 -0.0306425 -0.351542 51 
0.441092 -0.0304654 -0.350396 51 
0.440651 -0.030382 -0.349396 50 
0.440158 -0.0302886 -0.348383 48 
0.441372 -0.0305254 -0.347863 55 
0.439548 -0.0301746 -0.346472 58 
0.442257 -0.0307007 -0.346373 65 
0.44064 -0.03039 -0.345047 70 
0.442018 -0.0306586 -0.344565 69 
0.441045 -0.0304722 -0.343426 70 
0.439864 -0.0302457 -0.342234 68 
0.440704 -0.0304103 -0.3416 67 
0.441442 -0.0305549 -0.340935 71 
0.442021 -0.0306689 -0.340225 74 
0.441317 -0.0305348 -0.339171 65 
0.441896 -0.0306489 -0.33846 68 
0.440981 -0.0304738 -0.337355 72 
0.441828 -0.0306396 -0.336713 80 
0.440914 -0.0304648 -0.335613 80 
0.441921 -0.0306617 -0.335011 82 
0.441702 -0.0306212 -0.334092 82 
0.441643 -0.0306118 -0.333216 78 
0.441372 -0.0305612 -0.332287 84 
0.44057 -0.0304081 -0.331228 82 
0.44046 -0.0303888 -0.330343 77 
0.440935 -0.0304826 -0.329603 75 
0.440243 -0.0303506 -0.328577 83 
0.440771 -0.0304548 -0.327849 81 
0.440822 -0.0304667 -0.327006 88 
0.43934 -0.0301819 -0.325799 75 
0.43992 -0.0302961 -0.325084 81 
0.440396 -0.0303902 -0.324342 83 
0.438081 -0.0299439 -0.322953 84 
0.437194 -0.0297743 -0.321901 79 
0.436624 -0.0296658 -0.320926 89 
0.436211 -0.0295878 -0.319989 84 
0.435748 -0.0295002 -0.319042 87 
0.434257 -0.0292134 -0.31787 93 
0.434827 -0.0293257 -0.317158 101 
0.434266 -0.0292191 -0.316198 97 
0.43335 -0.0290436 -0.315163 101 
0.432794 -0.028938 -0.31421 104 
0.432241 -0.0288328 -0.313259 97 
0.432249 -0.0288361 -0.31243 100 
0.432155 -0.0288199 -0.311579 95 
0.430847 -0.0285685 -0.310479 105 
0.430856 -0.0285722 -0.309654 118 
0.430563 -0.0285174 -0.308768 111 
0.430019 -0.028414 -0.307833 111 
0.429027 -0.0282238 -0.306812 107 
0.428789 -0.0281795 -0.305943 113 
0.428402 -0.0281064 -0.305047 111 
0.427966 -0.0280239 -0.304143 112 
0.42773 -0.0279802 -0.30328 114 
0.426605 -0.0277641 -0.30225 118 
0.42583 -0.0276159 -0.30129 120 
0.426337 -0.027716 -0.300571 120 
0.424927 -0.0274448 -0.299499 115 
0.424747 -0.0274117 -0.298656 116 
0.424665 -0.0273978 -0.297832 113 
0.423366 -0.027148 -0.296792 115 
0.423286 -0.0271343 -0.295972 118 
0.422335 -0.026952 -0.295002 126 
0.422305 -0.026948 -0.294193 121 
0.421119 -0.0267202 -0.293189 125 
0.420419 -0.0265865 -0.292271 129 
0.420487 -0.0266014 -0.291484 133 
0.420172 -0.0265423 -0.290634 132 
0.420528 -0.026613 -0.289895 133 
0.42031 -0.0265726 -0.289062 132 
0.419378 -0.0263939 -0.288118 133 
0.419495 -0.0264185 -0.287342 134 
0.419756 -0.0264708 -0.286587 133 
0.419636 -0.0264494 -0.285774 137 
0.41966 -0.0264559 -0.284984 139 
0.41997 -0.0265178 -0.284236 136 
0.419804 -0.0264874 -0.283418 139 
0.419639 -0.0264572 -0.2826 131 
0.419664 -0.026464 -0.281811 138 
0.419786 -0.0264893 -0.281036 134 
0.419479 -0.0264317 -0.280201 137 
0.419696 -0.0264756 -0.279439 134 
0.420248 -0.0265844 -0.278722 137 
0.419514 -0.026444 -0.277832 141 
0.419638 -0.0264697 -0.277058 144 
0.419857 -0.026514 -0.276295 136 
0.419601 -0.0264663 -0.275472 143 
0.419821 -0.0265108 -0.27471 141 
0.419804 -0.0265092 -0.273918 147 
0.419645 -0.0264802 -0.273109 143 
0.420105 -0.0265711 -0.272375 142 
0.419994 -0.0265514 -0.271572 141 
0.420741 -0.0266982 -0.270869 142 
0.419678 -0.026494 -0.269958 140 
0.420331 -0.0266222 -0.269243 146 
0.420746 -0.0267046 -0.2685 142 
0.420066 -0.0265744 -0.267636 147 
0.420625 -0.0266846 -0.266908 147 
0.420803 -0.0267211 -0.266137 148 
0.420792 -0.0267206 -0.265347 145 
0.421258 -0.0268129 -0.264606 149 
0.421104 -0.0267848 -0.263801 150 
0.421046 -0.0267753 -0.263007 156 
0.420797 -0.026729 -0.262194 152 
0.421553 -0.0268773 -0.261477 155 
0.421161 -0.0268032 -0.260652 156 
0.422063 -0.0269799 -0.259945 160 
0.422248 -0.0270174 -0.259172 155 
0.422481 -0.0270644 -0.258402 154 
0.422474 -0.0270649 -0.257611 158 
0.422708 -0.0271122 -0.256841 159 
0.422654 -0.0271035 -0.256046 162 
0.42289 -0.027151 -0.255275 164 
0.422837 -0.0271425 -0.254481 162 
0.423943 -0.0273589 -0.253774 163 
0.423504 -0.0272756 -0.25295 156 
0.424275 -0.0274269 -0.252214 158 
0.424127 -0.0274 -0.251412 159 
0.424415 -0.0274578 -0.25064 159 
0.424802 -0.0275346 -0.249873 161 
0.424898 -0.027555 -0.249087 165 
0.424995 -0.0275756 -0.2483 165 
0.425286 -0.027634 -0.247525 164 
0.42553 -0.0276832 -0.246746 166 
0.425824 -0.027742 -0.245969 168 
0.42607 -0.0277914 -0.245189 166 
0.425632 -0.0277084 -0.244372 170 
0.426417 -0.0278624 -0.243618 169 
0.426518 -0.0278838 -0.242829 169 
0.426913 -0.0279624 -0.242052 171 
0.427901 -0.0281558 -0.241301 173 
0.42835 -0.0282447 -0.240523 173 
0.428355 -0.0282476 -0.239726 174 
0.428361 -0.0282505 -0.238928 171 
0.428763 -0.0283303 -0.238146 172 
0.429315 -0.0284393 -0.237367 171 
0.429571 -0.0284907 -0.236576 176 
0.430575 -0.0286874 -0.235808 178 
0.430833 -0.0287393 -0.235014 180 
0.430992 -0.0287721 -0.234216 176 
0.431352 -0.0288438 -0.233423 177 
0.431312 -0.0288379 -0.23262 177 
0.431975 -0.0289684 -0.231832 175 
0.432591 -0.0290897 -0.23104 174 
0.433057 -0.029182 -0.230244 181 
0.433474 -0.0292647 -0.229445 180 
0.433639 -0.0292986 -0.228641 180 
0.433754 -0.0293228 -0.227835 182 
0.434225 -0.0294161 -0.227033 181 
0.435054 -0.0295789 -0.226233 180 
0.434866 -0.0295442 -0.225422 180 
0.436211 -0.0298071 -0.224619 181 
0.436382 -0.0298421 -0.223808 179 
0.435529 -0.0296784 -0.222996 181 
0.436777 -0.0299225 -0.222184 179 
0.437001 -0.0299679 -0.221371 182 
0.437227 -0.0300135 -0.220557 186 
0.437556 -0.0300793 -0.219741 182 
0.438145 -0.0301955 -0.218922 182 
0.438114 -0.0301915 -0.218107 181 
0.439537 -0.0304696 -0.217275 182 
0.439664 -0.0304961 -0.216455 185 
0.439948 -0.0305531 -0.215632 183 
0.440704 -0.0307017 -0.2148 183 
0.440049 -0.0305764 -0.213993 181 
0.44044 -0.0306542 -0.213165 182 
0.440518 -0.0306713 -0.212344 180 
0.44212 -0.0309842 -0.211483 178 
0.442305 -0.0310221 -0.210655 185 
0.441543 -0.030876 -0.209853 185 
0.442362 -0.0310369 -0.209005 183 
0.442708 -0.031106 -0.20817 185 
0.443002 -0.031165 -0.207335 188 
0.442874 -0.031142 -0.206515 184 
0.443435 -0.0312529 -0.205668 184 
0.444051 -0.0313744 -0.204817 182 
0.445686 -0.0316937 -0.20392 180 
0.445345 -0.0316294 -0.203104 187 
0.445915 -0.031742 -0.202248 189 
0.44595 -0.0317507 -0.201414 188 
0.446415 -0.031843 -0.200559 190 
0.446183 -0.0317998 -0.199739 186 
0.44579 -0.0317255 -0.198928 188 
0.445989 -0.0317659 -0.198085 190 
0.446242 -0.031817 -0.197238 190 
0.446711 -0.0319101 -0.196377 194 
0.446482 -0.0318674 -0.195557 192 
0.446253 -0.0318249 -0.194738 188 
0.44624 -0.0318243 -0.193905 192 
0.446281 -0.0318342 -0.193069 192 
0.446593 -0.0318966 -0.192214 191 
0.44642 -0.031865 -0.191391 191 
0.446302 -0.031844 -0.190566 193 
0.446346 -0.0318545 -0.189728 186 
0.446337 -0.0318546 -0.188894 187 
0.446113 -0.0318131 -0.188076 189 
0.445998 -0.0317926 -0.187251 186 
0.445668 -0.0317305 -0.186443 185 
0.44593 -0.0317832 -0.185587 187 
0.446031 -0.0318049 -0.184743 189 
0.446295 -0.031858 -0.183885 189 
0.445806 -0.031765 -0.183093 192 
0.445373 -0.0316827 -0.182297 191 
0.44596 -0.0317986 -0.181407 195 
0.444457 -0.0315085 -0.180714 194 
0.445579 -0.0317284 -0.179772 191 
0.446222 -0.0318554 -0.178872 198 
0.446113 -0.0318362 -0.178045 195 
0.444825 -0.0315877 -0.177341 192 
0.444344 -0.0314962 -0.176556 188 
0.443598 -0.0313532 -0.175801 196 
0.444239 -0.0314796 -0.174897 199 
0.445741 -0.0317734 -0.173896 195 
0.443391 -0.0313186 -0.173323 192 
0.443394 -0.0313211 -0.172488 199 
0.443504 -0.0313444 -0.171641 194 
0.44303 -0.0312542 -0.170862 197 
0.442822 -0.0312157 -0.170053 195 
0.442668 -0.0311877 -0.169238 195 
0.441616 -0.0309851 -0.168534 192 
0.440937 -0.0308551 -0.167787 196 
0.440839 -0.0308378 -0.166968 198 
0.439901 -0.0306575 -0.166258 198 
0.439542 -0.0305897 -0.165475 196 
0.440022 -0.0306849 -0.164581 193 
0.439089 -0.0305054 -0.163877 195 
0.439831 -0.0306515 -0.162945 196 
0.4389 -0.0304724 -0.162243 193 
0.436833 -0.0300725 -0.161705 195 
0.436637 -0.0300363 -0.160907 195 
0.436184 -0.0299501 -0.160146 195 
0.435938 -0.0299042 -0.159356 193 
0.436157 -0.0299486 -0.158498 196 
0.436273 -0.029973 -0.157654 197 
0.435822 -0.0298874 -0.156896 193 
0.434809 -0.0296922 -0.156226 200 
0.433852 -0.0295079 -0.155551 201 
0.433662 -0.029473 -0.154757 201 
0.433422 -0.0294282 -0.153972 198 
0.433285 -0.0294035 -0.153171 195 
0.432894 -0.0293293 -0.152411 190 
0.432911 -0.0293344 -0.151585 193 
0.432877 -0.0293298 -0.150767 193 
0.432235 -0.0292067 -0.150052 188 
0.432506 -0.0292615 -0.149182 188 
0.430755 -0.0289227 -0.148662 186 
0.430522 -0.0288793 -0.147882 185 
0.430541 -0.0288849 -0.147057 182 
0.429857 -0.0287538 -0.146358 185 
0.430028 -0.0287889 -0.145506 186 
0.429898 -0.0287654 -0.144708 185 
0.429869 -0.0287617 -0.143892 185 
0.428938 -0.0285826 -0.143244 187 
0.42921 -0.0286374 -0.142372 186 
0.430035 -0.0287998 -0.141392 182 
0.429807 -0.0287573 -0.140612 192 
0.429781 -0.028754 -0.139794 180 
0.429905 -0.0287802 -0.138945 184 
0.42988 -0.0287771 -0.138125 181 
0.429353 -0.0286764 -0.137405 172 
0.429981 -0.0288005 -0.136453 179 
0.429555 -0.0287195 -0.135714 179 
0.429832 -0.0287755 -0.13483 178 
0.430061 -0.0288218 -0.133955 179 
0.43029 -0.0288683 -0.133079 177 
0.430067 -0.0288267 -0.132297 177 
0.430146 -0.028844 -0.131451 173 
0.430933 -0.0289991 -0.130451 173 
0.430659 -0.0289478 -0.129678 176 
0.430791 -0.0289753 -0.128817 173 
0.43067 -0.0289537 -0.128012 174 
0.431056 -0.0290307 -0.127092 170 
0.431088 -0.0290389 -0.126251 172 
0.432903 -0.029394 -0.125002 183 
0.431814 -0.029184 -0.124413 174 
0.432613 -0.0293414 -0.12339 171 
0.432086 -0.0292408 -0.122674 171 
0.432376 -0.0292992 -0.121767 171 
0.432003 -0.0292286 -0.121016 169 
0.432806 -0.0293867 -0.119983 170 
0.432535 -0.029336 -0.119207 168 
0.433084 -0.0294448 -0.118231 176 
0.433533 -0.0295341 -0.117277 173 
0.433726 -0.0295735 -0.116384 172 
0.43361 -0.029553 -0.115566 174 
0.433701 -0.0295727 -0.114697 177 
0.434102 -0.0296526 -0.113748 168 
0.434091 -0.0296525 -0.112902 168 
0.434339 -0.0297026 -0.111989 162 
0.435053 -0.0298437 -0.110953 166 
0.434992 -0.0298338 -0.110116 169 
0.435243 -0.0298845 -0.109197 166 
0.435546 -0.0299455 -0.108263 162 
0.435486 -0.0299358 -0.107424 165 
0.436365 -0.0301089 -0.106331 166 
0.435576 -0.0299573 -0.105687 169 
0.436509 -0.0301408 -0.104575 166 
0.436555 -0.0301519 -0.103703 167 
0.437494 -0.0303366 -0.102582 163 
0.4377 -0.0303787 -0.101662 163 
0.438012 -0.0304414 -0.10071 165 
0.438695 -0.0305764 -0.0996505 165 
0.438639 -0.0305675 -0.0987995 164 
0.440016 -0.0308378 -0.0975355 165 
0.439323 -0.0307049 -0.0968645 160 
0.439375 -0.0307169 -0.0959795 160 
0.440012 -0.0308431 -0.0949215 161 
0.441188 -0.0310741 -0.0937005 162 
0.440814 -0.0310032 -0.0929355 167 
0.441404 -0.0311202 -0.0918825 168 
0.442051 -0.0312482 -0.0908095 166 
0.441569 -0.0311563 -0.0900765 161 
0.442163 -0.0312741 -0.0890145 164 
0.442382 -0.0313188 -0.0880655 161 
0.442494 -0.0313425 -0.0871485 163 
0.442444 -0.0313348 -0.0862805 168 
0.442502 -0.0313483 -0.0853775 166 
0.442507 -0.0313513 -0.0844915 165 
0.442134 -0.0312807 -0.0837235 161 
0.44241 -0.0313365 -0.0827495 166 
0.442687 -0.0313925 -0.0817735 166 
0.44264 -0.0313853 -0.0809005 171 
0.442647 -0.0313888 -0.0800085 172 
0.442709 -0.0314029 -0.0790985 170 
0.442338 -0.0313327 -0.0783305 167 
0.442347 -0.0313364 -0.0774365 171 
0.441599 -0.0311927 -0.0767945 164 
0.440961 -0.0310704 -0.0761185 166 
0.441888 -0.0312531 -0.0749155 166 
0.44125 -0.0311308 -0.0742395 168 
0.440883 -0.0310613 -0.0734725 163 
0.441325 -0.0311495 -0.0724285 168 
0.441877 -0.0312591 -0.0713435 162 
0.440862 -0.0310634 -0.0708005 158 
0.441251 -0.0311414 -0.0697705 151 
0.441913 -0.0312724 -0.0686415 150 
0.441818 -0.0312559 -0.0677765 150 
0.441561 -0.0312078 -0.0669695 154 
0.442551 -0.031403 -0.0657155 153 
0.442675 -0.0314292 -0.0647695 154 
0.442799 -0.0314554 -0.0638215 153 
0.442923 -0.0314818 -0.0628725 159 
0.443212 -0.0315402 -0.0618615 146 
0.442847 -0.031471 -0.0610895 150 
0.443246 -0.0315509 -0.0600355 148 
0.443318 -0.031567 -0.0591005 144 
0.443609 -0.0316259 -0.0580825 141 
0.444231 -0.0317493 -0.0569375 139 
0.444691 -0.031841 -0.0558515 142 
0.444325 -0.0317717 -0.0550765 141 
0.445393 -0.0319821 -0.0537525 136 
0.444861 -0.0318805 -0.0530405 140 
0.445103 -0.0319297 -0.0520295 130 
0.445124 -0.031936 -0.0511025 140 
0.445367 -0.0319855 -0.0500875 132 
0.4455 -0.0320136 -0.0491145 134 
0.445634 -0.0320418 -0.0481405 132 
0.446715 -0.0322546 -0.0467875 136 
0.446237 -0.0321636 -0.0460525 128 
0.448107 -0.0325305 -0.0443755 121 
0.447908 -0.0324938 -0.0435245 111 
0.448102 -0.0325338 -0.0425145 110 
0.448016 -0.0325191 -0.0416175 110 
0.448212 -0.0325594 -0.0406035 108 
0.448972 -0.0327098 -0.0393565 104 
0.449 -0.0327174 -0.0384075 106 
0.449878 -0.0328909 -0.0371045 109 
0.449794 -0.0328766 -0.0361985 113 
0.451133 -0.03314 -0.0346935 107 
0.450137 -0.0329479 -0.0341695 103 
0.45108 -0.0331341 -0.0328255 105 
0.451283 -0.0331758 -0.0317915 111 
0.45143 -0.0332066 -0.0307805 112 
0.451691 -0.0332598 -0.0297185 110 
0.452184 -0.0333581 -0.0285545 108 
0.452217 -0.0333668 -0.0275865 113 
0.452886 -0.0334994 -0.0263405 109 
0.452286 -0.0333846 -0.0256475 107 
0.451745 -0.0332813 -0.0249305 101 
0.451953 -0.033324 -0.0238825 108 
0.452392 -0.0334118 -0.0227295 105 
0.452139 -0.0333648 -0.0218835 109 
0.45206 -0.0333516 -0.0209595 100 
0.453834 -0.0337 -0.0191965 107 
0.451846 -0.0333142 -0.0191355 121 
0.452461 -0.0334364 -0.0178925 103 
0.452847 -0.0335139 -0.0167515 101 
0.452307 -0.0334107 -0.0160345 105 
0.411082 -0.0211562 -0.420111 10 
0.414707 -0.0218283 -0.420975 12 
0.413268 -0.0215644 -0.419397 10 
0.412897 -0.0214978 -0.418336 15 
0.41373 -0.0216539 -0.417849 15 
0.414761 -0.0218465 -0.417453 13 
0.41294 -0.0215119 -0.415712 14 
0.40943 -0.0208649 -0.413187 12 
0.412875 -0.0215038 -0.413922 14 
0.416279 -0.0221352 -0.414625 13 
0.41382 -0.0216827 -0.412604 15 
0.414464 -0.0218037 -0.412022 18 
0.413035 -0.0215415 -0.410489 12 
0.4131 -0.0215555 -0.409644 18 
0.413165 -0.0215695 -0.408799 14 
0.417056 -0.0222911 -0.409683 20 
0.414546 -0.0218291 -0.407674 18 
0.415725 -0.0220491 -0.407327 13 
0.416229 -0.0221442 -0.406675 22 
0.413925 -0.0217202 -0.404778 17 
0.415391 -0.0219932 -0.404554 15 
0.415119 -0.0219449 -0.403561 18 
0.418302 -0.0225357 -0.404081 17 
0.417049 -0.0223059 -0.402658 22 
0.420111 -0.0228744 -0.40311 22 
0.420575 -0.0229622 -0.40243 16 
0.417203 -0.0223405 -0.400105 19 
0.42086 -0.0230189 -0.400793 23 
0.418464 -0.0225777 -0.398897 24 
0.420106 -0.0228835 -0.398718 24 
0.418161 -0.0225257 -0.397025 25 
0.420442 -0.0229497 -0.397108 24 
0.422149 -0.0232675 -0.396944 19 
0.422768 -0.0233839 -0.396323 22 
0.42219 -0.023279 -0.395207 20 
0.421862 -0.0232204 -0.394197 24 
0.420102 -0.0228968 -0.392605 25 
0.42365 -0.0235552 -0.393174 25 
0.422523 -0.0233487 -0.391843 25 
0.423343 -0.0235024 -0.391299 28 
0.423115 -0.0234622 -0.390334 24 
0.422838 -0.023413 -0.389351 34 
0.42416 -0.0236596 -0.389002 27 
0.424534 -0.0237308 -0.388275 30 
0.427641 -0.0243078 -0.388617 28 
0.42473 -0.0237712 -0.386605 28 
0.424403 -0.0237125 -0.385606 36 
0.425582 -0.0239329 -0.385189 31 
0.4244 -0.0237161 -0.383864 33 
0.426843 -0.0241702 -0.383925 33 
0.426159 -0.0240456 -0.382792 37 
0.426639 -0.0241364 -0.382102 39 
0.427627 -0.0243213 -0.3816 37 
0.428772 -0.0245354 -0.381154 33 
0.427931 -0.0243817 -0.379968 37 
0.42913 -0.0246055 -0.379538 35 
0.430849 -0.0249258 -0.379295 36 
0.429438 -0.0246665 -0.377903 30 
0.430695 -0.0249014 -0.377486 37 
0.430414 -0.0248512 -0.37651 38 
0.431264 -0.0250107 -0.375941 41 
0.430879 -0.0249415 -0.37493 36 
0.431474 -0.0250535 -0.374267 45 
0.431966 -0.0251467 -0.373568 37 
0.43246 -0.0252402 -0.372867 45 
0.433371 -0.0254108 -0.37231 38 
0.432673 -0.0252836 -0.371193 41 
0.434471 -0.0256185 -0.37094 44 
0.434866 -0.0256937 -0.370199 41 
0.434321 -0.0255948 -0.369138 46 
0.434612 -0.0256507 -0.368362 47 
0.435218 -0.0257648 -0.367692 42 
0.436088 -0.025928 -0.367108 44 
0.43855 -0.0263859 -0.367051 45 
0.435835 -0.0258852 -0.365274 41 
0.436287 -0.0259709 -0.364549 44 
0.437373 -0.026174 -0.364029 46 
0.437089 -0.0261234 -0.363062 43 
0.438338 -0.0263567 -0.36259 48 
0.438318 -0.0263551 -0.361708 49 
0.437664 -0.0262359 -0.360624 48 
0.439661 -0.0266079 -0.360383 47 
0.43911 -0.0265078 -0.359333 51 
0.438508 -0.0263982 -0.35827 48 
0.439286 -0.0265444 -0.357639 50 
0.439215 -0.0265333 -0.356743 48 
0.439996 -0.02668 -0.35611 53 
0.441907 -0.0270359 -0.355817 52 
0.440817 -0.0268361 -0.354611 47 
0.43984 -0.0266571 -0.353443 51 
0.440571 -0.0267945 -0.35279 53 
0.440076 -0.0267047 -0.351771 53 
0.439848 -0.0266646 -0.350833 53 
0.440953 -0.0268714 -0.350287 44 
0.440565 -0.0268015 -0.349303 49 
0.441193 -0.0269197 -0.348614 53 
0.442413 -0.0271478 -0.348093 53 
0.441488 -0.0269784 -0.346958 63 
0.442548 -0.0271769 -0.346388 74 
0.443236 -0.0273064 -0.34571 72 
0.442256 -0.0271267 -0.344565 74 
0.442405 -0.0271564 -0.343737 74 
0.441858 -0.027057 -0.342718 71 
0.44158 -0.0270075 -0.341775 69 
0.442428 -0.0271666 -0.341138 67 
0.44199 -0.0270874 -0.340153 68 
0.442302 -0.0271473 -0.339371 68 
0.442455 -0.0271776 -0.338545 65 
0.442179 -0.0271284 -0.337607 75 
0.442654 -0.0272185 -0.336867 74 
0.443023 -0.0272888 -0.336098 77 
0.443178 -0.0273195 -0.335273 80 
0.442849 -0.0272606 -0.334325 83 
0.44204 -0.0271126 -0.333257 81 
0.442142 -0.0271335 -0.332421 88 
0.441657 -0.0270455 -0.33144 80 
0.442723 -0.0272451 -0.330844 74 
0.442827 -0.0272663 -0.330009 74 
0.441062 -0.026941 -0.328719 84 
0.441272 -0.026982 -0.327913 79 
0.44143 -0.0270133 -0.327095 86 
0.439891 -0.0267298 -0.325874 84 
0.439626 -0.0266828 -0.324959 88 
0.438731 -0.0265188 -0.323899 85 
0.438837 -0.0265404 -0.323074 84 
0.438996 -0.0265718 -0.322262 81 
0.437218 -0.0262439 -0.321009 81 
0.436752 -0.0261594 -0.320059 83 
0.43608 -0.0260368 -0.319066 98 
0.436187 -0.0260587 -0.318248 90 
0.435519 -0.0259366 -0.31726 88 
0.435265 -0.0258915 -0.316366 86 
0.43455 -0.0257607 -0.315373 95 
0.433427 -0.0255544 -0.314297 92 
0.432413 -0.0253683 -0.313248 97 
0.432726 -0.0254283 -0.312483 99 
0.432073 -0.025309 -0.311516 103 
0.431523 -0.0252089 -0.310573 102 
0.431127 -0.0251374 -0.309664 110 
0.431694 -0.0252444 -0.308952 103 
0.431805 -0.025267 -0.308147 109 
0.430149 -0.0249617 -0.306991 107 
0.429408 -0.0248259 -0.306022 108 
0.429019 -0.0247557 -0.305125 103 
0.428133 -0.0245933 -0.304134 105 
0.427947 -0.0245606 -0.30328 107 
0.427563 -0.0244912 -0.30239 121 
0.427279 -0.0244405 -0.301521 119 
0.4267 -0.0243349 -0.300598 119 
0.42563 -0.0241383 -0.299589 122 
0.424812 -0.0239883 -0.29863 124 
0.424632 -0.0239569 -0.297788 119 
0.424845 -0.0239981 -0.297017 117 
0.422574 -0.0235786 -0.295811 121 
0.422979 -0.0236557 -0.295077 122 
0.422127 -0.0234993 -0.294127 126 
0.422339 -0.0235405 -0.293361 131 
0.421682 -0.0234205 -0.292449 125 
0.421077 -0.02331 -0.291548 128 
0.421097 -0.0233156 -0.290752 128 
0.421502 -0.0233927 -0.290019 133 
0.420803 -0.0232647 -0.289108 128 
0.421257 -0.0233508 -0.288382 134 
0.420464 -0.0232054 -0.287461 130 
0.42063 -0.0232381 -0.28669 138 
0.421133 -0.0233333 -0.285971 134 
0.420917 -0.023295 -0.285142 136 
0.420701 -0.0232568 -0.284314 133 
0.420678 -0.0232543 -0.283516 135 
0.421231 -0.0233587 -0.282801 131 
0.420873 -0.0232941 -0.281954 133 
0.420612 -0.0232474 -0.281123 130 
0.420686 -0.0232631 -0.28034 138 
0.421 -0.0233232 -0.27959 133 
0.420693 -0.023268 -0.278754 140 
0.420769 -0.0232839 -0.277972 135 
0.420272 -0.0231934 -0.277114 138 
0.420492 -0.0232361 -0.276351 138 
0.420617 -0.0232611 -0.275575 138 
0.420647 -0.0232685 -0.274788 137 
0.420582 -0.0232583 -0.273988 145 
0.420565 -0.023257 -0.273196 145 
0.420979 -0.0233357 -0.272455 143 
0.42039 -0.0232281 -0.271594 145 
0.420279 -0.0232093 -0.270792 140 
0.421604 -0.0234571 -0.270154 139 
0.421062 -0.0233584 -0.269302 146 
0.420618 -0.0232777 -0.268463 150 
0.420987 -0.0233481 -0.267714 150 
0.421166 -0.0233831 -0.266943 150 
0.421249 -0.0234004 -0.266163 154 
0.42239 -0.023614 -0.26549 151 
0.422378 -0.0236137 -0.264698 151 
0.421935 -0.0235331 -0.263863 150 
0.421732 -0.0234973 -0.263053 153 
0.421866 -0.023524 -0.262276 149 
0.421905 -0.023533 -0.261491 148 
0.421992 -0.023551 -0.260709 151 
0.422705 -0.0236853 -0.259984 156 
0.422939 -0.0237304 -0.259214 153 
0.422787 -0.023704 -0.25841 152 
0.423697 -0.023875 -0.257696 148 
0.423546 -0.0238487 -0.256892 153 
0.422912 -0.0237328 -0.25605 155 
0.424164 -0.0239672 -0.255358 157 
0.423723 -0.0238871 -0.254533 155 
0.4243 -0.0239961 -0.253785 157 
0.423618 -0.0238712 -0.252943 155 
0.424051 -0.0239534 -0.252183 153 
0.424922 -0.0241171 -0.251452 153 
0.425017 -0.0241366 -0.250666 154 
0.4256 -0.0242467 -0.249911 170 
0.425843 -0.0242937 -0.249133 163 
0.425598 -0.02425 -0.248324 166 
0.425891 -0.0243062 -0.247548 162 
0.426381 -0.024399 -0.246783 164 
0.42697 -0.0245104 -0.246021 169 
0.427857 -0.0246771 -0.245273 173 
0.428106 -0.0247252 -0.244489 174 
0.428207 -0.0247458 -0.243697 169 
0.42821 -0.0247482 -0.2429 167 
0.428412 -0.0247874 -0.242112 165 
0.428564 -0.0248176 -0.241321 170 
0.428816 -0.0248663 -0.240534 168 
0.429168 -0.0249336 -0.23975 172 
0.430219 -0.0251307 -0.238992 171 
0.430225 -0.0251337 -0.238191 174 
0.431031 -0.0252854 -0.237419 174 
0.430739 -0.0252328 -0.236607 171 
0.431548 -0.0253851 -0.235831 183 
0.431256 -0.0253326 -0.23502 175 
0.431766 -0.0254294 -0.234231 175 
0.431676 -0.0254144 -0.233426 177 
0.432138 -0.0255022 -0.232634 171 
0.433158 -0.0256936 -0.231852 174 
0.433068 -0.0256788 -0.231045 182 
0.433992 -0.0258524 -0.230256 181 
0.434055 -0.025866 -0.22945 176 
0.434679 -0.0259838 -0.228652 178 
0.436482 -0.026321 -0.227866 179 
0.435166 -0.0260781 -0.227041 179 
0.435539 -0.0261492 -0.226235 180 
0.436888 -0.0264019 -0.225434 183 
0.437058 -0.0264355 -0.224622 179 
0.437333 -0.0264885 -0.22381 184 
0.437248 -0.0264745 -0.222997 183 
0.43742 -0.0265085 -0.222184 182 
0.437491 -0.0265234 -0.22137 183 
0.437407 -0.0265097 -0.220557 178 
0.43815 -0.0266498 -0.219739 179 
0.439053 -0.0268195 -0.218917 178 
0.439699 -0.0269415 -0.218094 180 
0.440034 -0.0270057 -0.217272 179 
0.440632 -0.0271188 -0.216445 176 
0.440446 -0.0270861 -0.215628 180 
0.442414 -0.0274541 -0.214774 174 
0.440966 -0.0271866 -0.213979 175 
0.441149 -0.0272225 -0.213155 175 
0.442438 -0.0274642 -0.212304 179 
0.442571 -0.0274908 -0.211477 182 
0.442915 -0.0275568 -0.210644 189 
0.443473 -0.0276625 -0.209804 187 
0.44414 -0.0277884 -0.208958 185 
0.443744 -0.0277166 -0.208144 186 
0.443562 -0.0276846 -0.207324 187 
0.444764 -0.0279101 -0.206454 186 
0.444635 -0.0278881 -0.205631 192 
0.444614 -0.027886 -0.204804 186 
0.445716 -0.0280931 -0.203929 191 
0.446395 -0.0282212 -0.203068 188 
0.446752 -0.0282896 -0.20222 195 
0.446572 -0.028258 -0.201396 192 
0.4465 -0.0282465 -0.200568 194 
0.446644 -0.0282752 -0.199728 189 
0.446951 -0.0283342 -0.198878 189 
0.446611 -0.0282729 -0.198064 189 
0.446973 -0.0283421 -0.19721 188 
0.448148 -0.0285628 -0.196307 182 
0.447322 -0.0284109 -0.195521 187 
0.448283 -0.0285917 -0.194625 189 
0.448922 -0.0287126 -0.193747 192 
0.448638 -0.0286616 -0.192928 194 
0.446624 -0.0282886 -0.192229 193 
0.44699 -0.0283587 -0.191369 196 
0.446818 -0.0283286 -0.190546 193 
0.446916 -0.0283488 -0.189704 187 
0.447177 -0.0283992 -0.188849 190 
0.44733 -0.0284298 -0.188 183 
0.44689 -0.0283498 -0.187199 190 
0.448128 -0.0285821 -0.186262 185 
0.44623 -0.0282306 -0.185583 184 
0.446116 -0.0282114 -0.184757 185 
0.44638 -0.0282624 -0.183899 192 
0.446537 -0.0282935 -0.183049 191 
0.446694 -0.0283248 -0.182198 193 
0.446637 -0.028316 -0.181367 194 
0.446472 -0.0282873 -0.180546 192 
0.446524 -0.0282988 -0.179704 195 
0.446307 -0.0282603 -0.178888 197 
0.446467 -0.0282922 -0.178035 193 
0.446305 -0.0282639 -0.177214 198 
0.445552 -0.0281256 -0.176455 194 
0.446145 -0.0282379 -0.175555 196 
0.445232 -0.0280699 -0.174816 189 
0.443737 -0.0277934 -0.174145 189 
0.444167 -0.0278753 -0.173263 192 
0.44524 -0.0280771 -0.172305 196 
0.44396 -0.0278406 -0.171616 195 
0.442899 -0.027645 -0.170906 191 
0.442639 -0.0275984 -0.170104 188 
0.442644 -0.0276013 -0.16927 191 
0.442491 -0.0275747 -0.168455 187 
0.442285 -0.0275383 -0.167648 188 
0.441763 -0.027443 -0.166881 192 
0.440821 -0.0272695 -0.16617 192 
0.440199 -0.0271554 -0.16542 202 
0.440155 -0.0271491 -0.164595 198 
0.43943 -0.027016 -0.163862 200 
0.439335 -0.0270002 -0.163046 198 
0.439711 -0.0270723 -0.162163 197 
0.439932 -0.0271152 -0.161301 196 
0.438949 -0.026934 -0.16061 199 
0.437399 -0.0266472 -0.160004 200 
0.436945 -0.0265645 -0.159243 198 
0.436957 -0.0265687 -0.158414 199 
0.43666 -0.0265152 -0.157631 195 
0.436208 -0.026433 -0.156872 195 
0.436016 -0.0263991 -0.156075 199 
0.436082 -0.0264133 -0.155238 192 
0.433941 -0.0260163 -0.154749 198 
0.43411 -0.0260495 -0.153898 202 
0.433768 -0.0259877 -0.153129 199 
0.433529 -0.0259451 -0.152344 192 
0.43324 -0.0258931 -0.151568 198 
0.433053 -0.0258602 -0.150775 193 
0.432867 -0.0258275 -0.149983 190 
0.43314 -0.0258802 -0.149112 194 
0.433057 -0.0258666 -0.148302 193 
0.432974 -0.0258531 -0.147491 194 
0.432434 -0.0257544 -0.146761 191 
0.431138 -0.0255146 -0.146168 191 
0.431057 -0.0255015 -0.14536 185 
0.431027 -0.0254978 -0.144542 183 
0.430897 -0.0254755 -0.143743 183 
0.430717 -0.0254438 -0.142953 180 
0.430891 -0.0254781 -0.142096 181 
0.430409 -0.0253902 -0.141363 183 
0.430534 -0.0254152 -0.140515 179 
0.430709 -0.0254498 -0.139656 181 
0.430935 -0.0254939 -0.138786 179 
0.430758 -0.0254628 -0.137995 181 
0.43134 -0.0255731 -0.137052 179 
0.432432 -0.0257787 -0.136002 181 
0.431038 -0.0255207 -0.135456 179 
0.431927 -0.0256883 -0.134444 178 
0.431346 -0.0255819 -0.133734 177 
0.43239 -0.0257785 -0.132684 175 
0.431707 -0.025653 -0.131996 178 
0.431838 -0.0256793 -0.131136 176 
0.433143 -0.0259246 -0.130022 178 
0.432714 -0.0258464 -0.129279 179 
0.432285 -0.0257685 -0.128538 172 
0.432725 -0.0258525 -0.127605 175 
0.433269 -0.0259558 -0.126647 176 
0.433097 -0.0259256 -0.125848 179 
0.433182 -0.0259433 -0.12499 174 
0.433574 -0.0260185 -0.124061 176 
0.433404 -0.0259886 -0.12326 175 
0.433695 -0.0260449 -0.122351 172 
0.433937 -0.0260918 -0.121453 173 
0.43387 -0.0260813 -0.120626 171 
0.434576 -0.026215 -0.119614 173 
0.434304 -0.0261662 -0.118834 173 
0.4346 -0.0262233 -0.117917 171 
0.434949 -0.0262903 -0.116985 169 
0.434936 -0.0262899 -0.116141 171 
0.434975 -0.0262992 -0.115283 166 
0.434808 -0.0262699 -0.114476 172 
0.435315 -0.0263665 -0.113499 170 
0.435253 -0.0263567 -0.112664 173 
0.436022 -0.0265023 -0.111615 167 
0.436534 -0.0265997 -0.110629 170 
0.436264 -0.0265513 -0.109845 175 
0.436621 -0.0266198 -0.108896 169 
0.437189 -0.0267277 -0.107889 167 
0.437601 -0.0268066 -0.106921 166 
0.437699 -0.0268269 -0.106035 168 
0.438166 -0.0269161 -0.105048 173 
0.438635 -0.0270056 -0.104058 173 
0.438683 -0.0270164 -0.103182 171 
0.438731 -0.0270274 -0.102304 169 
0.438938 -0.027068 -0.101382 169 
0.43904 -0.0270891 -0.100487 166 
0.439196 -0.0271201 -0.0995755 172 
0.439724 -0.0272207 -0.0985575 170 
0.439403 -0.0271627 -0.0977795 178 
0.440841 -0.027433 -0.0964955 170 
0.44159 -0.0275748 -0.0954045 173 
0.441214 -0.0275066 -0.0946395 168 
0.441643 -0.0275888 -0.0936375 169 
0.441913 -0.0276411 -0.0926805 170 
0.441752 -0.0276132 -0.0918505 163 
0.441592 -0.0275854 -0.0910205 167 
0.44181 -0.0276279 -0.0900765 171 
0.441866 -0.0276404 -0.0891795 171 
0.441707 -0.0276129 -0.0883475 163 
0.441711 -0.0276155 -0.0874655 166 
0.441714 -0.0276182 -0.0865825 163 
0.441342 -0.0275507 -0.0858165 162 
0.440917 -0.0274734 -0.0850685 169 
0.441136 -0.0275164 -0.0841165 165 
0.441896 -0.0276603 -0.0829905 169 
0.440718 -0.0274423 -0.0824835 175 
0.442233 -0.0277272 -0.0811105 162 
0.441808 -0.0276499 -0.0803605 173 
0.441168 -0.0275325 -0.0796825 167 
0.440477 -0.0274054 -0.0790225 164 
0.440377 -0.0273889 -0.0781695 166 
0.4406 -0.0274326 -0.0772075 162 
0.440717 -0.0274563 -0.0762805 160 
0.44035 -0.0273898 -0.0755155 156 
0.440467 -0.0274137 -0.0745865 160 
0.439886 -0.0273073 -0.0738945 164 
0.440648 -0.0274518 -0.0727435 162 
0.442064 -0.0277182 -0.0713625 159 
0.440994 -0.0275204 -0.0708385 163 
0.441601 -0.0276357 -0.0697325 163 
0.442481 -0.0278022 -0.0685265 158 
0.44206 -0.0277256 -0.0677765 157 
0.441856 -0.0276897 -0.0669505 161 
0.442468 -0.0278059 -0.0658325 149 
0.443136 -0.0279329 -0.0646905 150 
0.442988 -0.0279072 -0.0638415 144 
0.442676 -0.027851 -0.0630505 144 
0.443074 -0.0279274 -0.0620015 146 
0.443035 -0.0279223 -0.0611095 145 
0.44349 -0.0280093 -0.0600355 140 
0.444111 -0.0281274 -0.0588965 142 
0.444183 -0.0281431 -0.0579595 135 
0.444422 -0.0281897 -0.0569585 144 
0.444772 -0.0282571 -0.0559135 140 
0.444681 -0.0282423 -0.0550345 142 
0.444977 -0.0282997 -0.0540065 131 
0.445384 -0.0283779 -0.0529335 144 
0.446182 -0.0285291 -0.0517075 137 
0.446538 -0.0285976 -0.0506495 136 
0.447453 -0.0287708 -0.0493695 136 
0.4477 -0.0288191 -0.0483485 133 
0.447332 -0.0287524 -0.0475675 130 
0.446573 -0.0286128 -0.0469425 125 
0.448671 -0.029007 -0.0451805 120 
0.449035 -0.0290771 -0.0441035 111 
0.4494 -0.0291474 -0.0430245 106 
0.450788 -0.029409 -0.0415285 101 
0.449057 -0.0290877 -0.0412955 98 
0.449934 -0.0292536 -0.0400015 108 
0.449962 -0.029261 -0.0390525 106 
0.4509 -0.0294386 -0.0377265 106 
0.450588 -0.0293823 -0.0369145 107 
0.451531 -0.0295607 -0.0355795 106 
0.452192 -0.0296865 -0.0343565 107 
0.451477 -0.0295551 -0.0337115 114 
0.45168 -0.0295952 -0.0326795 117 
0.451368 -0.029539 -0.0318645 126 
0.452031 -0.0296651 -0.0306335 119 
0.452236 -0.0297056 -0.0295945 122 
0.451867 -0.0296387 -0.0288025 122 
0.451383 -0.0295505 -0.0280615 114 
0.451934 -0.0296557 -0.0268695 104 
0.451795 -0.029632 -0.0259765 110 
0.452694 -0.0298023 -0.0246255 113 
0.452268 -0.0297247 -0.0238575 108 
0.452073 -0.0296905 -0.0229865 104 
0.452397 -0.0297533 -0.0218835 112 
0.452145 -0.0297084 -0.0210375 115 
0.452644 -0.0298039 -0.0198525 116 
0.452335 -0.0297483 -0.0190305 123 
0.453299 -0.0299309 -0.0176285 114 
0.452584 -0.0297993 -0.0169905 111 
0.452623 -0.0298088 -0.0160085 113 
0.413118 -0.0181986 -0.421015 14 
0.414002 -0.0183568 -0.420555 14 
0.415327 -0.018593 -0.420303 15 
0.412533 -0.0181014 -0.418083 17 
0.413125 -0.018208 -0.417483 10 
0.41605 -0.018727 -0.417982 16 
0.41301 -0.0181917 -0.415666 13 
0.417057 -0.0189091 -0.416681 16 
0.411938 -0.0180061 -0.413408 13 
0.413345 -0.0182569 -0.413185 19 
0.414326 -0.0184323 -0.41276 12 
0.4141 -0.0183944 -0.411778 16 
0.413249 -0.018246 -0.410511 18 
0.415878 -0.0187127 -0.410833 22 
0.417212 -0.0189506 -0.410558 16 
0.418653 -0.0192074 -0.410326 17 
0.414474 -0.0184705 -0.407566 18 
0.415507 -0.0186553 -0.407154 17 
0.413402 -0.018285 -0.405342 17 
0.414817 -0.0185372 -0.405098 21 
0.415706 -0.0186965 -0.404618 16 
0.41587 -0.0187274 -0.403816 22 
0.41882 -0.0192512 -0.404231 27 
0.416685 -0.0188755 -0.402425 20 
0.417533 -0.0190275 -0.401919 25 
0.418924 -0.0192756 -0.401643 26 
0.418403 -0.0191854 -0.400544 21 
0.420047 -0.0194782 -0.400371 18 
0.418933 -0.0192831 -0.399022 27 
0.418168 -0.0191499 -0.397826 25 
0.419661 -0.019416 -0.397581 22 
0.421463 -0.0197366 -0.39746 27 
0.422628 -0.0199449 -0.397068 28 
0.421007 -0.01966 -0.39552 25 
0.420978 -0.0196569 -0.394634 23 
0.420554 -0.0195839 -0.393588 25 
0.421268 -0.0197122 -0.393007 28 
0.421488 -0.0197531 -0.392225 25 
0.421907 -0.0198292 -0.391522 24 
0.423024 -0.0200289 -0.391098 27 
0.422349 -0.0199114 -0.389956 26 
0.422222 -0.019891 -0.389034 27 
0.423991 -0.0202061 -0.388863 30 
0.424566 -0.0203098 -0.388216 29 
0.425394 -0.0204583 -0.387666 35 
0.42724 -0.0207869 -0.387509 32 
0.425491 -0.0204794 -0.385956 30 
0.426829 -0.0207183 -0.385598 36 
0.428686 -0.0210489 -0.385434 27 
0.429222 -0.0211458 -0.38476 35 
0.426952 -0.020746 -0.383022 31 
0.427891 -0.0209142 -0.382503 35 
0.428222 -0.0209747 -0.381753 33 
0.427636 -0.0208731 -0.380661 35 
0.432285 -0.0216979 -0.381511 31 
0.430655 -0.0214114 -0.38003 30 
0.430578 -0.0213997 -0.379125 31 
0.431171 -0.0215067 -0.378465 31 
0.430373 -0.0213675 -0.3773 41 
0.432414 -0.0217307 -0.377161 37 
0.430838 -0.0214539 -0.37572 38 
0.432053 -0.0216709 -0.375279 35 
0.432391 -0.0217328 -0.374524 39 
0.43299 -0.0218408 -0.37386 40 
0.432499 -0.021756 -0.372813 43 
0.434036 -0.02203 -0.372474 45 
0.433908 -0.0220094 -0.371553 45 
0.434146 -0.0220535 -0.37076 48 
0.435169 -0.0222367 -0.370235 45 
0.434623 -0.022142 -0.369173 47 
0.436332 -0.0224466 -0.368876 49 
0.436257 -0.0224354 -0.367974 45 
0.43592 -0.0223776 -0.366985 48 
0.436793 -0.0225343 -0.3664 45 
0.437247 -0.0226166 -0.365674 42 
0.436488 -0.0224842 -0.364549 45 
0.436994 -0.0225759 -0.36384 44 
0.43766 -0.0226959 -0.363182 43 
0.441212 -0.023327 -0.36345 46 
0.438521 -0.0228524 -0.361708 47 
0.439406 -0.023011 -0.361114 45 
0.437742 -0.0227183 -0.359712 51 
0.439794 -0.0230838 -0.359484 45 
0.441327 -0.0233574 -0.359086 46 
0.440451 -0.0232043 -0.357937 48 
0.441129 -0.0233264 -0.35727 44 
0.44063 -0.0232399 -0.356241 47 
0.44088 -0.0232863 -0.355442 51 
0.440436 -0.0232095 -0.354433 57 
0.440313 -0.0231897 -0.353523 53 
0.441367 -0.0233785 -0.352965 54 
0.441727 -0.0234443 -0.352198 52 
0.441282 -0.0233675 -0.351194 51 
0.442611 -0.0236049 -0.35071 57 
0.441575 -0.0234234 -0.349536 55 
0.443879 -0.0238335 -0.349328 52 
0.443 -0.0236798 -0.348201 56 
0.443797 -0.0238231 -0.347555 57 
0.443189 -0.0237174 -0.34651 60 
0.443988 -0.0238609 -0.345861 67 
0.442734 -0.0236407 -0.344639 64 
0.442669 -0.0236312 -0.343752 66 
0.443304 -0.0237458 -0.343057 69 
0.443132 -0.0237172 -0.34214 66 
0.443284 -0.0237461 -0.341312 61 
0.443113 -0.0237178 -0.340398 57 
0.442673 -0.0236419 -0.339414 67 
0.442772 -0.0236614 -0.338574 69 
0.443195 -0.0237383 -0.337819 74 
0.442703 -0.0236531 -0.336825 74 
0.442535 -0.0236253 -0.335917 78 
0.442154 -0.0235597 -0.334956 81 
0.442684 -0.0236556 -0.334229 86 
0.443215 -0.0237519 -0.333501 76 
0.443103 -0.0237339 -0.332609 77 
0.442776 -0.0236779 -0.331666 79 
0.442129 -0.0235653 -0.330646 86 
0.441752 -0.0235003 -0.329694 87 
0.441483 -0.0234545 -0.328771 88 
0.442067 -0.0235602 -0.328055 80 
0.442066 -0.0235618 -0.327197 86 
0.441371 -0.0234407 -0.326176 89 
0.440574 -0.0233012 -0.325133 86 
0.440786 -0.0233408 -0.32433 86 
0.439253 -0.0230709 -0.323123 88 
0.43936 -0.0230918 -0.322298 88 
0.438048 -0.0228612 -0.321151 83 
0.438103 -0.0228729 -0.320318 82 
0.437792 -0.0228197 -0.319403 88 
0.436545 -0.0226004 -0.318283 87 
0.435978 -0.0225018 -0.317317 97 
0.435776 -0.0224679 -0.316433 94 
0.434594 -0.0222602 -0.31534 95 
0.434189 -0.0221903 -0.314417 89 
0.43399 -0.022157 -0.313541 98 
0.433587 -0.0220874 -0.312622 101 
0.432014 -0.0218103 -0.311463 105 
0.432837 -0.0219582 -0.310803 106 
0.431119 -0.0216553 -0.309623 106 
0.431382 -0.0217038 -0.30885 107 
0.429929 -0.021448 -0.307732 109 
0.429738 -0.0214161 -0.306872 107 
0.429449 -0.0213666 -0.305992 108 
0.42871 -0.0212374 -0.305028 107 
0.428223 -0.0211529 -0.304115 124 
0.428087 -0.0211306 -0.30327 119 
0.427702 -0.0210643 -0.302381 119 
0.427716 -0.0210686 -0.301567 120 
0.426987 -0.020941 -0.300617 121 
0.426655 -0.0208841 -0.299742 108 
0.426128 -0.0207924 -0.298834 108 
0.425406 -0.0206662 -0.297893 113 
0.424394 -0.0204884 -0.296905 124 
0.425293 -0.0206498 -0.296254 128 
0.423357 -0.0203081 -0.295111 129 
0.422986 -0.0202442 -0.294243 117 
0.422327 -0.020129 -0.293328 129 
0.42225 -0.0201171 -0.292513 132 
0.421738 -0.0200283 -0.291627 131 
0.421085 -0.0199141 -0.290721 126 
0.421154 -0.0199282 -0.289933 128 
0.421127 -0.0199253 -0.289131 128 
0.420957 -0.0198969 -0.288307 132 
0.421123 -0.0199282 -0.287536 128 
0.421868 -0.0200622 -0.286853 133 
0.421602 -0.0200168 -0.286015 130 
0.421385 -0.0199802 -0.285185 137 
0.421169 -0.0199437 -0.284357 132 
0.421002 -0.0199158 -0.283537 131 
0.420548 -0.0198371 -0.282676 134 
0.421005 -0.01992 -0.281947 135 
0.420648 -0.0198584 -0.281103 135 
0.420578 -0.0198479 -0.2803 138 
0.421085 -0.0199396 -0.279576 142 
0.421064 -0.0199378 -0.27878 151 
0.420566 -0.0198511 -0.277921 144 
0.420977 -0.019926 -0.277183 146 
0.421534 -0.0200267 -0.276462 147 
0.421084 -0.0199486 -0.275612 151 
0.42145 -0.0200154 -0.274866 152 
0.421288 -0.0199885 -0.274053 146 
0.420984 -0.0199363 -0.273225 146 
0.421399 -0.0200118 -0.272483 148 
0.421623 -0.0200534 -0.271718 153 
0.421656 -0.020061 -0.270931 150 
0.421689 -0.0200687 -0.270143 152 
0.421867 -0.0201021 -0.269372 149 
0.421805 -0.0200929 -0.268574 153 
0.422706 -0.0202548 -0.26788 155 
0.422645 -0.0202458 -0.267081 151 
0.422536 -0.0202282 -0.266278 153 
0.42262 -0.020245 -0.265495 152 
0.42232 -0.0201935 -0.264673 149 
0.423177 -0.0203476 -0.263968 153 
0.423457 -0.0203991 -0.263203 156 
0.42335 -0.0203819 -0.2624 152 
0.423341 -0.020382 -0.261607 152 
0.423332 -0.0203822 -0.260815 152 
0.424001 -0.020503 -0.260083 153 
0.424284 -0.0205551 -0.259316 151 
0.423743 -0.0204608 -0.258476 155 
0.424173 -0.0205389 -0.257721 155 
0.424118 -0.020531 -0.256924 157 
0.4245 -0.0206008 -0.256163 154 
0.424544 -0.0206102 -0.255374 155 
0.42522 -0.0207323 -0.254633 151 
0.425411 -0.020768 -0.253853 152 
0.425456 -0.0207778 -0.253063 153 
0.42599 -0.0208745 -0.252307 158 
0.42633 -0.0209368 -0.251536 162 
0.426622 -0.0209905 -0.250761 163 
0.426179 -0.0209135 -0.249937 162 
0.426619 -0.0209935 -0.24917 162 
0.428095 -0.0212578 -0.248465 166 
0.428095 -0.0212595 -0.247668 167 
0.428392 -0.0213141 -0.246887 167 
0.428541 -0.0213425 -0.246098 170 
0.428642 -0.0213622 -0.245305 166 
0.429637 -0.0215408 -0.244558 171 
0.428795 -0.021393 -0.243717 171 
0.429294 -0.0214836 -0.242942 171 
0.429745 -0.0215656 -0.242164 167 
0.429849 -0.0215858 -0.241369 168 
0.429604 -0.0215443 -0.240559 172 
0.430807 -0.0217599 -0.239808 165 
0.430763 -0.0217538 -0.239005 173 
0.43137 -0.0218636 -0.238226 174 
0.430526 -0.0217154 -0.237394 174 
0.432088 -0.0219949 -0.236645 179 
0.431995 -0.0219803 -0.235839 179 
0.432004 -0.0219837 -0.235036 179 
0.433123 -0.0221844 -0.234263 177 
0.433487 -0.022251 -0.233467 175 
0.433802 -0.0223088 -0.232669 174 
0.434117 -0.0223667 -0.231869 176 
0.434434 -0.0224249 -0.231068 178 
0.434192 -0.0223837 -0.230256 177 
0.434917 -0.0225145 -0.229461 177 
0.435543 -0.0226277 -0.228661 180 
0.435916 -0.0226958 -0.227857 179 
0.436957 -0.0228829 -0.227057 181 
0.436921 -0.0228783 -0.226245 183 
0.437246 -0.022938 -0.225435 182 
0.437727 -0.0230254 -0.224625 181 
0.437692 -0.0230211 -0.223811 185 
0.437865 -0.0230537 -0.222998 182 
0.437987 -0.0230772 -0.222184 181 
0.438161 -0.02311 -0.221369 184 
0.439167 -0.0232907 -0.22055 180 
0.439917 -0.023426 -0.219729 176 
0.439624 -0.0233759 -0.218914 179 
0.439855 -0.0234187 -0.218094 180 
0.440818 -0.023592 -0.217265 182 
0.441103 -0.0236446 -0.216441 179 
0.442761 -0.0239412 -0.215595 178 
0.442521 -0.0239004 -0.214776 173 
0.442176 -0.023841 -0.21396 177 
0.442783 -0.0239508 -0.213124 175 
0.443127 -0.0240139 -0.212293 179 
0.444163 -0.0242001 -0.211442 179 
0.443393 -0.0240651 -0.210637 182 
0.443899 -0.0241571 -0.209798 183 
0.444301 -0.0242304 -0.208959 187 
0.445453 -0.0244372 -0.208095 182 
0.445751 -0.0244922 -0.207256 183 
0.446535 -0.0246335 -0.206397 186 
0.445707 -0.0244881 -0.205598 189 
0.446869 -0.0246968 -0.204721 192 
0.446525 -0.0246375 -0.203904 193 
0.446559 -0.0246454 -0.203071 194 
0.446809 -0.0246918 -0.202228 190 
0.447384 -0.0247961 -0.201368 192 
0.448504 -0.0249973 -0.200479 191 
0.448378 -0.0249768 -0.199649 185 
0.447981 -0.0249081 -0.198835 195 
0.448508 -0.0250037 -0.197971 188 
0.449746 -0.025226 -0.197064 190 
0.448912 -0.0250796 -0.196274 188 
0.44868 -0.0250402 -0.195451 187 
0.450141 -0.025302 -0.194522 191 
0.449635 -0.025214 -0.193715 192 
0.449842 -0.0252527 -0.192862 193 
0.449885 -0.0252623 -0.19202 194 
0.449655 -0.0252233 -0.191196 188 
0.449317 -0.025165 -0.190381 186 
0.448436 -0.0250101 -0.189607 181 
0.448698 -0.0250588 -0.188749 182 
0.448799 -0.0250786 -0.187903 179 
0.447976 -0.024934 -0.18713 182 
0.447372 -0.0248285 -0.186342 182 
0.447366 -0.0248292 -0.185506 185 
0.446873 -0.0247434 -0.184711 188 
0.447409 -0.0248407 -0.183828 191 
0.447512 -0.024861 -0.182982 190 
0.448485 -0.0250363 -0.182055 189 
0.447234 -0.0248153 -0.181332 192 
0.447069 -0.0247879 -0.18051 191 
0.446742 -0.0247316 -0.179704 188 
0.446795 -0.0247429 -0.178861 190 
0.446524 -0.0246966 -0.178051 182 
0.445823 -0.0245737 -0.177285 186 
0.446254 -0.0246524 -0.176404 187 
0.44534 -0.0244916 -0.175664 190 
0.445342 -0.0244937 -0.174828 194 
0.444433 -0.0243338 -0.174092 196 
0.444435 -0.0243361 -0.173257 193 
0.444011 -0.0242624 -0.17247 188 
0.443641 -0.0241985 -0.171678 194 
0.442953 -0.0240779 -0.170925 198 
0.442746 -0.0240428 -0.170117 196 
0.442804 -0.0240552 -0.169277 196 
0.442598 -0.0240203 -0.168469 193 
0.441123 -0.0237595 -0.16782 200 
0.440709 -0.0236876 -0.167042 196 
0.4404 -0.0236346 -0.166251 193 
0.440303 -0.0236192 -0.165434 195 
0.440207 -0.0236039 -0.164616 195 
0.439115 -0.0234114 -0.163933 199 
0.438864 -0.0233684 -0.163139 194 
0.438613 -0.0233256 -0.162345 198 
0.43779 -0.023181 -0.161632 202 
0.437178 -0.0230739 -0.160892 195 
0.437345 -0.0231055 -0.160041 198 
0.436891 -0.0230264 -0.159281 195 
0.4368 -0.0230121 -0.158468 199 
0.436606 -0.0229794 -0.15767 199 
0.436619 -0.0229837 -0.156841 195 
0.435601 -0.0228042 -0.15617 198 
0.434588 -0.0226256 -0.155503 197 
0.434347 -0.0225844 -0.154717 195 
0.435646 -0.0228179 -0.153685 194 
0.433866 -0.0225026 -0.153146 194 
0.433627 -0.0224618 -0.152361 197 
0.434104 -0.0225487 -0.151458 198 
0.433355 -0.0224171 -0.150758 195 
0.433373 -0.0224221 -0.149931 196 
0.433238 -0.0224 -0.14913 190 
