0.436664,-0.12054,0.159533,153
0.436473,-0.120464,0.160366,152
0.436902,-0.120642,0.161442,152
0.43697,-0.120672,0.162379,145
0.436468,-0.120469,0.163091,150
0.4369,-0.120648,0.164173,157
0.437072,-0.120721,0.165155,152
0.437246,-0.120794,0.166138,149
0.436796,-0.120612,0.166871,149
0.437126,-0.12075,0.16792,145
0.437249,-0.120802,0.168886,154
0.437112,-0.120748,0.169748,151
0.43734,-0.120844,0.17076,148
0.436944,-0.120684,0.171514,148
0.43712,-0.120758,0.172507,149
0.436776,-0.12062,0.173283,148
0.436745,-0.120609,0.174191,147
0.437758,-0.121026,0.175541,144
0.437257,-0.120824,0.176252,134
0.437697,-0.121006,0.177365,135
0.437563,-0.120954,0.178233,131
0.437848,-0.121073,0.179283,125
0.438029,-0.121149,0.18029,126
0.437268,-0.120839,0.180887,120
0.437292,-0.120851,0.181826,120
0.437526,-0.120949,0.182859,120
0.437865,-0.121091,0.18394,122
0.437314,-0.120867,0.184627,114
0.436764,-0.120644,0.185313,115
0.43679,-0.120657,0.186256,126
0.437444,-0.120927,0.187486,130
0.437209,-0.120833,0.188314,129
0.436555,-0.120568,0.188951,128
0.436844,-0.120688,0.190018,125
0.436976,-0.120745,0.191016,122
0.436638,-0.120608,0.191797,125
0.436823,-0.120686,0.192822,121
0.436852,-0.120701,0.193774,114
0.436252,-0.120457,0.194433,117
0.4367,-0.120643,0.195585,109
0.436363,-0.120507,0.196367,120
0.436184,-0.120436,0.197223,121
0.435326,-0.120086,0.197754,122
0.435512,-0.120165,0.198786,133
0.435073,-0.119988,0.199516,111
0.435678,-0.120238,0.200754,117
0.434823,-0.119889,0.201281,123
0.401313,-0.101743,-0.195677,12
0.404295,-0.102933,-0.196326,13
0.399898,-0.101183,-0.19322,15
0.403077,-0.102452,-0.193961,15
0.403003,-0.102425,-0.193052,15
0.40108,-0.10166,-0.19122,14
0.405842,-0.10356,-0.192727,14
0.40447,-0.103015,-0.191171,13
0.401478,-0.101825,-0.188824,16
0.403744,-0.10273,-0.189074,13
0.405409,-0.103396,-0.189021,20
0.402538,-0.102254,-0.186753,13
0.403305,-0.102562,-0.186261,14
0.405144,-0.103296,-0.186284,19
0.404982,-0.103234,-0.185339,17
0.40724,-0.104136,-0.185553,19
0.406941,-0.104019,-0.18454,18
0.405613,-0.103492,-0.183042,18
0.40702,-0.104055,-0.182841,20
0.405871,-0.103599,-0.181435,16
0.404552,-0.103076,-0.179955,21
0.406937,-0.104028,-0.180203,22
0.406731,-0.103948,-0.179243,18
0.407288,-0.104172,-0.178636,17
0.407532,-0.104271,-0.177884,26
0.40773,-0.104352,-0.177111,20
0.408471,-0.10465,-0.176584,17
0.407993,-0.104462,-0.175505,19
0.408735,-0.104759,-0.174976,24
0.409162,-0.104932,-0.174304,22
0.408142,-0.104527,-0.172987,26
0.409337,-0.105006,-0.172656,23
0.409403,-0.105034,-0.171823,21
0.408699,-0.104755,-0.170654,24
0.410488,-0.105471,-0.170575,24
0.410646,-0.105535,-0.169781,27
0.411077,-0.105709,-0.169106,20
0.413302,-0.106598,-0.1692,23
0.412402,-0.106242,-0.167949,26
0.410685,-0.105559,-0.166356,27
0.411436,-0.105861,-0.165816,30
0.411367,-0.105835,-0.164927,30
0.412948,-0.106468,-0.16473,30
0.414633,-0.107142,-0.164571,31
0.412533,-0.106306,-0.162837,30
0.413568,-0.106721,-0.162404,32
0.414052,-0.106916,-0.161743,27
0.413798,-0.106817,-0.160779,29
0.41258,-0.106334,-0.159425,34
0.414353,-0.107043,-0.159285,36
0.415258,-0.107405,-0.158789,36
0.416633,-0.107956,-0.158477,32
0.415306,-0.107429,-0.157088,34
0.414497,-0.107108,-0.15591,32
0.413554,-0.106734,-0.154684,38
0.415474,-0.107502,-0.15458,41
0.414573,-0.107145,-0.153373,37
0.415108,-0.10736,-0.152725,40
0.414902,-0.10728,-0.151792,37
0.415903,-0.107681,-0.15132,43
0.41565,-0.107583,-0.150369,34
0.416375,-0.107874,-0.149789,44
0.416076,-0.107757,-0.148822,47
0.414668,-0.107197,-0.147444,44
0.416783,-0.108043,-0.147379,43
0.417465,-0.108317,-0.146777,44
0.416281,-0.107847,-0.145489,44
0.416589,-0.107971,-0.14475,45
0.417223,-0.108227,-0.14413,46
0.418094,-0.108576,-0.143592,43
0.417142,-0.108198,-0.142399,46
0.416521,-0.107953,-0.141328,47
0.417809,-0.108469,-0.140936,48
0.417746,-0.108445,-0.140064,45
0.416659,-0.108014,-0.138834,51
0.417668,-0.108418,-0.138339,52
0.417234,-0.108247,-0.137341,47
0.417312,-0.10828,-0.136522,50
0.418184,-0.10863,-0.135974,52
0.41789,-0.108515,-0.135028,48
0.418764,-0.108866,-0.134477,56
0.418189,-0.108639,-0.133438,53
0.417616,-0.108412,-0.132403,56
0.417185,-0.108242,-0.131418,55
0.416709,-0.108054,-0.13042,55
0.417765,-0.108478,-0.129925,51
0.417149,-0.108234,-0.128884,56
0.419144,-0.109032,-0.128687,58
0.416989,-0.108174,-0.127155,60
0.417025,-0.10819,-0.126329,62
0.416644,-0.108041,-0.125372,60
0.417701,-0.108464,-0.124868,58
0.415934,-0.107761,-0.12348,60
0.417311,-0.108313,-0.123074,58
0.415871,-0.10774,-0.121796,58
0.416416,-0.10796,-0.121131,65
0.415764,-0.107702,-0.120101,59
0.415298,-0.107518,-0.119131,67
0.415567,-0.107627,-0.118383,70
0.415836,-0.107737,-0.117634,72
0.415463,-0.10759,-0.116696,75
0.415183,-0.10748,-0.115787,71
0.414629,-0.107261,-0.114801,73
0.414351,-0.107152,-0.113896,81
0.416086,-0.107846,-0.11357,75
0.41512,-0.107463,-0.112469,78
0.414386,-0.107172,-0.111439,78
0.415068,-0.107446,-0.110809,78
0.415111,-0.107465,-0.109998,78
0.414652,-0.107284,-0.10905,77
0.414286,-0.10714,-0.10813,76
0.413786,-0.106942,-0.107175,79
0.413241,-0.106727,-0.106212,85
0.413196,-0.106711,-0.105384,88
0.413151,-0.106695,-0.104557,88
0.412791,-0.106553,-0.103648,87
0.412792,-0.106556,-0.102835,78
0.412838,-0.106576,-0.102035,83
0.411762,-0.106149,-0.100946,86
0.411406,-0.106009,-0.100046,88
0.411096,-0.105887,-0.0991599,87
0.410832,-0.105784,-0.0982868,94
0.409902,-0.105415,-0.0972497,95
0.409907,-0.105418,-0.0964475,97
0.408895,-0.105016,-0.0953971,101
0.408635,-0.104915,-0.094534,103
0.408289,-0.104779,-0.0936516,102
0.408032,-0.104678,-0.0927923,102
0.40747,-0.104455,-0.0918623,103
0.407608,-0.104513,-0.0910994,106
0.406307,-0.103995,-0.0900023,94
0.405362,-0.10362,-0.0889927,99
0.404939,-0.103453,-0.0881066,105
0.404948,-0.103459,-0.0873205,114
0.404656,-0.103344,-0.0864673,113
0.404881,-0.103436,-0.0857305,113
0.404934,-0.103459,-0.0849556,117
0.404472,-0.103276,-0.0840684,122
0.404956,-0.103471,-0.0833879,124
0.405442,-0.103667,-0.0827063,125
0.405195,-0.103571,-0.0818679,129
0.405682,-0.103767,-0.0811849,125
0.405133,-0.10355,-0.0802853,128
0.404974,-0.103488,-0.0794684,123
0.405289,-0.103616,-0.0787491,128
0.405734,-0.103795,-0.0780553,130
0.405705,-0.103786,-0.0772654,137
0.405805,-0.103828,-0.0765017,128
0.405691,-0.103784,-0.0756959,132
0.405879,-0.103861,-0.0749495,127
0.405981,-0.103903,-0.0741863,129
0.405911,-0.103877,-0.0733904,131
0.406403,-0.104076,-0.0727006,130
0.406853,-0.104257,-0.0720015,135
0.406307,-0.104041,-0.0711183,142
0.406541,-0.104137,-0.0703791,139
0.406646,-0.10418,-0.0696161,140
0.407402,-0.104484,-0.0689686,138
0.407769,-0.104633,-0.0682501,146
0.40744,-0.104503,-0.0674101,139
0.407503,-0.10453,-0.0666388,141
0.40735,-0.104471,-0.065831,136
0.408197,-0.104811,-0.0651915,147
0.407695,-0.104613,-0.0643261,149
0.407978,-0.104727,-0.0635911,150
0.407913,-0.104703,-0.0627992,148
0.408415,-0.104905,-0.0620981,148
0.409049,-0.105161,-0.0614161,153
0.408985,-0.105137,-0.0606236,152
0.40879,-0.105061,-0.0598117,153
0.409164,-0.105212,-0.0590868,155
0.409232,-0.105241,-0.0583152,150
0.409564,-0.105376,-0.0575823,158
0.410028,-0.105563,-0.0568677,158
0.410054,-0.105575,-0.0560888,157
0.410036,-0.10557,-0.0553039,159
0.409887,-0.105512,-0.0545012,152
0.410398,-0.105718,-0.0537898,152
0.411043,-0.105978,-0.0530946,156
0.410806,-0.105885,-0.05228,156
0.410437,-0.10574,-0.0514495,159
0.410642,-0.105824,-0.0506945,154
0.411955,-0.106349,-0.0500794,161
0.411896,-0.106328,-0.0492882,164
0.411793,-0.106289,-0.0484922,163
0.412356,-0.106516,-0.0477772,160
0.412165,-0.106441,-0.0469707,162
0.412463,-0.106562,-0.0462223,164
0.412584,-0.106612,-0.0454527,172
0.412528,-0.106592,-0.0446628,169
0.412739,-0.106678,-0.0439029,168
0.412773,-0.106693,-0.0431232,167
0.412851,-0.106726,-0.0423484,170
0.413108,-0.106831,-0.0415922,172
0.413143,-0.106847,-0.0408124,171
0.413536,-0.107006,-0.0400687,167
0.41393,-0.107165,-0.0393237,167
0.413876,-0.107146,-0.0385342,171
0.414676,-0.107467,-0.0378258,174
0.414758,-0.107502,-0.037048,178
0.414886,-0.107555,-0.0362741,178
0.41515,-0.107662,-0.035512,172
0.415594,-0.107841,-0.0347647,172
0.415634,-0.107859,-0.0339815,173
0.416398,-0.108166,-0.0332583,175
0.415805,-0.107931,-0.0324226,172
0.416615,-0.108257,-0.0317001,176
0.41643,-0.108185,-0.030898,177
0.41679,-0.10833,-0.0301375,178
0.416923,-0.108385,-0.0293594,177
0.416921,-0.108386,-0.0285712,178
0.41751,-0.108624,-0.0278239,178
0.417463,-0.108607,-0.0270319,179
0.417554,-0.108645,-0.0262491,180
0.418512,-0.10903,-0.0255207,173
0.418467,-0.109014,-0.0247274,179
0.417873,-0.108778,-0.0239023,183
0.419202,-0.109311,-0.0231889,183
0.419525,-0.109442,-0.0224152,182
0.419896,-0.109592,-0.0216428,183
0.419714,-0.109522,-0.020841,184
0.419717,-0.109525,-0.020049,179
0.419674,-0.10951,-0.019255,182
0.420232,-0.109734,-0.0184882,178
0.421394,-0.1102,-0.0177451,179
0.421213,-0.11013,-0.0169427,180
0.42159,-0.110283,-0.0161627,183
0.421876,-0.110399,-0.0153779,180
0.421696,-0.110329,-0.0145759,182
0.421564,-0.110278,-0.0137762,183
0.42213,-0.110506,-0.0129987,182
0.422278,-0.110567,-0.0122068,175
0.422614,-0.110703,-0.0114196,179
0.423044,-0.110877,-0.0106334,181
0.42371,-0.111145,-0.00985091,186
0.423814,-0.111189,-0.00905407,184
0.424673,-0.111534,-0.00827117,190
0.424307,-0.11139,-0.00746409,183
0.424933,-0.111642,-0.00667336,194
0.424709,-0.111554,-0.00586913,190
0.42477,-0.11158,-0.00506894,188
0.42483,-0.111607,-0.00426852,185
0.427029,-0.112487,-0.00348292,187
0.427379,-0.112629,-0.00267925,189
0.427442,-0.112656,-0.00187331,185
0.426075,-0.112112,-0.0010656,187
0.427331,-0.112616,-0.000260893,191
0.426918,-0.112453,0.000543951,183
0.426936,-0.112462,0.00134928,182
0.427145,-0.112547,0.00215602,179
0.427547,-0.11271,0.00296534,181
0.42771,-0.112777,0.00377368,172
0.428883,-0.113248,0.00459572,179
0.428518,-0.113104,0.0053996,178
0.429553,-0.113519,0.00622566,181
0.429429,-0.113472,0.00703406,175
0.430227,-0.113793,0.00786122,187
0.430492,-0.113901,0.00867947,187
0.430857,-0.114049,0.00950129,189
0.430881,-0.11406,0.0103155,188
0.43154,-0.114326,0.0111482,191
0.431907,-0.114474,0.0119746,185
0.432325,-0.114644,0.0128042,188
0.433089,-0.114951,0.0136476,192
0.433166,-0.114984,0.0144688,191
0.432604,-0.114761,0.0152657,190
0.43278,-0.114833,0.0160905,186
0.432318,-0.11465,0.0168888,183
0.433627,-0.115176,0.0177648,190
0.433608,-0.11517,0.0185839,189
0.433935,-0.115303,0.01942,194
0.434066,-0.115357,0.0202475,189
0.434098,-0.115372,0.0210704,194
0.433884,-0.115288,0.0218801,188
0.434016,-0.115343,0.0227088,189
0.43574,-0.116034,0.0236317,191
0.435027,-0.115752,0.0244136,192
0.435212,-0.115827,0.0252491,191
0.434552,-0.115566,0.0260307,191
0.435484,-0.11594,0.0269162,187
0.435023,-0.115758,0.0277098,192
0.435011,-0.115755,0.0285335,190
0.435647,-0.116011,0.0294045,195
0.435886,-0.116109,0.0302485,198
0.436526,-0.116367,0.0311245,200
0.434223,-0.115448,0.0317714,195
0.433769,-0.115268,0.0325585,199
0.433958,-0.115346,0.0333974,195
0.433801,-0.115285,0.0342079,198
0.433596,-0.115205,0.0350137,196
0.433638,-0.115224,0.0358409,196
0.433731,-0.115263,0.036673,196
0.433478,-0.115164,0.0374737,194
0.433324,-0.115105,0.0382831,198
0.43327,-0.115085,0.0391016,194
0.433069,-0.115007,0.0399056,194
0.433164,-0.115047,0.040739,193
0.431636,-0.114438,0.0414061,188
0.432321,-0.114713,0.0422993,192
0.43173,-0.114479,0.0430591,193
0.432711,-0.114874,0.043988,189
0.432563,-0.114816,0.0447959,188
0.432464,-0.114779,0.045609,192
0.432908,-0.114958,0.0464844,197
0.432859,-0.114941,0.0473042,194
0.430848,-0.114138,0.0478909,190
0.431437,-0.114376,0.048784,193
0.430072,-0.113832,0.0494397,191
0.430562,-0.11403,0.0503219,189
0.430224,-0.113897,0.0511012,193
0.430082,-0.113842,0.0519048,202
0.429551,-0.113632,0.0526572,193
0.429216,-0.1135,0.0534338,196
0.429464,-0.113601,0.0542881,191
0.427729,-0.112909,0.054872,190
0.428556,-0.113241,0.0558054,187
0.427838,-0.112957,0.0565246,188
0.42746,-0.112807,0.0572899,198
0.429353,-0.113566,0.0583834,190
0.427428,-0.112798,0.0589233,191
0.427052,-0.11265,0.0596868,190
0.425626,-0.112081,0.0602903,193
0.426927,-0.112604,0.0613062,191
0.426506,-0.112437,0.0620603,190
0.425655,-0.112099,0.0627458,194
0.424952,-0.11182,0.0634515,200
0.425582,-0.112074,0.0643698,196
0.424595,-0.111681,0.0650269,200
0.424845,-0.111783,0.0658849,202
0.424715,-0.111733,0.0666808,201
0.42449,-0.111645,0.0674605,202
0.424552,-0.111672,0.0682887,201
0.424186,-0.111527,0.0690435,196
0.423113,-0.1111,0.069673,195
0.423553,-0.111278,0.0705672,196
0.423426,-0.111229,0.0713619,196
0.424011,-0.111465,0.0722854,196
0.422374,-0.110812,0.0728041,198
0.422626,-0.110915,0.0736671,192
0.422032,-0.110679,0.0743728,201
0.421815,-0.110594,0.075148,198
0.42188,-0.110622,0.0759768,198
0.421804,-0.110594,0.0767791,198
0.421682,-0.110547,0.0775725,199
0.421608,-0.11052,0.0783752,194
0.421581,-0.110511,0.0791875,193
0.421742,-0.110577,0.0800381,197
0.421481,-0.110475,0.0808038,192
0.421127,-0.110335,0.0815498,185
0.421712,-0.110571,0.08249,191
0.421171,-0.110357,0.0831966,186
0.421428,-0.110462,0.0840707,189
0.421498,-0.110492,0.0849063,188
0.421663,-0.110559,0.0857632,185
0.421828,-0.110628,0.0866213,183
0.421805,-0.110621,0.0874393,182
0.421501,-0.110501,0.088195,180
0.422092,-0.110739,0.0891507,187
0.422071,-0.110733,0.0899709,184
0.421909,-0.11067,0.0907593,184
0.4217,-0.110588,0.0915367,182
0.421633,-0.110564,0.0923469,179
0.421802,-0.110633,0.0932126,179
0.422019,-0.110722,0.0940909,181
0.422143,-0.110774,0.0949483,176
0.422077,-0.11075,0.0957613,176
0.422107,-0.110763,0.0965976,173
0.423417,-0.11129,0.0977485,173
0.422641,-0.110981,0.0983896,174
0.422341,-0.110863,0.0991466,171
0.423417,-0.111296,0.100249,177
0.422879,-0.111083,0.100947,174
0.423769,-0.111441,0.102009,178
0.423421,-0.111303,0.102755,171
0.423217,-0.111224,0.103539,177
0.423775,-0.111449,0.104521,173
0.42424,-0.111638,0.105482,172
0.424515,-0.11175,0.106395,176
0.423834,-0.111479,0.107053,175
0.42454,-0.111764,0.108084,173
0.424961,-0.111934,0.109041,169
0.425625,-0.112202,0.110067,170
0.425905,-0.112316,0.11099,173
0.425365,-0.112102,0.111686,172
0.425404,-0.11212,0.112543,174
0.425588,-0.112196,0.113443,173
0.425677,-0.112233,0.114316,176
0.425959,-0.112348,0.115245,172
0.425952,-0.112347,0.116093,167
0.42609,-0.112405,0.116984,169
0.426375,-0.112521,0.117919,168
0.426807,-0.112696,0.1189,170
0.42763,-0.113028,0.119999,169
0.42743,-0.11295,0.120796,179
0.428061,-0.113204,0.121843,174
0.427813,-0.113107,0.122626,175
0.428005,-0.113186,0.123544,174
0.428493,-0.113384,0.124555,173
0.428737,-0.113483,0.125492,174
0.428882,-0.113544,0.1264,171
0.429127,-0.113644,0.127341,168
0.429274,-0.113705,0.128253,173
0.430016,-0.114004,0.129356,168
0.42957,-0.113828,0.130081,163
0.430215,-0.114088,0.131157,167
0.431012,-0.114409,0.132287,166
0.431513,-0.114612,0.133323,170
0.431116,-0.114455,0.134067,168
0.431268,-0.114518,0.134991,168
0.431521,-0.114621,0.135951,161
0.432226,-0.114906,0.137064,170
0.432381,-0.11497,0.137995,168
0.431883,-0.114773,0.138706,160
0.432491,-0.115018,0.139793,170
0.432748,-0.115124,0.140763,168
0.433107,-0.11527,0.14177,167
0.433569,-0.115457,0.142816,164
0.433779,-0.115543,0.143775,168
0.433837,-0.115568,0.144683,164
0.434302,-0.115757,0.145736,171
0.434209,-0.115721,0.146592,168
0.43437,-0.115788,0.147541,165
0.434736,-0.115937,0.148564,162
0.435154,-0.116107,0.14961,159
0.435626,-0.116298,0.150677,162
0.435739,-0.116345,0.151615,162
0.436161,-0.116517,0.152669,160
0.435659,-0.116318,0.153381,166
0.43562,-0.116304,0.154265,163
0.435838,-0.116394,0.155247,156
0.437244,-0.116959,0.15668,162
0.437102,-0.116904,0.157531,163
0.437272,-0.116975,0.158501,154
0.436511,-0.116672,0.159114,151
0.437405,-0.117032,0.160366,151
0.437369,-0.11702,0.16126,156
0.437281,-0.116987,0.162134,149
0.437453,-0.117058,0.163112,153
0.43773,-0.117171,0.164132,154
0.437435,-0.117055,0.164927,159
0.437764,-0.117189,0.165971,152
0.43747,-0.117074,0.166767,152
0.437644,-0.117146,0.167751,146
0.437715,-0.117176,0.168695,145
0.437214,-0.116978,0.169407,146
0.437493,-0.117092,0.170438,158
0.438087,-0.117332,0.171601,145
0.438159,-0.117363,0.17255,153
0.438128,-0.117353,0.173458,146
0.437679,-0.117175,0.174191,141
0.438328,-0.117438,0.175386,140
0.438297,-0.117428,0.176297,136
0.437901,-0.117271,0.177052,130
0.437349,-0.117052,0.17774,135
0.438523,-0.117525,0.17917,134
0.437865,-0.117263,0.179812,125
0.438518,-0.117527,0.181024,119
0.437233,-0.117015,0.18139,121
0.437623,-0.117173,0.182489,123
0.436864,-0.116871,0.183083,128
0.437306,-0.117051,0.184208,131
0.437541,-0.117147,0.185243,132
0.437724,-0.117223,0.186256,123
0.43754,-0.117151,0.187106,128
0.438724,-0.117628,0.188576,128
0.437804,-0.117261,0.189094,127
0.439148,-0.117803,0.190646,117
0.437491,-0.117141,0.190823,125
0.43873,-0.117639,0.192333,121
0.437232,-0.117042,0.192578,123
0.436789,-0.116866,0.193309,115
0.437237,-0.117048,0.194457,112
0.436899,-0.116915,0.195238,113
0.43651,-0.116761,0.195994,119
0.436435,-0.116733,0.196899,118
0.436151,-0.116622,0.197704,121
0.436495,-0.116762,0.198811,135
0.436841,-0.116903,0.199921,125
0.43724,-0.117065,0.20106,111
0.436693,-0.116848,0.20174,115
0.401968,-0.0985362,-0.19561,13
0.40163,-0.0984069,-0.194569,12
0.400855,-0.0981073,-0.193309,16
0.402144,-0.0986111,-0.193092,18
0.403707,-0.0992217,-0.193008,19
0.402483,-0.0987472,-0.191527,16
0.405654,-0.0999843,-0.192236,12
0.404953,-0.0997135,-0.191017,14
0.403502,-0.0991503,-0.189432,17
0.405297,-0.0998515,-0.189446,15
0.40349,-0.0991498,-0.187695,20
0.403683,-0.0992273,-0.186925,20
0.407274,-0.100628,-0.187796,17
0.405049,-0.0997633,-0.185855,21
0.406272,-0.100242,-0.185575,20
0.407819,-0.100846,-0.185445,17
0.406037,-0.100155,-0.18373,21
0.407401,-0.100688,-0.183509,17
0.404026,-0.0993753,-0.181056,17
0.404842,-0.0996953,-0.180579,18
0.409672,-0.101578,-0.181967,16
0.408058,-0.100952,-0.18035,14
0.409071,-0.101349,-0.179951,19
0.410135,-0.101765,-0.179573,14
0.408022,-0.100944,-0.17774,18
0.409398,-0.101482,-0.177502,22
0.406713,-0.100438,-0.175423,16
0.409617,-0.101572,-0.175872,18
0.41082,-0.102042,-0.175547,22
0.410292,-0.101839,-0.174446,20
0.411499,-0.102311,-0.174117,23
0.411244,-0.102214,-0.173139,19
0.41099,-0.102117,-0.172163,23
0.41101,-0.102127,-0.171309,21
0.411533,-0.102333,-0.170674,25
0.411782,-0.102432,-0.16992,27
0.41217,-0.102585,-0.169224,28
0.41041,-0.101901,-0.167609,23
0.41116,-0.102196,-0.16707,28
0.410772,-0.102047,-0.166047,27
0.410294,-0.101862,-0.164989,30
0.413657,-0.103175,-0.165544,28
0.41285,-0.102862,-0.164346,33
0.414255,-0.103412,-0.16407,33
0.412162,-0.102598,-0.162344,40
0.411591,-0.102378,-0.161254,30
0.415204,-0.103788,-0.161875,28
0.414949,-0.10369,-0.16091,32
0.413909,-0.103287,-0.15963,33
0.415135,-0.103767,-0.159266,32
0.414835,-0.103652,-0.158287,33
0.415927,-0.10408,-0.157864,35
0.416091,-0.104146,-0.15707,38
0.417564,-0.104722,-0.156791,39
0.415351,-0.103861,-0.155064,39
0.416305,-0.104236,-0.15458,36
0.417686,-0.104776,-0.154257,43
0.41673,-0.104405,-0.15303,34
0.417784,-0.104818,-0.152577,38
0.417576,-0.104739,-0.15164,39
0.416995,-0.104515,-0.150563,42
0.417116,-0.104564,-0.149754,36
0.41761,-0.104759,-0.149084,40
0.416984,-0.104517,-0.147997,45
0.419357,-0.105443,-0.148022,44
0.416342,-0.104271,-0.146056,43
0.418003,-0.10492,-0.145813,42
0.417424,-0.104696,-0.14475,40
0.416754,-0.104437,-0.143658,48
0.417809,-0.104851,-0.143188,46
0.417699,-0.10481,-0.142298,51
0.417822,-0.10486,-0.141493,51
0.417619,-0.104783,-0.140573,50
0.41779,-0.104851,-0.139785,54
0.418195,-0.105011,-0.139078,55
0.417806,-0.104862,-0.138096,51
0.417837,-0.104876,-0.137261,46
0.418103,-0.104981,-0.136506,50
0.417902,-0.104905,-0.135593,53
0.417702,-0.104829,-0.134681,49
0.418809,-0.105263,-0.134209,48
0.419452,-0.105515,-0.133579,52
0.418268,-0.105056,-0.132341,54
0.418255,-0.105053,-0.131494,56
0.417777,-0.104869,-0.130496,52
0.417858,-0.104902,-0.129683,53
0.418126,-0.105009,-0.12893,57
0.417186,-0.104644,-0.127788,57
0.417036,-0.104588,-0.126904,56
0.418001,-0.104966,-0.126373,56
0.416554,-0.104404,-0.125081,55
0.417192,-0.104655,-0.124447,59
0.416952,-0.104563,-0.123538,62
0.41662,-0.104436,-0.122602,53
0.416428,-0.104363,-0.121711,61
0.415638,-0.104057,-0.12064,68
0.415952,-0.104182,-0.119906,64
0.415349,-0.103949,-0.118897,63
0.415893,-0.104163,-0.118232,70
0.415612,-0.104055,-0.117322,69
0.415194,-0.103894,-0.116373,69
0.414186,-0.103503,-0.115254,70
0.414819,-0.103752,-0.114615,76
0.416372,-0.104359,-0.114239,78
0.415817,-0.104145,-0.113255,84
0.416272,-0.104324,-0.11256,83
0.415489,-0.104021,-0.111516,87
0.415487,-0.104022,-0.110694,80
0.415119,-0.103881,-0.10977,79
0.414661,-0.103704,-0.108825,77
0.41475,-0.103741,-0.108031,86
0.414658,-0.103707,-0.107188,80
0.415022,-0.103851,-0.106468,80
0.414021,-0.103463,-0.105384,76
0.413162,-0.10313,-0.104342,81
0.413208,-0.10315,-0.103541,81
0.412579,-0.102906,-0.102565,83
0.412311,-0.102804,-0.101686,88
0.411283,-0.102405,-0.100613,91
0.412585,-0.102914,-0.100138,93
0.412139,-0.102742,-0.0992164,96
0.411695,-0.102571,-0.098298,99
0.411788,-0.102609,-0.0975153,101
0.410811,-0.10223,-0.0964694,103
0.410283,-0.102026,-0.0955375,98
0.409933,-0.101892,-0.0946517,94
0.409674,-0.101793,-0.0937892,98
0.409282,-0.101642,-0.0928971,97
0.408716,-0.101423,-0.0919658,100
0.408328,-0.101274,-0.0910789,103
0.407504,-0.100954,-0.0900932,104
0.406902,-0.100721,-0.0891622,110
0.406389,-0.100523,-0.0882544,114
0.406051,-0.100393,-0.0873887,114
0.406147,-0.100433,-0.0866218,119
0.405811,-0.100303,-0.0857592,122
0.405691,-0.100259,-0.0849461,123
0.406308,-0.100501,-0.0842937,118
0.406189,-0.100457,-0.083481,122
0.405854,-0.100328,-0.0826233,123
0.406169,-0.100452,-0.0819044,127
0.406484,-0.100577,-0.0811849,124
0.406237,-0.100483,-0.080348,131
0.40677,-0.100693,-0.0796725,127
0.406609,-0.100632,-0.0788546,127
0.406667,-0.100656,-0.0780814,132
0.408335,-0.101309,-0.077629,135
0.406955,-0.100773,-0.07657,134
0.407057,-0.100814,-0.0758057,130
0.406812,-0.100721,-0.0749746,128
0.40761,-0.101034,-0.0743438,135
0.407278,-0.100906,-0.0734969,132
0.407251,-0.100898,-0.0727087,136
0.407224,-0.100889,-0.0719212,134
0.407503,-0.100999,-0.0711897,135
0.407781,-0.10111,-0.0704577,138
0.408104,-0.101238,-0.0697328,137
0.408166,-0.101264,-0.0689609,138
0.408885,-0.101546,-0.0683036,142
0.408598,-0.101436,-0.0674704,137
0.408924,-0.101565,-0.0667432,144
0.408681,-0.101473,-0.0659193,139
0.409446,-0.101773,-0.0652645,144
0.409073,-0.101629,-0.0644196,141
0.409401,-0.101759,-0.0636907,146
0.409204,-0.101684,-0.0628764,148
0.409577,-0.101831,-0.0621536,153
0.409995,-0.101996,-0.0614368,151
0.410018,-0.102007,-0.0606576,149
0.409734,-0.101898,-0.0598317,148
0.41055,-0.102219,-0.0591729,152
0.410662,-0.102264,-0.0584067,152
0.410643,-0.102259,-0.057621,150
0.410624,-0.102253,-0.0568358,149
0.41118,-0.102472,-0.0561328,152
0.411162,-0.102467,-0.0553473,149
0.411232,-0.102497,-0.0545745,149
0.411525,-0.102613,-0.053832,144
0.411685,-0.102677,-0.0530708,150
0.412512,-0.103002,-0.0523975,155
0.412852,-0.103136,-0.0516578,157
0.412125,-0.102854,-0.0507799,156
0.412688,-0.103076,-0.0500682,157
0.412629,-0.103055,-0.0492772,159
0.412971,-0.10319,-0.0485358,155
0.413002,-0.103204,-0.0477558,157
0.41339,-0.103357,-0.0470182,159
0.413645,-0.103459,-0.0462639,163
0.414573,-0.103823,-0.0455859,165
0.413799,-0.103523,-0.044713,167
0.414864,-0.10394,-0.0440464,174
0.414898,-0.103955,-0.0432641,169
0.414842,-0.103936,-0.0424724,169
0.414697,-0.103881,-0.0416718,165
0.415407,-0.10416,-0.0409596,161
0.415397,-0.104158,-0.0401725,161
0.415569,-0.104227,-0.0394035,164
0.41538,-0.104155,-0.0385992,161
0.415868,-0.104348,-0.0378599,164
0.416132,-0.104452,-0.0370981,172
0.417077,-0.104823,-0.036397,172
0.416344,-0.104539,-0.035544,173
0.416519,-0.104609,-0.0347726,172
0.416332,-0.104538,-0.0339701,179
0.417462,-0.104981,-0.0332771,170
0.417913,-0.105159,-0.0325252,175
0.417589,-0.105035,-0.0317108,170
0.417722,-0.105088,-0.0309328,173
0.418129,-0.105249,-0.0301749,174
0.418126,-0.10525,-0.0293858,175
0.418261,-0.105305,-0.0286066,176
0.418259,-0.105306,-0.0278176,180
0.418898,-0.105557,-0.0270715,181
0.42,-0.105989,-0.0263529,180
0.419908,-0.105955,-0.0255552,177
0.41977,-0.105903,-0.0247553,179
0.419816,-0.105923,-0.0239669,179
0.420278,-0.106105,-0.023202,176
0.420603,-0.106234,-0.0224278,176
0.420512,-0.106201,-0.0216306,177
0.420792,-0.106312,-0.0208527,182
0.420888,-0.106351,-0.0200648,184
0.421077,-0.106427,-0.0192809,180
0.421684,-0.106666,-0.0185151,179
0.421967,-0.106778,-0.0177332,179
0.422205,-0.106873,-0.0169484,181
0.422071,-0.106823,-0.0161483,180
0.422683,-0.107064,-0.0153762,179
0.423251,-0.107287,-0.0146003,187
0.423914,-0.107548,-0.0138253,183
0.424298,-0.1077,-0.0130391,178
0.42379,-0.107504,-0.0122258,179
0.424504,-0.107784,-0.0114473,180
0.423526,-0.107405,-0.010624,182
0.4249,-0.107943,-0.00985847,188
0.425383,-0.108134,-0.00906888,187
0.425347,-0.108121,-0.00826759,187
0.425548,-0.108202,-0.0074705,188
0.425181,-0.108061,-0.00666416,185
0.424958,-0.107975,-0.00586116,182
0.425775,-0.108296,-0.0050705,187
0.426216,-0.10847,-0.00427322,187
0.426182,-0.108459,-0.00347088,186
0.427245,-0.108876,-0.00267419,184
0.427595,-0.109015,-0.00187112,185
0.427755,-0.109079,-0.00106646,183
0.428203,-0.109256,-0.000260893,184
0.428364,-0.109321,0.000545628,185
0.428381,-0.10933,0.0013521,182
0.428448,-0.109358,0.002159,180
0.428611,-0.109423,0.00296704,180
0.428534,-0.109395,0.00377316,178
0.430292,-0.110084,0.00460256,175
0.429973,-0.109962,0.0054082,178
0.430771,-0.110275,0.00623138,180
0.430744,-0.110267,0.00704228,182
0.431253,-0.110467,0.00786426,187
0.431862,-0.110707,0.00869059,186
0.431983,-0.110757,0.00950734,192
0.432841,-0.111093,0.0103443,191
0.433702,-0.111432,0.0111849,191
0.433334,-0.11129,0.0119912,190
0.43277,-0.111072,0.0127897,191
0.432503,-0.110969,0.0135964,188
0.433612,-0.111404,0.0144525,188
0.434331,-0.111688,0.0152981,191
0.43431,-0.111681,0.0161166,190
0.43429,-0.111676,0.0169351,195
0.435014,-0.11196,0.0177869,187
0.435293,-0.112071,0.0186209,192
0.435573,-0.112183,0.0194562,191
0.437004,-0.112744,0.020351,195
0.436636,-0.112602,0.021157,193
0.43702,-0.112754,0.0220027,194
0.437205,-0.112828,0.0228388,197
0.436537,-0.112569,0.0236258,194
0.436773,-0.112663,0.0244651,188
0.436909,-0.112718,0.0252992,188
0.436945,-0.112735,0.0261275,191
0.436932,-0.112731,0.0269529,187
0.436969,-0.112748,0.0277819,191
0.436757,-0.112667,0.0285935,196
0.436795,-0.112684,0.0294227,188
0.435934,-0.11235,0.0301851,194
0.437226,-0.112856,0.0311091,193
0.436314,-0.112502,0.0318654,191
0.435157,-0.112052,0.0325985,198
0.435248,-0.11209,0.0334302,193
0.434793,-0.111914,0.0342162,193
0.434587,-0.111835,0.0350223,199
0.43448,-0.111796,0.0358365,199
0.434474,-0.111795,0.0366596,198
0.434468,-0.111795,0.0374829,204
0.434166,-0.111679,0.0382784,188
0.433864,-0.111563,0.039073,193
0.434107,-0.11166,0.0399203,193
0.434104,-0.11166,0.040744,195
0.433853,-0.111564,0.0415426,195
0.433801,-0.111546,0.0423612,192
0.433651,-0.111489,0.0431694,193
0.434045,-0.111646,0.0440364,190
0.433748,-0.111531,0.0448287,192
0.432072,-0.110878,0.0454651,192
0.432712,-0.11113,0.04636,192
0.432171,-0.110921,0.0471205,195
0.43296,-0.111231,0.0480365,188
0.431439,-0.110639,0.0486776,194
0.431197,-0.110546,0.0494696,194
0.430907,-0.110435,0.0502549,193
0.43091,-0.110438,0.0510765,191
0.430816,-0.110403,0.051886,195
0.430869,-0.110426,0.0527145,193
0.431021,-0.110487,0.0535566,196
0.431026,-0.110491,0.05438,199
0.43069,-0.110362,0.0551571,196
0.430015,-0.1101,0.0558861,195
0.428857,-0.10965,0.056545,197
0.429835,-0.110034,0.057504,193
0.428582,-0.109546,0.0581448,196
0.428108,-0.109363,0.058895,191
0.427731,-0.109217,0.0596581,194
0.4275,-0.109129,0.060442,194
0.427461,-0.109116,0.0612547,193
0.42776,-0.109235,0.0621199,193
0.427098,-0.108978,0.0628359,196
0.425674,-0.108423,0.0634288,197
0.425399,-0.108317,0.064201,201
0.425888,-0.10851,0.0650968,201
0.425423,-0.108331,0.0658378,203
0.425389,-0.108319,0.066649,198
0.424926,-0.10814,0.0673882,197
0.42494,-0.108148,0.0682074,199
0.424859,-0.108118,0.0690106,193
0.424731,-0.10807,0.0698057,198
0.424794,-0.108096,0.0706344,200
0.424857,-0.108123,0.0714638,201
0.424208,-0.107872,0.0721651,195
0.425032,-0.108196,0.0731337,199
0.424859,-0.10813,0.0739216,199
0.424259,-0.107897,0.0746293,196
0.424752,-0.108092,0.0755417,197
0.425104,-0.108232,0.0764295,199
0.423084,-0.107444,0.076861,199
0.422726,-0.107306,0.0776092,194
0.423548,-0.107629,0.0785892,198
0.42409,-0.107843,0.079517,189
0.423163,-0.107483,0.0801521,192
0.422854,-0.107364,0.0809092,193
0.422923,-0.107393,0.0817432,194
0.423465,-0.107607,0.0826761,186
0.42292,-0.107396,0.0833841,191
0.423321,-0.107554,0.0842904,187
0.422636,-0.107288,0.0849667,188
0.422801,-0.107355,0.0858242,184
0.422542,-0.107256,0.0865905,183
0.422803,-0.10736,0.0874704,188
0.422592,-0.107279,0.0882473,189
0.422901,-0.107402,0.0891401,183
0.422785,-0.107359,0.0899389,180
0.422859,-0.10739,0.0907808,187
0.423076,-0.107476,0.0916563,183
0.422914,-0.107415,0.0924456,177
0.422942,-0.107428,0.093279,179
0.423207,-0.107534,0.0941692,176
0.423759,-0.107752,0.0951292,174
0.423266,-0.107561,0.095841,174
0.423438,-0.10763,0.0967126,173
0.423137,-0.107514,0.0974695,177
0.423928,-0.107826,0.0984951,174
0.424055,-0.107878,0.0993595,177
0.424804,-0.108173,0.100381,171
0.424215,-0.107944,0.101068,175
0.423819,-0.107791,0.101802,173
0.424617,-0.108105,0.102841,173
0.424651,-0.108121,0.103687,172
0.424733,-0.108155,0.104546,178
0.4252,-0.10834,0.105508,178
0.425524,-0.108469,0.106433,176
0.425753,-0.10856,0.107336,178
0.42579,-0.108577,0.108188,175
0.425538,-0.10848,0.108963,177
0.425769,-0.108572,0.109869,173
0.426145,-0.108722,0.110816,172
0.426571,-0.10889,0.11178,168
0.426562,-0.108889,0.112625,171
0.426408,-0.108831,0.113429,168
0.426885,-0.109019,0.114412,168
0.42678,-0.10898,0.115232,172
0.427599,-0.109303,0.116318,170
0.42769,-0.109341,0.117196,165
0.42827,-0.10957,0.118219,175
0.428608,-0.109704,0.119173,172
0.428505,-0.109665,0.119999,172
0.428794,-0.109781,0.120942,174
0.428839,-0.109801,0.121813,168
0.428149,-0.109532,0.122463,168
0.428636,-0.109725,0.123469,167
0.428927,-0.109841,0.124419,170
0.429417,-0.110035,0.125431,169
0.429465,-0.110056,0.126308,167
0.429562,-0.110096,0.127202,169
0.429956,-0.110252,0.128191,168
0.430402,-0.110429,0.129198,164
0.431496,-0.110859,0.130415,163
0.43075,-0.110569,0.131045,168
0.4309,-0.11063,0.131963,164
0.4312,-0.11075,0.132932,168
0.432352,-0.111203,0.134182,167
0.431604,-0.110912,0.13481,170
0.432157,-0.111131,0.135868,169
0.43176,-0.110977,0.136611,166
0.432164,-0.111138,0.137623,164
0.432671,-0.111338,0.138672,161
0.432877,-0.111421,0.139621,159
0.433993,-0.11186,0.140885,165
0.433999,-0.111864,0.14177,167
0.434361,-0.112008,0.14278,165
0.434774,-0.112172,0.143811,166
0.435751,-0.112557,0.145042,166
0.435045,-0.112282,0.145682,170
0.434951,-0.112248,0.146538,161
0.435266,-0.112373,0.147541,163
0.435582,-0.112499,0.148546,165
0.436875,-0.113007,0.149908,168
0.437247,-0.113155,0.150939,160
0.437155,-0.113121,0.151804,166
0.437115,-0.113108,0.152688,162
0.436972,-0.113054,0.153534,163
0.437345,-0.113202,0.154573,157
0.436997,-0.113068,0.155343,161
0.437527,-0.113278,0.156445,163
0.437696,-0.113346,0.157413,156
0.43771,-0.113354,0.158322,146
0.437258,-0.113179,0.159054,151
0.438103,-0.113512,0.160286,144
0.438275,-0.113581,0.16126,150
0.438082,-0.113508,0.162094,151
0.437475,-0.113273,0.162765,159
0.437751,-0.113383,0.163783,156
0.437664,-0.113351,0.164658,153
0.437993,-0.113482,0.165701,151
0.438324,-0.113614,0.166746,152
0.438238,-0.113582,0.167625,150
0.438413,-0.113653,0.168611,152
0.438432,-0.113663,0.169534,147
0.438713,-0.113775,0.170566,145
0.438367,-0.113642,0.171342,141
0.43823,-0.113591,0.172203,146
0.438617,-0.113744,0.173283,146
0.438167,-0.11357,0.174015,143
0.438607,-0.113745,0.175121,140
0.439469,-0.114085,0.176408,139
0.439439,-0.114075,0.17732,139
0.438884,-0.11386,0.178009,135
0.439643,-0.11416,0.179261,128
0.439246,-0.114006,0.180017,133
0.439059,-0.113935,0.180864,129
0.438873,-0.113865,0.181711,129
0.438477,-0.113712,0.182466,126
0.438817,-0.113847,0.183545,131
0.438895,-0.11388,0.18451,122
0.43829,-0.113645,0.185172,126
0.439369,-0.11407,0.186587,122
0.440083,-0.114352,0.187842,119
0.439793,-0.114241,0.188648,119
0.43908,-0.113964,0.189262,118
0.438265,-0.113647,0.189826,109
0.439612,-0.114177,0.19138,112
0.439217,-0.114024,0.192138,112
0.43951,-0.114141,0.193213,115
0.438272,-0.113659,0.193578,116
0.438617,-0.113796,0.194679,111
0.438225,-0.113645,0.195436,108
0.437939,-0.113535,0.196242,117
0.43818,-0.113632,0.197298,118
0.437578,-0.113398,0.197954,113
0.437872,-0.113516,0.199038,121
0.437482,-0.113365,0.199794,108
0.438727,-0.113855,0.201341,108
0.437914,-0.113539,0.201894,110
0.402155,-0.095158,-0.195318,11
0.405862,-0.0965697,-0.196326,11
0.404088,-0.0958972,-0.194556,11
0.403038,-0.0955001,-0.193159,15
0.406803,-0.0969341,-0.194172,13
0.405291,-0.0963612,-0.192545,13
0.405351,-0.096386,-0.191703,15
0.405232,-0.0963429,-0.190774,14
0.408399,-0.0975495,-0.191459,13
0.407418,-0.0971785,-0.190105,15
0.405681,-0.0965201,-0.188388,19
0.409171,-0.0978495,-0.18921,18
0.41074,-0.0984484,-0.189091,13
0.406851,-0.0969712,-0.186349,18
0.404545,-0.0960962,-0.184381,13
0.408372,-0.0975541,-0.185337,11
0.405961,-0.0966388,-0.183328,13
0.40954,-0.0980026,-0.184149,17
0.407071,-0.0970653,-0.182123,17
0.407223,-0.0971254,-0.18133,18
0.407241,-0.0971343,-0.180475,19
0.407799,-0.0973487,-0.17987,20
0.409354,-0.0979424,-0.179722,19
0.41193,-0.0989245,-0.180034,19
0.409391,-0.0979605,-0.178008,18
0.411004,-0.0985761,-0.177874,14
0.410931,-0.0985505,-0.176975,17
0.412601,-0.099188,-0.176858,19
0.409785,-0.0981187,-0.174733,23
0.412179,-0.0990316,-0.174934,23
0.409915,-0.0981724,-0.173068,18
0.412172,-0.0990331,-0.1732,22
0.410592,-0.0984341,-0.171644,26
0.412993,-0.0993499,-0.171829,26
0.412232,-0.0990623,-0.170635,25
0.412988,-0.099352,-0.170098,22
0.413239,-0.0994496,-0.169343,25
0.414833,-0.100058,-0.16916,29
0.412729,-0.0992598,-0.167401,27
0.412476,-0.0991654,-0.166434,24
0.412865,-0.0993155,-0.165738,28
0.413116,-0.0994134,-0.164985,26
0.412955,-0.0993541,-0.164059,29
0.412702,-0.09926,-0.163097,29
0.414985,-0.100131,-0.16318,28
0.41252,-0.0991946,-0.16131,32
0.414521,-0.0999584,-0.161271,33
0.414684,-0.100022,-0.160478,33
0.415217,-0.100227,-0.159835,34
0.416217,-0.10061,-0.159378,37
0.415775,-0.100444,-0.158343,33
0.416918,-0.100881,-0.157938,37
0.416756,-0.100821,-0.157015,38
0.416967,-0.100904,-0.156239,33
0.419152,-0.101738,-0.156233,37
0.417579,-0.101141,-0.154761,42
0.416298,-0.100655,-0.153409,38
0.417256,-0.101022,-0.152922,36
0.418266,-0.101408,-0.152451,39
0.417356,-0.101064,-0.151249,39
0.418789,-0.101612,-0.150935,38
0.418205,-0.101392,-0.149859,46
0.41842,-0.101475,-0.149084,44
0.418917,-0.101667,-0.148414,44
0.418194,-0.101394,-0.147293,43
0.420152,-0.102141,-0.147157,45
0.419756,-0.101992,-0.146157,48
0.418796,-0.101629,-0.144954,49
0.418919,-0.101678,-0.144147,49
0.418292,-0.101441,-0.143071,42
0.417901,-0.101294,-0.142082,43
0.418352,-0.101468,-0.141394,51
0.418242,-0.101428,-0.140507,58
0.418882,-0.101674,-0.139883,52
0.418632,-0.101581,-0.138948,47
0.41932,-0.101845,-0.138339,48
0.418648,-0.101591,-0.137261,50
0.418774,-0.101641,-0.136458,52
0.419557,-0.101941,-0.135879,51
0.419261,-0.10183,-0.134933,49
0.420234,-0.102203,-0.134414,49
0.418345,-0.101486,-0.13294,52
0.418146,-0.101412,-0.132032,52
0.419442,-0.101908,-0.131618,55
0.419055,-0.101762,-0.130649,55
0.418763,-0.101653,-0.129713,55
0.418378,-0.101509,-0.128749,59
0.41767,-0.101241,-0.127684,63
0.417798,-0.101292,-0.126889,62
0.417186,-0.101061,-0.12586,58
0.418569,-0.101589,-0.12546,56
0.416797,-0.100917,-0.124071,59
0.41776,-0.101285,-0.123538,54
0.417752,-0.101284,-0.122702,62
0.416772,-0.100913,-0.12157,64
0.417134,-0.101053,-0.12085,61
0.416666,-0.100877,-0.119879,65
0.416705,-0.100893,-0.119062,70
0.416745,-0.100911,-0.118246,69
0.416186,-0.1007,-0.117254,74
0.416825,-0.100945,-0.116615,71
0.416176,-0.1007,-0.1156,81
0.416171,-0.1007,-0.114774,70
0.416672,-0.100893,-0.114094,73
0.416163,-0.100701,-0.113124,77
0.41671,-0.100912,-0.112456,78
0.415881,-0.100598,-0.111401,80
0.415421,-0.100424,-0.110452,76
0.415876,-0.1006,-0.109758,78
0.415737,-0.100549,-0.1089,85
0.415689,-0.100533,-0.108068,88
0.415551,-0.100482,-0.107212,79
0.414821,-0.100206,-0.106199,76
0.413823,-0.0998278,-0.105119,85
0.413733,-0.0997954,-0.104282,88
0.41514,-0.100333,-0.103838,84
0.41369,-0.0997829,-0.102647,91
0.413602,-0.0997511,-0.101813,85
0.413198,-0.0995993,-0.1009,92
0.412795,-0.0994479,-0.0999892,90
0.412888,-0.0994853,-0.0992051,91
0.412712,-0.09942,-0.0983539,93
0.412267,-0.0992526,-0.0974377,100
0.412227,-0.0992391,-0.0966229,96
0.412008,-0.0991576,-0.0957653,103
0.412147,-0.0992126,-0.0949956,104
0.410416,-0.0985551,-0.0937786,102
0.40998,-0.0983907,-0.0928761,99
0.409236,-0.0981094,-0.0919037,98
0.409331,-0.0981476,-0.0911302,99
0.408943,-0.0980015,-0.0902451,102
0.40803,-0.0976557,-0.0892422,108
0.407209,-0.0973449,-0.0882643,108
0.407001,-0.0972674,-0.0874278,111
0.407054,-0.0972895,-0.0866509,114
0.407238,-0.0973614,-0.085903,123
0.407161,-0.0973341,-0.0850979,123
0.40652,-0.0970918,-0.0841715,111
0.406792,-0.0971971,-0.0834438,121
0.40715,-0.0973358,-0.082734,122
0.407249,-0.0973753,-0.0819684,122
0.407044,-0.097299,-0.0811396,124
0.407317,-0.0974051,-0.0804108,125
0.407504,-0.0974782,-0.0796636,123
0.408041,-0.0976845,-0.0789868,123
0.407967,-0.0976584,-0.0781861,125
0.408156,-0.0977321,-0.0774381,123
0.408389,-0.0978228,-0.0766984,123
0.40788,-0.0976308,-0.0758142,128
0.408506,-0.0978714,-0.0751506,125
0.407955,-0.097663,-0.0742608,134
0.408363,-0.0978207,-0.0735544,134
0.408293,-0.0977956,-0.0727575,139
0.408746,-0.0979704,-0.0720578,135
0.409333,-0.0981959,-0.0713809,139
0.409131,-0.098121,-0.0705601,137
0.409632,-0.0983137,-0.0698655,136
0.409256,-0.0981722,-0.0690148,144
0.409275,-0.0981813,-0.0682349,139
0.409645,-0.0983243,-0.0675157,141
0.409753,-0.0983672,-0.0667507,142
0.409948,-0.0984438,-0.0660005,141
0.410101,-0.0985038,-0.0652426,139
0.411225,-0.098934,-0.0646438,144
0.41076,-0.0987588,-0.0637835,142
0.411047,-0.09887,-0.0630456,145
0.411512,-0.099049,-0.062335,150
0.41096,-0.0988405,-0.0614643,148
0.411159,-0.0989186,-0.0607119,144
0.411448,-0.0990306,-0.0599726,144
0.411694,-0.099126,-0.059226,148
0.411497,-0.0990529,-0.0584132,146
0.411876,-0.0991994,-0.0576857,147
0.412301,-0.0993632,-0.0569635,150
0.412416,-0.0994088,-0.0561958,156
0.413377,-0.0997773,-0.0555467,153
0.412824,-0.0995684,-0.0546849,151
0.412941,-0.0996146,-0.0539167,155
0.41279,-0.0995592,-0.0531125,153
0.413621,-0.0998778,-0.0524388,156
0.413694,-0.0999076,-0.0516636,160
0.414037,-0.10004,-0.0509227,151
0.413574,-0.0998656,-0.0500794,152
0.414186,-0.100101,-0.0493714,152
0.414171,-0.100097,-0.0485849,157
0.414561,-0.100247,-0.0478472,160
0.414547,-0.100244,-0.0470606,163
0.415118,-0.100464,-0.0463421,161
0.414926,-0.100392,-0.0455345,166
0.415094,-0.100458,-0.0447683,170
0.415532,-0.100627,-0.0440316,167
0.416243,-0.1009,-0.0433227,169
0.415645,-0.100674,-0.0424724,165
0.416312,-0.10093,-0.0417564,163
0.416348,-0.100946,-0.0409734,170
0.416565,-0.10103,-0.0402087,166
0.416646,-0.101063,-0.0394301,169
0.416638,-0.101062,-0.0386427,168
0.41663,-0.101061,-0.0378556,168
0.416667,-0.101077,-0.037073,164
0.416841,-0.101146,-0.0363027,172
0.417334,-0.101335,-0.03556,174
0.417328,-0.101335,-0.0347726,169
0.418416,-0.101752,-0.0340775,169
0.418502,-0.101786,-0.0332959,173
0.41868,-0.101856,-0.0325215,172
0.418493,-0.101787,-0.031718,175
0.419084,-0.102014,-0.0309747,183
0.41931,-0.102102,-0.0302022,178
0.419399,-0.102138,-0.029419,173
0.41981,-0.102297,-0.0286583,175
0.419532,-0.102193,-0.027849,172
0.420682,-0.102633,-0.0271358,175
0.420543,-0.102582,-0.026335,180
0.420588,-0.102601,-0.0255466,180
0.419667,-0.102252,-0.0246996,181
0.420774,-0.102676,-0.023975,180
0.421284,-0.102872,-0.0232124,181
0.421517,-0.102963,-0.0224329,177
0.421519,-0.102966,-0.0216404,178
0.421753,-0.103057,-0.0208597,181
0.422128,-0.103202,-0.0200851,184
0.422784,-0.103454,-0.0193221,174
0.423442,-0.103707,-0.0185568,179
0.422699,-0.103425,-0.0177292,185
0.423827,-0.103858,-0.0169807,181
0.423833,-0.103862,-0.0161844,184
0.42398,-0.10392,-0.0153934,180
0.424268,-0.104032,-0.0146068,183
0.424134,-0.103982,-0.0138053,179
0.424424,-0.104095,-0.0130174,182
0.425612,-0.10455,-0.0122543,181
0.424771,-0.104231,-0.0114322,183
0.426009,-0.104705,-0.010665,177
0.425262,-0.104422,-0.00984767,179
0.42584,-0.104645,-0.00906098,182
0.426278,-0.104814,-0.00826938,185
0.426384,-0.104856,-0.0074705,191
0.426634,-0.104953,-0.00667336,187
0.426504,-0.104906,-0.00587036,186
0.42685,-0.10504,-0.0050731,192
0.426769,-0.105011,-0.00427066,187
0.427212,-0.105182,-0.00347222,193
0.427465,-0.10528,-0.00267108,187
0.429207,-0.105947,-0.00187346,189
0.428358,-0.105625,-0.00106621,181
0.428183,-0.10556,-0.000261694,184
0.429065,-0.105898,0.000545208,181
0.429323,-0.105999,0.00135257,183
0.429293,-0.105989,0.002159,182
0.429698,-0.106146,0.00296917,182
0.429525,-0.106082,0.00377472,178
0.430221,-0.106349,0.00459076,180
0.431018,-0.106655,0.00541107,176
0.431283,-0.106758,0.00622566,177
0.431451,-0.106824,0.00703954,180
0.432646,-0.107282,0.00787542,186
0.43311,-0.107462,0.0086995,183
0.434762,-0.108094,0.00955479,186
0.434242,-0.107898,0.0103588,188
0.434564,-0.108022,0.0111849,185
0.434392,-0.107959,0.0119973,186
0.434518,-0.108008,0.0128187,186
0.434545,-0.108021,0.0136373,190
0.43482,-0.108128,0.0144652,196
0.435096,-0.108235,0.0152943,191
0.434926,-0.108172,0.0161066,188
0.435352,-0.108337,0.0169436,188
0.435581,-0.108426,0.0177736,187
0.435811,-0.108516,0.0186047,191
0.435892,-0.108549,0.0194296,193
0.435675,-0.108468,0.0202399,190
0.436006,-0.108596,0.0210783,192
0.436289,-0.108706,0.0219154,195
0.436372,-0.10874,0.0227426,194
0.437508,-0.109176,0.0236317,191
0.437795,-0.109287,0.0244742,194
0.436978,-0.108977,0.0252491,188
0.437315,-0.109108,0.0260952,187
0.437854,-0.109316,0.0269562,188
0.43759,-0.109217,0.0277647,188
0.437729,-0.109272,0.0286006,187
0.436114,-0.108657,0.0293104,190
0.437003,-0.108999,0.0302,186
0.437093,-0.109035,0.0310324,192
0.436883,-0.108957,0.0318418,190
0.436724,-0.108898,0.0326547,183
0.435318,-0.108363,0.0333646,187
0.436407,-0.108781,0.0342793,186
0.435452,-0.108418,0.0350223,189
0.436292,-0.108741,0.0359201,196
0.435737,-0.108531,0.0366955,193
0.435333,-0.108379,0.0374829,193
0.434533,-0.108076,0.0382316,191
0.434429,-0.108038,0.0390443,187
0.434723,-0.108152,0.0398959,192
0.435067,-0.108285,0.0407539,196
0.434518,-0.108078,0.0415223,192
0.434317,-0.108003,0.042325,191
0.432441,-0.107289,0.0429494,193
0.432784,-0.107422,0.0438065,196
0.433177,-0.107574,0.0446707,194
0.432438,-0.107294,0.0454099,194
0.431899,-0.10709,0.0461692,193
0.431851,-0.107073,0.0469836,193
0.432195,-0.107207,0.0478445,200
0.431707,-0.107022,0.048607,196
0.432003,-0.107138,0.0494636,195
0.431957,-0.107122,0.0502793,192
0.431715,-0.107032,0.0510704,191
0.431768,-0.107054,0.0518985,194
0.431772,-0.107057,0.0527209,196
0.431777,-0.107061,0.0535437,195
0.430903,-0.106729,0.0542488,196
0.430178,-0.106455,0.0549712,193
0.430379,-0.106533,0.0558188,191
0.429172,-0.106074,0.0564703,195
0.428551,-0.105839,0.0572006,194
0.428559,-0.105844,0.0580193,193
0.428422,-0.105794,0.0588173,195
0.428046,-0.105652,0.0595796,194
0.428007,-0.105639,0.0603913,195
0.42792,-0.105608,0.0611961,200
0.427401,-0.105412,0.0619342,195
0.42722,-0.105345,0.0627233,205
0.427183,-0.105332,0.0635349,205
0.426332,-0.10501,0.0642163,202
0.426153,-0.104943,0.0650036,199
0.42607,-0.104913,0.0658064,204
0.426226,-0.104975,0.066649,202
0.426001,-0.104891,0.0674284,202
0.426062,-0.104916,0.0682561,198
0.425743,-0.104796,0.0690188,199
0.426044,-0.104913,0.0698889,199
0.425963,-0.104884,0.0706933,199
0.426218,-0.104984,0.0715575,202
0.426043,-0.104919,0.0723457,199
0.425106,-0.104563,0.0729946,197
0.425695,-0.10479,0.0739216,196
0.426047,-0.104926,0.0748072,201
0.425827,-0.104844,0.0755867,200
0.425416,-0.104689,0.0763295,194
0.42382,-0.104082,0.0768428,193
0.424266,-0.104254,0.0777474,189
0.423906,-0.104118,0.078496,195
0.423785,-0.104074,0.0792907,191
0.4239,-0.10412,0.0801331,188
0.423732,-0.104058,0.0809188,192
0.424845,-0.104485,0.0819668,189
0.42368,-0.104042,0.0825487,195
0.423656,-0.104035,0.0833643,193
0.424248,-0.104263,0.0843104,190
0.42489,-0.10451,0.08527,189
0.424819,-0.104485,0.0860795,187
0.42394,-0.104151,0.0867139,192
0.424202,-0.104253,0.0875951,190
0.424038,-0.104192,0.0883835,188
0.424349,-0.104313,0.0892779,183
0.423805,-0.104108,0.0899816,187
0.423737,-0.104084,0.0907916,184
0.423764,-0.104096,0.0916237,185
0.42403,-0.104199,0.0925115,185
0.42401,-0.104194,0.0933345,184
0.424801,-0.104498,0.0943487,184
0.424878,-0.10453,0.0951972,182
0.425291,-0.104689,0.0961268,179
0.425513,-0.104776,0.0970127,177
0.424922,-0.104552,0.0977019,175
0.424953,-0.104566,0.0985421,174
0.424937,-0.104562,0.0993713,172
0.425017,-0.104595,0.100225,177
0.424715,-0.104481,0.100983,182
0.424796,-0.104514,0.101838,176
0.425405,-0.104749,0.102829,175
0.425199,-0.104672,0.103613,174
0.425234,-0.104688,0.104459,173
0.425509,-0.104795,0.105369,174
0.425737,-0.104884,0.106268,174
0.42558,-0.104826,0.107066,180
0.426243,-0.105082,0.108084,180
0.426377,-0.105135,0.108963,172
0.426512,-0.105188,0.109842,170
0.426598,-0.105223,0.11071,171
0.426879,-0.105333,0.111632,177
0.427452,-0.105554,0.112638,174
0.427055,-0.105404,0.113374,172
0.427436,-0.105552,0.114329,174
0.428892,-0.10611,0.115594,170
0.427956,-0.105755,0.116177,170
0.428145,-0.105829,0.117083,169
0.428041,-0.105791,0.117905,170
0.428671,-0.106034,0.118943,175
0.428813,-0.10609,0.119839,177
0.4292,-0.106241,0.12081,176
0.429442,-0.106335,0.12174,177
0.429931,-0.106524,0.122745,179
0.429928,-0.106525,0.123604,177
0.429925,-0.106526,0.124464,172
0.43012,-0.106602,0.125385,168
0.430316,-0.106679,0.126308,172
0.430512,-0.106757,0.127233,169
0.430462,-0.106739,0.128082,168
0.431057,-0.106969,0.129135,170
0.431305,-0.107066,0.130081,167
0.431505,-0.107145,0.131013,167
0.431805,-0.107261,0.13198,169
0.432257,-0.107436,0.132997,170
0.431609,-0.107191,0.133657,164
0.432512,-0.107538,0.134826,166
0.433067,-0.107752,0.135884,162
0.433675,-0.107987,0.136963,161
0.433982,-0.108106,0.137944,163
0.433683,-0.107994,0.138723,160
0.433638,-0.107979,0.139587,157
0.434655,-0.10837,0.140815,165
0.434408,-0.108278,0.141613,160
0.434515,-0.108321,0.142534,161
0.434827,-0.108442,0.143527,159
0.43514,-0.108564,0.144522,159
0.435402,-0.108667,0.145502,160
0.435309,-0.108633,0.146357,160
0.435675,-0.108775,0.147376,164
0.436298,-0.109016,0.148491,168
0.436565,-0.10912,0.14948,166
0.437708,-0.109559,0.150789,162
0.437203,-0.109368,0.151502,164
0.436699,-0.109178,0.152213,163
0.437743,-0.109579,0.153496,162
0.437807,-0.109605,0.154419,163
0.438545,-0.10989,0.155596,158
0.438403,-0.109838,0.156445,152
0.438677,-0.109945,0.157452,147
0.438535,-0.109893,0.158303,153
0.438134,-0.109741,0.159054,154
0.439085,-0.110108,0.160326,153
0.438424,-0.109857,0.160978,152
0.438856,-0.110024,0.162053,150
0.439133,-0.110133,0.163071,151
0.439411,-0.110241,0.164091,155
0.439063,-0.11011,0.164865,148
0.439551,-0.110299,0.165971,149
0.438837,-0.110028,0.166599,145
0.439169,-0.110157,0.167646,142
0.439816,-0.110407,0.168823,143
0.439731,-0.110377,0.169705,145
0.438964,-0.110086,0.170309,150
0.439508,-0.110296,0.171449,144
0.439686,-0.110366,0.172442,136
0.43997,-0.110477,0.17348,138
0.439939,-0.110467,0.174388,141
0.439645,-0.110357,0.175187,137
0.43993,-0.110468,0.17623,125
0.439847,-0.110439,0.177119,122
0.439764,-0.110409,0.178009,129
0.440104,-0.110541,0.17908,123
0.44018,-0.110573,0.18004,126
0.44031,-0.110625,0.181024,131
0.439701,-0.110394,0.181688,129
0.440307,-0.110628,0.182882,122
0.440491,-0.110701,0.183894,125
0.440728,-0.110794,0.184931,119
0.440595,-0.110745,0.185806,120
0.440569,-0.110737,0.186728,114
0.44049,-0.110709,0.187628,116
0.44004,-0.11054,0.188361,117
0.440757,-0.110816,0.189622,121
0.440095,-0.110565,0.190259,125
