ply
format ascii 1.0
comment Created by CloudCompare v2.11 alpha (Anoia)
comment Created 2025/12/9 17:13
obj_info Generated by CloudCompare!
element vertex 1419
property float x
property float y
property float z
property float scalar_Scalar_field
end_header
0.321263 -0.559729 -0.173008 157 
0.320087 -0.559451 -0.172279 155 
0.321446 -0.559776 -0.171364 161 
0.320928 -0.559655 -0.170588 156 
0.320716 -0.559606 -0.16979 156 
0.321114 -0.559703 -0.168943 159 
0.320599 -0.559582 -0.168171 154 
0.320845 -0.559643 -0.167335 156 
0.320991 -0.559679 -0.166507 158 
0.320782 -0.559631 -0.165709 155 
0.321081 -0.559704 -0.164866 156 
0.321178 -0.559729 -0.164041 157 
0.321225 -0.559742 -0.163219 154 
0.321628 -0.55984 -0.162363 161 
0.32316 -0.560207 -0.161395 159 
0.32147 -0.559806 -0.160742 152 
0.322233 -0.55999 -0.159846 155 
0.321313 -0.559773 -0.159121 153 
0.321211 -0.559751 -0.158313 161 
0.320753 -0.559643 -0.157544 158 
0.32116 -0.559742 -0.156681 157 
0.32111 -0.559732 -0.155867 164 
0.321213 -0.559759 -0.155036 158 
0.321266 -0.559773 -0.15421 160 
0.32076 -0.559654 -0.153449 159 
0.320864 -0.559681 -0.152617 161 
0.321021 -0.559721 -0.151777 162 
0.319351 -0.559325 -0.151162 163 
0.319457 -0.559352 -0.150331 158 
0.319614 -0.559391 -0.149493 157 
0.320075 -0.559503 -0.148614 158 
0.318515 -0.559134 -0.147998 158 
0.318421 -0.559113 -0.147193 159 
0.318983 -0.559249 -0.1463 158 
0.318436 -0.55912 -0.145555 165 
0.317741 -0.558957 -0.144833 162 
0.316948 -0.55877 -0.144127 165 
0.318362 -0.559108 -0.14311 163 
0.31802 -0.559029 -0.14234 167 
0.316178 -0.558592 -0.14179 167 
0.316039 -0.558561 -0.140995 168 
0.315404 -0.558411 -0.140274 167 
0.315515 -0.55844 -0.139442 164 
0.31508 -0.558338 -0.138694 166 
0.314498 -0.558201 -0.137969 164 
0.315304 -0.558395 -0.137028 165 
0.314821 -0.558282 -0.136289 162 
0.315133 -0.558358 -0.135423 167 
0.313023 -0.557858 -0.134951 166 
0.314122 -0.558121 -0.133956 167 
0.312709 -0.557786 -0.133377 170 
0.312283 -0.557687 -0.132636 166 
0.312495 -0.557739 -0.131787 166 
0.312071 -0.55764 -0.131047 162 
0.311452 -0.557495 -0.130342 155 
0.312056 -0.55764 -0.129422 159 
0.311438 -0.557495 -0.128719 157 
0.311848 -0.557594 -0.127832 160 
0.310987 -0.557391 -0.127174 155 
0.309888 -0.557131 -0.126564 155 
0.309956 -0.557149 -0.12574 154 
0.31017 -0.557202 -0.124888 157 
0.309414 -0.557024 -0.124219 152 
0.310114 -0.557193 -0.123272 154 
0.30965 -0.557084 -0.122549 150 
0.309381 -0.557022 -0.121788 154 
0.309548 -0.557063 -0.120942 153 
0.309328 -0.557013 -0.120172 153 
0.309013 -0.55694 -0.119421 153 
0.309181 -0.556982 -0.118573 154 
0.309593 -0.557082 -0.117673 155 
0.309521 -0.557066 -0.116872 150 
0.309691 -0.557109 -0.11602 149 
0.310398 -0.557279 -0.115053 151 
0.309597 -0.55709 -0.114405 148 
0.309672 -0.55711 -0.113571 150 
0.31004 -0.5572 -0.112672 151 
0.309775 -0.557138 -0.11191 150 
0.309852 -0.557159 -0.111073 149 
0.30988 -0.557167 -0.110246 146 
0.309715 -0.55713 -0.109463 146 
0.309988 -0.557197 -0.108579 144 
0.310506 -0.557322 -0.107638 146 
0.30995 -0.557192 -0.106942 147 
0.311155 -0.557481 -0.105837 143 
0.309769 -0.557152 -0.105338 147 
0.310142 -0.557243 -0.104425 144 
0.309638 -0.557125 -0.10372 148 
0.310158 -0.557251 -0.10277 148 
0.310289 -0.557284 -0.101911 145 
0.310665 -0.557375 -0.100992 148 
0.310455 -0.557327 -0.100215 149 
0.310587 -0.557361 -0.0993528 146 
0.311704 -0.557629 -0.0982418 145 
0.3111 -0.557487 -0.0975628 152 
0.310694 -0.557392 -0.0968348 150 
0.311321 -0.557543 -0.0958418 141 
0.311358 -0.557554 -0.0949988 145 
0.312284 -0.557777 -0.0939218 147 
0.312471 -0.557823 -0.0930358 143 
0.312461 -0.557823 -0.0922018 139 
0.3125 -0.557834 -0.0913528 139 
0.311502 -0.557598 -0.0907828 144 
0.312432 -0.557822 -0.0896928 141 
0.312275 -0.557786 -0.0888958 144 
0.312713 -0.557893 -0.0879348 139 
0.312705 -0.557893 -0.0870958 146 
0.313245 -0.558024 -0.0861018 143 
0.312046 -0.55774 -0.0855958 138 
0.312883 -0.557941 -0.0845158 138 
0.312529 -0.557859 -0.0837728 137 
0.312574 -0.557871 -0.0829158 138 
0.313215 -0.558026 -0.0818848 149 
0.31361 -0.558122 -0.0809218 142 
0.313406 -0.558076 -0.0801338 141 
0.313452 -0.558089 -0.0792708 138 
0.313599 -0.558126 -0.0783778 135 
0.313346 -0.558067 -0.0776028 135 
0.313444 -0.558092 -0.0767228 131 
0.313242 -0.558046 -0.0759328 136 
0.31344 -0.558096 -0.0750198 136 
0.31409 -0.558253 -0.0739668 138 
0.313738 -0.558171 -0.0732208 137 
0.314039 -0.558244 -0.0722728 135 
0.313989 -0.558234 -0.0714318 131 
0.314341 -0.558321 -0.0704638 129 
0.314543 -0.558371 -0.0695418 130 
0.314343 -0.558325 -0.0687458 130 
0.314295 -0.558316 -0.0679018 135 
0.314247 -0.558306 -0.0670578 131 
0.315208 -0.558537 -0.0658828 134 
0.315313 -0.558564 -0.0649848 130 
0.31679 -0.558919 -0.0636328 131 
0.315675 -0.558655 -0.0631348 131 
0.315224 -0.558549 -0.0624198 130 
0.316652 -0.558892 -0.0610728 128 
0.315487 -0.558616 -0.0605968 133 
0.316001 -0.558741 -0.0595538 128 
0.316211 -0.558793 -0.0586118 128 
0.316269 -0.558809 -0.0577198 125 
0.315818 -0.558703 -0.0570048 131 
0.316437 -0.558853 -0.0559168 129 
0.316496 -0.558869 -0.0550218 127 
0.316351 -0.558836 -0.0541978 125 
0.316513 -0.558877 -0.0532648 129 
0.317496 -0.559114 -0.0520378 124 
0.317557 -0.55913 -0.0511368 126 
0.317619 -0.559147 -0.0502338 125 
0.318144 -0.559274 -0.0491618 130 
0.317692 -0.559168 -0.0484448 126 
0.317909 -0.559222 -0.0474818 128 
0.317767 -0.55919 -0.0466508 122 
0.318037 -0.559257 -0.0456658 121 
0.320229 -0.559782 -0.0439608 123 
0.318011 -0.559255 -0.0439028 126 
0.318231 -0.559309 -0.0429318 120 
0.318659 -0.559414 -0.0418808 115 
0.319245 -0.559556 -0.0407668 120 
0.319416 -0.559598 -0.0398088 117 
0.319744 -0.559679 -0.0387888 119 
0.319395 -0.559598 -0.0380288 120 
0.319724 -0.559678 -0.0370058 114 
0.319897 -0.559722 -0.0360408 117 
0.319706 -0.559678 -0.0352188 117 
0.31988 -0.559722 -0.0342518 116 
0.320316 -0.559828 -0.0331778 111 
0.320387 -0.559847 -0.0322478 116 
0.320353 -0.559841 -0.0313598 117 
0.32095 -0.559986 -0.0302148 115 
0.321181 -0.560043 -0.0292158 112 
0.32099 -0.559999 -0.0283878 110 
0.320432 -0.559868 -0.0277108 106 
0.320295 -0.559838 -0.0268608 109 
0.320527 -0.559895 -0.0258578 105 
0.320548 -0.559902 -0.0249398 112 
0.320465 -0.559884 -0.0240658 108 
0.32075 -0.559955 -0.0230348 109 
0.319983 -0.559774 -0.0224488 103 
0.320321 -0.559857 -0.0213938 108 
0.319714 -0.559714 -0.0207418 105 
0.320157 -0.559822 -0.0196388 106 
0.319813 -0.559742 -0.0188738 110 
0.319102 -0.559574 -0.0182688 116 
0.319074 -0.559569 -0.0173678 111 
0.319939 -0.559778 -0.0160748 111 
0.32028 -0.559862 -0.0150068 113 
0.319568 -0.559694 -0.0144038 107 
0.318649 -0.559476 -0.0138958 115 
0.318308 -0.559397 -0.0131308 113 
0.318281 -0.559393 -0.0122258 112 
0.317003 -0.559089 -0.0118858 109 
0.318491 -0.559447 -0.0102938 101 
0.316431 -0.558957 -0.0103138 105 
0.316665 -0.559015 -0.00928979 155 
0.315188 -0.558664 -0.00905079 109 
0.315111 -0.558648 -0.00817079 112 
0.315655 -0.55878 -0.00700078 108 
-0.0132016 -0.479203 -0.255048 8 
0.00645138 -0.483697 -0.262816 8 
0.00917838 -0.484321 -0.263721 8 
0.302022 -0.551225 -0.400934 10 
0.307942 -0.55258 -0.402881 10 
-0.00930964 -0.480096 -0.255323 11 
0.0115214 -0.484859 -0.263636 10 
0.759762 -0.655805 -0.614891 9 
0.310954 -0.553276 -0.400697 13 
0.306413 -0.552241 -0.397664 10 
0.0135854 -0.485333 -0.263409 12 
0.311648 -0.553441 -0.398308 10 
0.297742 -0.550266 -0.390978 11 
0.304696 -0.551857 -0.393303 11 
0.208946 -0.529981 -0.348716 9 
0.40239 -0.574184 -0.43613 9 
0.306957 -0.55238 -0.391671 9 
0.30422 -0.551757 -0.389546 9 
0.300561 -0.550922 -0.387019 12 
0.296123 -0.54991 -0.384162 10 
0.311367 -0.553396 -0.390082 10 
0.0598054 -0.495906 -0.279411 12 
0.296603 -0.550026 -0.381785 14 
0.30243 -0.55136 -0.383479 11 
0.297677 -0.550275 -0.38053 11 
0.29582 -0.549853 -0.378861 11 
0.293889 -0.549414 -0.377169 8 
0.299822 -0.550772 -0.378867 11 
0.297759 -0.550302 -0.377119 13 
0.294463 -0.549551 -0.374856 14 
0.296066 -0.549919 -0.374683 10 
0.293629 -0.549364 -0.372802 15 
0.294114 -0.549477 -0.372156 14 
0.29497 -0.549674 -0.371664 17 
0.297419 -0.550236 -0.371832 15 
0.296692 -0.550072 -0.370677 17 
0.297934 -0.550358 -0.370336 19 
0.297113 -0.550172 -0.369146 15 
0.298828 -0.550566 -0.368993 18 
0.296087 -0.549941 -0.367029 14 
0.297746 -0.550323 -0.36685 20 
0.300225 -0.550892 -0.366993 18 
0.297514 -0.550274 -0.365057 19 
0.297961 -0.550378 -0.364386 18 
0.295283 -0.549768 -0.362481 25 
0.296423 -0.55003 -0.362086 22 
0.295196 -0.549752 -0.360764 22 
0.296196 -0.549982 -0.360311 26 
0.299594 -0.550761 -0.360782 25 
0.295554 -0.549839 -0.358382 23 
0.300451 -0.550961 -0.359414 26 
0.297421 -0.55027 -0.357414 28 
0.297635 -0.550321 -0.356653 25 
0.299022 -0.55064 -0.356333 27 
0.298673 -0.550562 -0.35536 23 
0.296833 -0.550143 -0.353834 24 
0.299529 -0.550762 -0.353993 28 
0.297823 -0.550374 -0.352524 26 
0.299069 -0.550661 -0.352141 30 
0.299945 -0.550863 -0.35162 32 
0.300163 -0.550915 -0.350858 34 
0.300146 -0.550913 -0.350011 27 
0.300411 -0.550975 -0.349266 31 
0.301151 -0.551147 -0.348689 33 
0.300425 -0.550982 -0.347592 32 
0.300692 -0.551045 -0.346848 31 
0.303098 -0.551598 -0.34685 32 
0.300471 -0.550999 -0.345095 31 
0.300456 -0.550997 -0.344254 37 
0.301338 -0.551201 -0.343721 35 
0.302319 -0.551427 -0.343219 36 
0.302589 -0.551491 -0.342472 39 
0.30267 -0.551512 -0.341661 40 
0.302465 -0.551467 -0.340755 39 
0.302784 -0.551541 -0.340025 40 
0.303772 -0.551769 -0.339516 35 
0.303471 -0.551703 -0.338579 41 
0.30384 -0.551789 -0.337864 44 
0.304162 -0.551864 -0.337132 41 
0.306024 -0.552292 -0.336896 44 
0.304232 -0.551884 -0.335482 41 
0.306966 -0.552512 -0.335518 42 
0.305119 -0.552091 -0.334093 43 
0.304483 -0.551948 -0.333057 41 
0.306299 -0.552365 -0.332791 43 
0.305276 -0.552133 -0.331637 49 
0.306084 -0.55232 -0.331052 52 
0.306653 -0.552452 -0.330391 51 
0.307854 -0.552729 -0.329922 49 
0.30615 -0.552341 -0.328568 49 
0.307348 -0.552617 -0.328096 53 
0.308116 -0.552794 -0.32749 51 
0.308009 -0.552772 -0.326622 50 
0.30961 -0.55314 -0.326259 53 
0.309552 -0.553129 -0.325404 53 
0.310131 -0.553263 -0.324735 53 
0.310123 -0.553263 -0.323895 60 
0.309576 -0.55314 -0.322902 59 
0.310844 -0.553432 -0.322428 54 
0.310886 -0.553444 -0.321602 60 
0.311519 -0.553591 -0.320943 60 
0.311069 -0.55349 -0.319981 63 
0.311309 -0.553547 -0.319211 64 
0.31155 -0.553604 -0.318442 61 
0.31189 -0.553683 -0.317699 59 
0.311835 -0.553673 -0.316848 63 
0.313266 -0.554002 -0.316398 58 
0.312964 -0.553935 -0.31548 65 
0.312761 -0.553891 -0.314591 68 
0.313006 -0.553949 -0.31382 63 
0.314345 -0.554257 -0.313334 65 
0.314192 -0.554224 -0.312458 70 
0.314589 -0.554317 -0.311724 67 
0.314287 -0.55425 -0.31081 76 
0.313589 -0.554092 -0.309798 73 
0.314883 -0.55439 -0.30929 72 
0.315632 -0.554564 -0.308641 80 
0.314432 -0.554291 -0.307508 72 
0.315331 -0.554498 -0.306895 73 
0.315732 -0.554592 -0.306158 73 
0.316083 -0.554675 -0.305408 75 
0.315533 -0.55455 -0.304442 80 
0.316487 -0.554771 -0.303835 86 
0.316439 -0.554762 -0.302989 86 
0.316693 -0.554822 -0.302214 88 
0.317199 -0.55494 -0.301497 84 
0.316548 -0.554793 -0.300513 88 
0.31771 -0.555061 -0.299945 85 
0.317059 -0.554913 -0.298963 84 
0.317921 -0.555113 -0.298323 91 
0.317926 -0.555116 -0.29749 91 
0.317981 -0.55513 -0.296669 94 
0.317937 -0.555122 -0.295827 91 
0.318297 -0.555207 -0.295072 97 
0.317849 -0.555106 -0.294143 94 
0.31826 -0.555202 -0.293399 89 
0.317662 -0.555067 -0.292442 95 
0.317671 -0.555071 -0.291614 93 
0.318083 -0.555167 -0.29087 92 
0.317991 -0.555148 -0.290021 99 
0.318861 -0.555349 -0.289367 105 
0.318011 -0.555157 -0.288367 94 
0.318376 -0.555242 -0.287611 98 
0.318336 -0.555235 -0.286775 96 
0.318096 -0.555182 -0.2859 98 
0.318057 -0.555175 -0.285066 101 
0.31807 -0.55518 -0.284241 101 
0.317932 -0.55515 -0.283389 103 
0.317896 -0.555143 -0.282557 96 
0.317106 -0.554964 -0.281586 101 
0.31682 -0.554901 -0.280711 100 
0.316685 -0.554872 -0.279865 99 
0.316601 -0.554854 -0.279028 101 
0.316417 -0.554814 -0.278175 100 
0.315636 -0.554637 -0.277218 100 
0.315554 -0.55462 -0.276386 99 
0.315224 -0.554547 -0.275512 102 
0.314549 -0.554394 -0.274581 100 
0.314321 -0.554343 -0.273729 103 
0.313403 -0.554135 -0.272763 106 
0.31303 -0.554051 -0.27189 110 
0.313543 -0.55417 -0.271162 108 
0.312532 -0.553941 -0.27019 110 
0.312554 -0.553948 -0.269384 109 
0.311794 -0.553775 -0.268457 110 
0.311476 -0.553704 -0.267602 111 
0.31145 -0.5537 -0.266792 112 
0.310745 -0.553541 -0.265881 114 
0.310624 -0.553515 -0.265059 114 
0.310261 -0.553433 -0.264203 121 
0.309851 -0.553341 -0.263342 121 
0.309539 -0.553272 -0.262496 119 
0.308459 -0.553026 -0.261545 116 
0.308102 -0.552946 -0.260698 118 
0.307795 -0.552877 -0.259859 119 
0.307775 -0.552875 -0.25906 123 
0.30723 -0.552752 -0.258193 125 
0.306593 -0.552607 -0.257316 123 
0.306006 -0.552474 -0.256447 120 
0.30632 -0.552548 -0.255696 127 
0.305262 -0.552308 -0.254772 125 
0.305057 -0.552262 -0.253958 125 
0.304947 -0.552239 -0.253156 125 
0.304085 -0.552043 -0.252266 124 
0.303555 -0.551924 -0.251418 123 
0.303261 -0.551858 -0.250599 124 
0.302781 -0.55175 -0.24976 125 
0.302628 -0.551716 -0.24896 126 
0.301687 -0.551503 -0.248075 125 
0.300935 -0.551332 -0.247214 124 
0.300601 -0.551257 -0.2464 128 
0.300222 -0.551172 -0.245583 130 
0.299753 -0.551066 -0.244759 129 
0.300156 -0.551161 -0.244024 130 
0.299963 -0.551118 -0.243228 133 
0.300046 -0.551139 -0.242461 136 
0.300451 -0.551234 -0.241723 136 
0.300076 -0.551149 -0.240913 136 
0.300114 -0.55116 -0.240141 133 
0.300016 -0.551139 -0.239357 134 
0.300239 -0.551192 -0.238602 135 
0.301061 -0.551382 -0.237896 139 
0.300595 -0.551277 -0.237082 139 
0.300038 -0.551152 -0.236261 136 
0.301138 -0.551405 -0.235574 134 
0.300443 -0.551248 -0.234745 135 
0.301315 -0.55145 -0.234036 139 
0.300989 -0.551377 -0.233236 136 
0.301447 -0.551484 -0.232494 137 
0.301307 -0.551453 -0.231708 137 
0.30089 -0.551359 -0.230905 138 
0.300935 -0.551371 -0.230133 142 
0.301719 -0.551553 -0.229409 139 
0.301811 -0.551576 -0.228639 142 
0.301441 -0.551493 -0.227841 138 
0.301673 -0.551548 -0.22708 142 
0.301536 -0.551518 -0.226297 143 
0.30251 -0.551744 -0.225575 137 
0.30154 -0.551523 -0.224747 137 
0.301773 -0.551578 -0.223985 138 
0.302332 -0.551708 -0.223237 138 
0.303731 -0.552031 -0.222526 147 
0.302804 -0.55182 -0.221706 148 
0.302902 -0.551844 -0.220934 154 
0.303652 -0.552018 -0.220188 148 
0.303984 -0.552096 -0.219423 151 
0.304178 -0.552142 -0.218651 152 
0.303717 -0.552038 -0.217856 151 
0.303911 -0.552085 -0.217085 156 
0.304246 -0.552163 -0.216317 151 
0.304488 -0.552221 -0.215546 154 
0.304497 -0.552225 -0.214767 156 
0.304694 -0.552272 -0.213993 153 
0.306493 -0.552686 -0.213256 150 
0.306598 -0.552712 -0.212476 150 
0.30557 -0.552478 -0.211672 149 
0.306525 -0.552699 -0.210909 153 
0.306395 -0.552671 -0.210124 153 
0.306408 -0.552676 -0.209342 148 
0.306563 -0.552713 -0.208561 151 
0.307002 -0.552816 -0.207783 151 
0.306969 -0.55281 -0.206999 151 
0.307173 -0.552859 -0.206217 150 
0.307949 -0.553039 -0.205437 149 
0.30825 -0.55311 -0.204653 154 
0.309655 -0.553434 -0.203868 154 
0.309432 -0.553384 -0.20308 156 
0.30897 -0.55328 -0.202293 151 
0.309227 -0.553341 -0.201505 150 
0.309198 -0.553336 -0.200717 147 
0.309264 -0.553353 -0.199929 149 
0.309812 -0.553481 -0.199136 147 
0.310072 -0.553543 -0.198343 150 
0.310672 -0.553682 -0.197545 149 
0.312097 -0.554011 -0.196732 150 
0.312217 -0.55404 -0.195936 153 
0.312337 -0.55407 -0.19514 154 
0.312214 -0.554043 -0.194349 155 
0.312676 -0.554151 -0.193544 154 
0.313188 -0.554271 -0.192737 161 
0.313555 -0.554357 -0.191931 159 
0.3154 -0.554782 -0.19108 158 
0.315525 -0.554813 -0.190276 156 
0.315256 -0.554753 -0.189485 155 
0.315234 -0.55475 -0.188685 157 
0.315114 -0.554724 -0.18789 152 
0.315488 -0.554812 -0.187075 156 
0.315418 -0.554798 -0.186278 159 
0.315745 -0.554874 -0.185463 159 
0.315626 -0.554849 -0.184667 158 
0.316947 -0.555154 -0.183804 152 
0.316383 -0.555027 -0.183027 156 
0.31821 -0.555448 -0.182133 154 
0.318493 -0.555515 -0.181311 150 
0.317826 -0.555364 -0.18054 152 
0.318562 -0.555534 -0.179693 159 
0.318797 -0.555591 -0.178871 157 
0.318682 -0.555566 -0.17807 152 
0.318919 -0.555622 -0.177247 154 
0.319006 -0.555644 -0.176433 155 
0.319749 -0.555817 -0.175575 160 
0.319989 -0.555874 -0.174748 154 
0.321092 -0.556129 -0.17386 153 
0.321385 -0.556198 -0.173026 157 
0.321222 -0.556162 -0.172223 156 
0.320704 -0.556045 -0.171448 158 
0.321559 -0.556244 -0.170569 157 
0.321601 -0.556255 -0.16975 161 
0.321033 -0.556126 -0.16898 154 
0.321279 -0.556185 -0.168145 153 
0.321272 -0.556185 -0.167331 152 
0.321724 -0.556291 -0.166476 153 
0.321973 -0.55635 -0.165637 159 
0.322223 -0.556409 -0.164797 156 
0.323654 -0.55674 -0.163847 154 
0.321958 -0.556352 -0.163186 158 
0.322006 -0.556365 -0.162363 157 
0.322105 -0.55639 -0.161535 156 
0.322204 -0.556415 -0.160706 158 
0.322458 -0.556475 -0.159861 157 
0.322252 -0.556429 -0.159063 150 
0.322098 -0.556396 -0.158259 154 
0.321485 -0.556257 -0.157505 156 
0.321894 -0.556353 -0.156642 155 
0.321997 -0.556378 -0.15581 160 
0.321845 -0.556345 -0.155007 162 
0.322307 -0.556453 -0.154133 159 
0.322054 -0.556397 -0.153341 163 
0.321904 -0.556365 -0.152538 164 
0.321652 -0.556309 -0.151747 163 
0.321656 -0.556311 -0.150925 159 
0.321253 -0.556221 -0.150154 158 
0.321207 -0.556212 -0.149338 164 
0.320095 -0.555958 -0.14866 156 
0.32122 -0.556219 -0.147694 160 
0.319753 -0.555884 -0.147066 159 
0.319558 -0.555841 -0.146273 165 
0.319111 -0.55574 -0.145514 160 
0.319422 -0.555813 -0.144652 165 
0.318775 -0.555666 -0.143923 164 
0.318582 -0.555624 -0.143131 161 
0.318794 -0.555674 -0.142282 162 
0.318452 -0.555598 -0.141512 163 
0.318362 -0.555579 -0.140706 166 
0.318777 -0.555676 -0.139824 169 
0.317882 -0.555472 -0.139139 164 
0.316641 -0.555189 -0.13851 168 
0.316105 -0.555068 -0.137776 167 
0.316468 -0.555153 -0.136902 168 
0.316082 -0.555066 -0.136146 165 
0.315449 -0.554922 -0.135431 162 
0.315414 -0.554916 -0.13462 166 
0.314833 -0.554785 -0.133899 163 
0.315246 -0.554881 -0.133013 162 
0.313628 -0.554511 -0.132469 163 
0.313004 -0.55437 -0.131761 163 
0.313217 -0.554421 -0.130911 162 
0.311958 -0.554133 -0.130316 161 
0.312514 -0.554263 -0.129405 162 
0.31268 -0.554303 -0.128561 162 
0.312551 -0.554275 -0.127769 159 
0.312324 -0.554225 -0.126996 156 
0.312246 -0.554209 -0.126195 156 
0.310896 -0.5539 -0.125631 156 
0.310381 -0.553783 -0.124915 156 
0.31167 -0.554082 -0.123857 157 
0.311056 -0.553942 -0.12316 159 
0.3124 -0.554253 -0.122083 154 
0.311882 -0.554136 -0.121367 156 
0.310196 -0.55375 -0.120884 154 
0.312321 -0.554241 -0.119644 159 
0.311413 -0.554034 -0.119008 153 
0.309925 -0.553694 -0.118494 153 
0.309852 -0.553679 -0.117693 154 
0.310022 -0.55372 -0.116842 150 
0.309902 -0.553694 -0.116051 148 
0.309976 -0.553713 -0.115218 152 
0.309905 -0.553698 -0.114416 153 
0.310418 -0.553818 -0.113487 150 
0.309812 -0.553681 -0.112799 151 
0.309888 -0.5537 -0.111964 146 
0.309381 -0.553586 -0.111257 150 
0.309555 -0.553627 -0.110399 148 
0.310022 -0.553737 -0.109474 146 
0.311029 -0.55397 -0.108423 143 
0.310668 -0.553889 -0.107682 139 
0.310307 -0.553808 -0.106942 147 
0.310778 -0.553918 -0.106009 147 
0.310663 -0.553894 -0.105211 147 
0.310548 -0.553869 -0.104413 147 
0.310678 -0.553901 -0.103557 145 
0.311595 -0.554114 -0.102509 144 
0.310941 -0.553965 -0.10184 145 
0.31068 -0.553907 -0.101076 140 
0.310764 -0.553928 -0.100227 139 
0.310602 -0.553893 -0.0994388 142 
0.311866 -0.554186 -0.0982918 140 
0.311213 -0.554038 -0.0976248 146 
0.312582 -0.554354 -0.0964448 142 
0.311385 -0.554081 -0.0959178 146 
0.312112 -0.55425 -0.0948958 143 
0.312002 -0.554227 -0.0940898 143 
0.311695 -0.554158 -0.0933358 142 
0.311931 -0.554214 -0.0924378 142 
0.312069 -0.554248 -0.0915648 143 
0.312357 -0.554316 -0.0906498 141 
0.312348 -0.554316 -0.0898138 139 
0.312388 -0.554327 -0.0889638 139 
0.312727 -0.554407 -0.0880308 145 
0.313316 -0.554545 -0.0870268 145 
0.313409 -0.554568 -0.0861578 144 
0.313302 -0.554546 -0.0853448 140 
0.312649 -0.554397 -0.0846858 137 
0.312991 -0.554478 -0.0837448 140 
0.313584 -0.554616 -0.0827298 142 
0.313679 -0.55464 -0.0818558 139 
0.313874 -0.554687 -0.0809508 139 
0.31387 -0.554688 -0.0801038 138 
0.314067 -0.554735 -0.0791968 136 
0.314615 -0.554864 -0.0781838 138 
0.314663 -0.554877 -0.0773178 138 
0.314912 -0.554936 -0.0763898 134 
0.314357 -0.55481 -0.0757048 133 
0.314456 -0.554835 -0.0748208 133 
0.314354 -0.554814 -0.0739978 134 
0.314756 -0.554908 -0.0730188 132 
0.314958 -0.554956 -0.0720998 135 
0.314605 -0.554877 -0.0713528 136 
0.314908 -0.554949 -0.0703998 137 
0.31501 -0.554974 -0.0695088 135 
0.315214 -0.555023 -0.0685848 134 
0.315519 -0.555096 -0.0676258 136 
0.315522 -0.555098 -0.0667628 134 
0.315728 -0.555148 -0.0658338 134 
0.316697 -0.555373 -0.0646518 130 
0.316497 -0.555329 -0.0638518 128 
0.3164 -0.555308 -0.0630168 130 
0.316455 -0.555323 -0.0621308 131 
0.317073 -0.555467 -0.0610558 132 
0.317181 -0.555494 -0.0601488 141 
0.316931 -0.555439 -0.0593628 133 
0.317347 -0.555537 -0.0583488 132 
0.317047 -0.55547 -0.0575798 133 
0.317054 -0.555473 -0.0567038 134 
0.317011 -0.555465 -0.0558448 130 
0.316968 -0.555457 -0.0549858 128 
0.317284 -0.555532 -0.0539998 131 
0.317088 -0.555489 -0.0531928 131 
0.317713 -0.555635 -0.0520928 129 
0.317568 -0.555604 -0.0512658 124 
0.318248 -0.555763 -0.0501408 127 
0.318672 -0.555862 -0.0491058 128 
0.319046 -0.55595 -0.0480858 124 
0.318695 -0.555872 -0.0473298 129 
0.318759 -0.555888 -0.0464218 123 
0.318979 -0.555941 -0.0454538 121 
0.318992 -0.555946 -0.0445628 122 
0.319109 -0.555975 -0.0436308 126 
0.319123 -0.55598 -0.0427368 123 
0.319189 -0.555998 -0.0418218 123 
0.319203 -0.556003 -0.0409258 122 
0.319322 -0.556033 -0.0399888 121 
0.32012 -0.556218 -0.0387888 121 
0.319614 -0.556104 -0.0380898 125 
0.319109 -0.55599 -0.0373918 116 
0.320064 -0.556212 -0.0361228 113 
0.320396 -0.55629 -0.0350948 111 
0.320413 -0.556296 -0.0341888 115 
0.320326 -0.556278 -0.0333238 115 
0.320764 -0.556381 -0.0322478 116 
0.320468 -0.556315 -0.0314648 110 
0.321065 -0.556455 -0.0303218 108 
0.320454 -0.556316 -0.0296648 106 
0.320789 -0.556396 -0.0286248 111 
0.321601 -0.556585 -0.0273858 112 
0.321094 -0.55647 -0.0266868 110 
0.320746 -0.556392 -0.0259228 106 
0.320662 -0.556375 -0.0250498 110 
0.320526 -0.556345 -0.0241978 104 
0.321286 -0.556523 -0.0229688 110 
0.321151 -0.556494 -0.0221138 111 
0.319962 -0.556222 -0.0217078 112 
0.320511 -0.55635 -0.0205618 111 
0.319693 -0.556164 -0.0200008 109 
0.319401 -0.556099 -0.0192148 109 
0.31995 -0.556227 -0.0180638 108 
0.319029 -0.556017 -0.0175508 108 
0.319211 -0.556061 -0.0165588 108 
0.318397 -0.555876 -0.0160018 111 
0.318684 -0.555944 -0.0149618 114 
0.319023 -0.556024 -0.0138958 114 
0.317115 -0.555586 -0.0138308 112 
0.31855 -0.55592 -0.0122728 102 
0.318 -0.555795 -0.0116028 103 
0.317296 -0.555634 -0.0110048 106 
0.315867 -0.555307 -0.0107388 106 
0.316256 -0.555399 -0.00964578 162 
0.316334 -0.555419 -0.00869379 111 
0.316568 -0.555475 -0.00766779 106 
0.315143 -0.555149 -0.00740979 101 
-0.0150916 -0.477998 -0.25445 7 
-0.0161126 -0.477773 -0.253852 9 
-0.0174476 -0.477479 -0.253158 8 
0.0153574 -0.484709 -0.266209 9 
0.310476 -0.5497 -0.403941 9 
2.81803 -1.10183 -1.60715 7 
0.313758 -0.550427 -0.403684 10 
0.3091 -0.549403 -0.400573 8 
0.303519 -0.548176 -0.39705 8 
0.308723 -0.549324 -0.398596 11 
2.11557 -0.947219 -1.24542 11 
0.226244 -0.531164 -0.358665 9 
0.305685 -0.548661 -0.394502 10 
0.777147 -0.652494 -0.611192 10 
0.0284884 -0.487609 -0.268612 9 
0.300865 -0.547606 -0.389644 11 
0.298588 -0.547107 -0.387738 10 
0.304339 -0.548375 -0.389458 10 
0.301253 -0.547697 -0.387192 13 
-0.00838261 -0.479487 -0.252427 9 
0.296818 -0.546724 -0.383474 8 
0.304163 -0.548344 -0.385857 12 
0.297469 -0.546872 -0.382034 11 
0.298102 -0.547013 -0.381447 11 
0.29964 -0.547354 -0.381254 12 
0.297293 -0.546839 -0.37937 11 
0.29363 -0.546034 -0.376929 9 
0.29273 -0.545838 -0.375691 12 
0.297826 -0.546962 -0.377018 14 
0.294714 -0.546279 -0.374836 14 
0.297398 -0.546872 -0.37512 12 
0.295269 -0.546405 -0.373367 12 
0.295292 -0.546412 -0.372525 10 
0.29817 -0.547048 -0.372873 19 
0.29557 -0.546477 -0.37094 14 
0.295872 -0.546546 -0.370215 18 
0.296175 -0.546615 -0.369489 19 
0.295919 -0.54656 -0.368535 20 
0.296689 -0.546732 -0.368 18 
0.29676 -0.546749 -0.36718 17 
0.296411 -0.546674 -0.366191 20 
0.296156 -0.54662 -0.365242 25 
0.299702 -0.547404 -0.365807 23 
0.298547 -0.547151 -0.364498 20 
0.295165 -0.546408 -0.362317 20 
0.29533 -0.546446 -0.36154 24 
0.29633 -0.546668 -0.361089 20 
0.297242 -0.546871 -0.3606 21 
0.300707 -0.547637 -0.361093 23 
0.297997 -0.547042 -0.359204 22 
0.296949 -0.546813 -0.357961 23 
0.299414 -0.547358 -0.358055 24 
0.298219 -0.547096 -0.356759 24 
0.29652 -0.546724 -0.35528 23 
0.299073 -0.547288 -0.355395 27 
0.299666 -0.547421 -0.354773 26 
0.299836 -0.54746 -0.353993 26 
0.300762 -0.547667 -0.353491 31 
0.301265 -0.54778 -0.352831 29 
0.301057 -0.547736 -0.351912 35 
0.300992 -0.547723 -0.351046 33 
0.302543 -0.548067 -0.350761 27 
0.300436 -0.547604 -0.349165 32 
0.301366 -0.547811 -0.348656 31 
0.301254 -0.547789 -0.347776 33 
0.304052 -0.548408 -0.347918 34 
0.303268 -0.548237 -0.3468 37 
0.302107 -0.547983 -0.345555 36 
0.301616 -0.547876 -0.344547 32 
0.304177 -0.548443 -0.344587 34 
0.301349 -0.547821 -0.342782 34 
0.301903 -0.547945 -0.342134 33 
0.302887 -0.548164 -0.341629 34 
0.304451 -0.548511 -0.341315 39 
0.303001 -0.548193 -0.339993 41 
0.305384 -0.548721 -0.339945 41 
0.303881 -0.548391 -0.338611 42 
0.305163 -0.548676 -0.338193 44 
0.303615 -0.548337 -0.336852 41 
0.3048 -0.5486 -0.336399 42 
0.303734 -0.548366 -0.335221 40 
0.306946 -0.549077 -0.33541 41 
0.305291 -0.548714 -0.334047 49 
0.305906 -0.548851 -0.333405 41 
0.306328 -0.548946 -0.332701 42 
0.308112 -0.549342 -0.332418 48 
0.306644 -0.54902 -0.331126 44 
0.308479 -0.549427 -0.330853 43 
0.308517 -0.549437 -0.330026 44 
0.308019 -0.549329 -0.329037 52 
0.308545 -0.549447 -0.328359 55 
0.3102 -0.549814 -0.328015 56 
0.309748 -0.549716 -0.327042 52 
0.308956 -0.549543 -0.325971 53 
0.310417 -0.549868 -0.325562 56 
0.309966 -0.54977 -0.324593 54 
0.310596 -0.549911 -0.323938 51 
0.310933 -0.549987 -0.323197 54 
0.311912 -0.550205 -0.322638 58 
0.311213 -0.550053 -0.321602 57 
0.311996 -0.550228 -0.320985 58 
0.312039 -0.550239 -0.320159 61 
0.311292 -0.550076 -0.319116 55 
0.312274 -0.550295 -0.31855 58 
0.312615 -0.550372 -0.317807 57 
0.312957 -0.550449 -0.317063 59 
0.313697 -0.550615 -0.316425 63 
0.313196 -0.550506 -0.315454 66 
0.313291 -0.550529 -0.314643 66 
0.314832 -0.550871 -0.314212 70 
0.31393 -0.550674 -0.31314 66 
0.314726 -0.550851 -0.312509 72 
0.314773 -0.550864 -0.311685 71 
0.315221 -0.550965 -0.310963 69 
0.315971 -0.551132 -0.310316 71 
0.315869 -0.551112 -0.309453 72 
0.31637 -0.551224 -0.308741 79 
0.316672 -0.551293 -0.307979 76 
0.315716 -0.551084 -0.306908 75 
0.31642 -0.551241 -0.306244 78 
0.31632 -0.551221 -0.305384 75 
0.316622 -0.551289 -0.304622 75 
0.316624 -0.551292 -0.303787 79 
0.317432 -0.551472 -0.303143 84 
0.317586 -0.551508 -0.302343 79 
0.317993 -0.5516 -0.301602 79 
0.318706 -0.551759 -0.30093 85 
0.318607 -0.551739 -0.300071 87 
0.318206 -0.551652 -0.299145 81 
0.317705 -0.551544 -0.298199 88 
0.318316 -0.551681 -0.297502 85 
0.318322 -0.551684 -0.296669 91 
0.318176 -0.551654 -0.295805 89 
0.318942 -0.551825 -0.295137 88 
0.318493 -0.551727 -0.294208 81 
0.318348 -0.551697 -0.293346 86 
0.318964 -0.551835 -0.292644 88 
0.319074 -0.551862 -0.291835 92 
0.318727 -0.551787 -0.290932 94 
0.318635 -0.551769 -0.290083 93 
0.318039 -0.551639 -0.289133 99 
0.318655 -0.551777 -0.288428 95 
0.317757 -0.55158 -0.287421 100 
0.318576 -0.551763 -0.286755 99 
0.318639 -0.551779 -0.285939 98 
0.318348 -0.551716 -0.285056 102 
0.318664 -0.551788 -0.284289 102 
0.318071 -0.551659 -0.283351 104 
0.318337 -0.55172 -0.282576 101 
0.3182 -0.551691 -0.281725 93 
0.317963 -0.551641 -0.280858 102 
0.317324 -0.551502 -0.279919 101 
0.31729 -0.551496 -0.279091 104 
0.316355 -0.551292 -0.278104 107 
0.316973 -0.55143 -0.277393 104 
0.315542 -0.551116 -0.276326 106 
0.315859 -0.551188 -0.275563 108 
0.314933 -0.550985 -0.27459 109 
0.314309 -0.550849 -0.273671 106 
0.314279 -0.550844 -0.272853 107 
0.314447 -0.550883 -0.272067 108 
0.313974 -0.550781 -0.271178 110 
0.313207 -0.550613 -0.270245 109 
0.313278 -0.550631 -0.269446 116 
0.312516 -0.550464 -0.268518 114 
0.311707 -0.550287 -0.267587 115 
0.312024 -0.550359 -0.266829 118 
0.311267 -0.550194 -0.26591 124 
0.31066 -0.550062 -0.265016 117 
0.310297 -0.549983 -0.26416 116 
0.309984 -0.549916 -0.263314 118 
0.30972 -0.549859 -0.262476 121 
0.308351 -0.549559 -0.261484 120 
0.307899 -0.549461 -0.260625 123 
0.307687 -0.549416 -0.2598 122 
0.307524 -0.549381 -0.258984 126 
0.307171 -0.549305 -0.258142 129 
0.306533 -0.549166 -0.257266 126 
0.306848 -0.549238 -0.256514 128 
0.306545 -0.549173 -0.255684 129 
0.306243 -0.549108 -0.254855 126 
0.306179 -0.549095 -0.254057 122 
0.305123 -0.548864 -0.253139 125 
0.303886 -0.548592 -0.252204 124 
0.303824 -0.54858 -0.251412 128 
0.302922 -0.548383 -0.250524 127 
0.303002 -0.548402 -0.24975 127 
0.302849 -0.54837 -0.24895 128 
0.30251 -0.548297 -0.248131 130 
0.3012 -0.548009 -0.247209 132 
0.302487 -0.548295 -0.246566 127 
0.302476 -0.548295 -0.245784 130 
0.30126 -0.548028 -0.24488 132 
0.300788 -0.547925 -0.244056 131 
0.301148 -0.548007 -0.243314 131 
0.30077 -0.547925 -0.2425 135 
0.300992 -0.547976 -0.241745 133 
0.300569 -0.547884 -0.24093 135 
0.301346 -0.548058 -0.240224 135 
0.300601 -0.547895 -0.239381 133 
0.300549 -0.547885 -0.238602 141 
0.300819 -0.547946 -0.23785 141 
0.300998 -0.547988 -0.237089 136 
0.301547 -0.548111 -0.236358 139 
0.301542 -0.548112 -0.235581 139 
0.301445 -0.548092 -0.234798 133 
0.301997 -0.548216 -0.234064 137 
0.301947 -0.548207 -0.233283 136 
0.301667 -0.548147 -0.232487 138 
0.301804 -0.548179 -0.231721 140 
0.301571 -0.548129 -0.23093 141 
0.30231 -0.548294 -0.230203 142 
0.302588 -0.548357 -0.229444 146 
0.302356 -0.548308 -0.228653 140 
0.30217 -0.548269 -0.227866 145 
0.302774 -0.548404 -0.227125 139 
0.302404 -0.548324 -0.226328 145 
0.302359 -0.548316 -0.22555 147 
0.302779 -0.548411 -0.224796 143 
0.302689 -0.548392 -0.224015 147 
0.303997 -0.548684 -0.223302 149 
0.303301 -0.548531 -0.222491 144 
0.303259 -0.548524 -0.221712 152 
0.30401 -0.548692 -0.220968 151 
0.30453 -0.548808 -0.220211 150 
0.304629 -0.548832 -0.219435 154 
0.30356 -0.548598 -0.218617 152 
0.304174 -0.548735 -0.217861 149 
0.304743 -0.548863 -0.217102 148 
0.30508 -0.548939 -0.216333 150 
0.305135 -0.548953 -0.215555 149 
0.305003 -0.548926 -0.214772 148 
0.3052 -0.548971 -0.213998 150 
0.305492 -0.549038 -0.213225 152 
0.306162 -0.549188 -0.212459 147 
0.306646 -0.549296 -0.211687 149 
0.307084 -0.549395 -0.210913 157 
0.306859 -0.549347 -0.210126 154 
0.307346 -0.549457 -0.20935 151 
0.307549 -0.549503 -0.208569 153 
0.30761 -0.549519 -0.207786 153 
0.307957 -0.549598 -0.207005 153 
0.308019 -0.549613 -0.206221 150 
0.308512 -0.549724 -0.205438 150 
0.309677 -0.549984 -0.204656 152 
0.309501 -0.549946 -0.203868 153 
0.309806 -0.550016 -0.20308 149 
0.309776 -0.550011 -0.202292 148 
0.309746 -0.550006 -0.201504 146 
0.310294 -0.550129 -0.200712 148 
0.310072 -0.550082 -0.199925 149 
0.310718 -0.550227 -0.19913 149 
0.311222 -0.55034 -0.198333 150 
0.312456 -0.550615 -0.197525 150 
0.312527 -0.550632 -0.19673 154 
0.312451 -0.550618 -0.195938 149 
0.31301 -0.550743 -0.195134 149 
0.313131 -0.550772 -0.194336 150 
0.313399 -0.550833 -0.193535 151 
0.313522 -0.550862 -0.192737 156 
0.313693 -0.550902 -0.191936 161 
0.315738 -0.551356 -0.19108 156 
0.315023 -0.5512 -0.190302 158 
0.315198 -0.55124 -0.189498 150 
0.31567 -0.551347 -0.188682 158 
0.315797 -0.551377 -0.187877 151 
0.316024 -0.551429 -0.187068 152 
0.316251 -0.551481 -0.186257 154 
0.316579 -0.551555 -0.185442 156 
0.316759 -0.551597 -0.184631 150 
0.317987 -0.551871 -0.183772 157 
0.318671 -0.552024 -0.182933 153 
0.318854 -0.552066 -0.182118 153 
0.318937 -0.552087 -0.181306 153 
0.319273 -0.552163 -0.18048 150 
0.319307 -0.552172 -0.17967 150 
0.319242 -0.55216 -0.178866 150 
0.321301 -0.552618 -0.177934 148 
0.321287 -0.552616 -0.177123 149 
0.321121 -0.552582 -0.17632 147 
0.321464 -0.552659 -0.175485 150 
0.321757 -0.552726 -0.174652 152 
0.321898 -0.552759 -0.173829 154 
0.321377 -0.552646 -0.173051 156 
0.321519 -0.552679 -0.172227 157 
0.321815 -0.552747 -0.171391 152 
0.322572 -0.552916 -0.170518 158 
0.322358 -0.552871 -0.169718 155 
0.322555 -0.552916 -0.168886 156 
0.322445 -0.552894 -0.168078 155 
0.3247 -0.553395 -0.167071 156 
0.323148 -0.553053 -0.166383 154 
0.324223 -0.553293 -0.16547 156 
0.322419 -0.552895 -0.164811 152 
0.323081 -0.553044 -0.163932 157 
0.325244 -0.553525 -0.16291 157 
0.324567 -0.553377 -0.162151 157 
0.322403 -0.552899 -0.16154 155 
0.323685 -0.553185 -0.160594 164 
0.323014 -0.553039 -0.15984 163 
0.32291 -0.553017 -0.159031 160 
0.323064 -0.553053 -0.158194 162 
0.32255 -0.552941 -0.157428 159 
0.323064 -0.553057 -0.156552 162 
0.322962 -0.553037 -0.155742 158 
0.322861 -0.553016 -0.154931 164 
0.323223 -0.553098 -0.154068 162 
0.322917 -0.553032 -0.153281 163 
0.322664 -0.552978 -0.152489 163 
0.32277 -0.553003 -0.151654 157 
0.322929 -0.553041 -0.150812 165 
0.322677 -0.552987 -0.15002 165 
0.32176 -0.552786 -0.149312 160 
0.322278 -0.552902 -0.148424 161 
0.321978 -0.552837 -0.14764 160 
0.321934 -0.55283 -0.146823 162 
0.321583 -0.552754 -0.146047 161 
0.320674 -0.552554 -0.145348 160 
0.321958 -0.552841 -0.14435 165 
0.319574 -0.552314 -0.143859 164 
0.319533 -0.552307 -0.143045 159 
0.318987 -0.552188 -0.142303 166 
0.318241 -0.552024 -0.141593 160 
0.318252 -0.552029 -0.140773 160 
0.318818 -0.552156 -0.139869 160 
0.318931 -0.552183 -0.139032 162 
0.319045 -0.55221 -0.138194 163 
0.318957 -0.552193 -0.137386 162 
0.316858 -0.551729 -0.136894 168 
0.316222 -0.55159 -0.136178 165 
0.316137 -0.551573 -0.135374 166 
0.316201 -0.551589 -0.134546 164 
0.316217 -0.551595 -0.133726 167 
0.315833 -0.551512 -0.132972 167 
0.315352 -0.551407 -0.132235 163 
0.315368 -0.551412 -0.131415 167 
0.314938 -0.551319 -0.130671 164 
0.313027 -0.550897 -0.130187 156 
0.313193 -0.550936 -0.129344 161 
0.312473 -0.550778 -0.128658 160 
0.312934 -0.550882 -0.127761 158 
0.312805 -0.550855 -0.126969 158 
0.312776 -0.550851 -0.126159 159 
0.312747 -0.550846 -0.125348 155 
0.312177 -0.550722 -0.124639 154 
0.310731 -0.550403 -0.124099 154 
0.310655 -0.550388 -0.1233 155 
0.310725 -0.550405 -0.122473 151 
0.310649 -0.55039 -0.121674 158 
0.312238 -0.550745 -0.120545 152 
0.310938 -0.550458 -0.119987 153 
0.312728 -0.550857 -0.11881 151 
0.310498 -0.550364 -0.118444 152 
0.309646 -0.550177 -0.117803 151 
0.309962 -0.550249 -0.116923 151 
0.30989 -0.550235 -0.116122 147 
0.310598 -0.550394 -0.115156 148 
0.310185 -0.550305 -0.114426 149 
0.310163 -0.550301 -0.113613 151 
0.310385 -0.550353 -0.112746 153 
0.310559 -0.550393 -0.111889 150 
0.310343 -0.550347 -0.111117 150 
0.310323 -0.550345 -0.110301 150 
0.310841 -0.550461 -0.109364 148 
0.310333 -0.55035 -0.108657 148 
0.310754 -0.550446 -0.107739 150 
0.310784 -0.550454 -0.106908 147 
0.310717 -0.550442 -0.1061 145 
0.310651 -0.550429 -0.105292 144 
0.310438 -0.550383 -0.104518 145 
0.311304 -0.550577 -0.103486 146 
0.31114 -0.550543 -0.102699 145 
0.311272 -0.550574 -0.10184 148 
0.311995 -0.550736 -0.100835 145 
0.311488 -0.550626 -0.10013 145 
0.311769 -0.55069 -0.0992308 147 
0.311263 -0.55058 -0.0985268 142 
0.31189 -0.550721 -0.0975378 138 
0.312322 -0.550819 -0.0965958 137 
0.312211 -0.550796 -0.0957908 143 
0.312694 -0.550905 -0.0948318 139 
0.312435 -0.550849 -0.0940638 135 
0.312671 -0.550904 -0.0931668 135 
0.312909 -0.550959 -0.0922668 141 
0.312453 -0.550859 -0.0915508 138 
0.313188 -0.551024 -0.0905168 143 
0.313029 -0.550991 -0.0897198 142 
0.312673 -0.550914 -0.0889778 142 
0.313112 -0.551013 -0.0880168 135 
0.313602 -0.551124 -0.0870408 139 
0.313445 -0.551091 -0.0862418 139 
0.313888 -0.551191 -0.0852738 136 
0.313982 -0.551214 -0.0844028 140 
0.314577 -0.551348 -0.0833888 143 
0.31402 -0.551227 -0.0827008 143 
0.313915 -0.551205 -0.0818848 139 
0.314211 -0.551273 -0.0809508 132 
0.314408 -0.551318 -0.0800458 138 
0.314354 -0.551308 -0.0792118 138 
0.314501 -0.551343 -0.0783178 133 
0.315455 -0.551557 -0.0771818 132 
0.3151 -0.55148 -0.0764358 133 
0.315957 -0.551672 -0.0753228 130 
0.316158 -0.551719 -0.0744048 130 
0.315601 -0.551597 -0.0737188 135 
0.316665 -0.551835 -0.0725338 134 
0.315651 -0.551612 -0.0719898 132 
0.317277 -0.551975 -0.0706228 134 
0.31626 -0.551751 -0.0700808 129 
0.31677 -0.551867 -0.0690588 133 
0.316111 -0.551722 -0.0684068 136 
0.316215 -0.551747 -0.0675118 135 
0.316523 -0.551818 -0.0665498 131 
0.316373 -0.551786 -0.0657348 132 
0.316275 -0.551767 -0.0649018 135 
0.316279 -0.551769 -0.0640358 135 
0.316487 -0.551818 -0.0631018 134 
0.316695 -0.551866 -0.0621648 137 
0.317109 -0.55196 -0.0611588 132 
0.317166 -0.551974 -0.0602698 133 
0.317428 -0.552035 -0.0593108 132 
0.317999 -0.552164 -0.0582438 130 
0.317595 -0.552076 -0.0575088 130 
0.317603 -0.55208 -0.0566328 132 
0.317713 -0.552106 -0.0557208 127 
0.317619 -0.552087 -0.0548778 130 
0.318502 -0.552285 -0.0536918 127 
0.31846 -0.552278 -0.0528288 131 
0.318676 -0.552328 -0.0518728 127 
0.31848 -0.552287 -0.0510628 128 
0.318697 -0.552337 -0.0501038 127 
0.318759 -0.552353 -0.0491998 127 
0.318978 -0.552403 -0.0482368 129 
0.318627 -0.552328 -0.0474818 128 
0.318639 -0.552332 -0.0465928 125 
0.319533 -0.552533 -0.0453768 125 
0.319287 -0.55248 -0.0445818 123 
0.318574 -0.552324 -0.0439608 124 
0.319418 -0.552513 -0.0427558 117 
0.319224 -0.552472 -0.0419398 123 
0.318875 -0.552397 -0.0411828 120 
0.319357 -0.552506 -0.0401078 124 
0.319894 -0.552627 -0.0390098 117 
0.319753 -0.552598 -0.0381708 118 
0.320396 -0.552743 -0.0370258 113 
0.32057 -0.552784 -0.0360618 113 
0.320221 -0.552708 -0.0353008 114 
0.319977 -0.552656 -0.0344998 111 
0.319994 -0.552662 -0.0335948 112 
0.319438 -0.55254 -0.0329178 111 
0.320608 -0.552803 -0.0315498 107 
0.320679 -0.552821 -0.0306188 108 
0.320331 -0.552745 -0.0298568 109 
0.320561 -0.552798 -0.0288608 111 
0.321107 -0.552922 -0.0277318 113 
0.320601 -0.552812 -0.0270338 111 
0.320254 -0.552737 -0.0262718 108 
0.320328 -0.552755 -0.0253348 110 
0.320718 -0.552844 -0.0242638 111 
0.320687 -0.552839 -0.0233678 109 
0.319973 -0.552682 -0.0227598 113 
0.3201 -0.552713 -0.0217968 116 
0.320071 -0.552708 -0.0208988 117 
0.319726 -0.552634 -0.0201358 113 
0.319802 -0.552653 -0.0191918 112 
0.319668 -0.552625 -0.0183378 113 
0.319692 -0.552633 -0.0174138 110 
0.319348 -0.552558 -0.0166498 108 
0.318377 -0.552344 -0.0161628 114 
0.318768 -0.552434 -0.0150778 120 
0.31895 -0.552476 -0.0140818 116 
0.318871 -0.552461 -0.0132008 111 
0.317797 -0.552224 -0.0127658 109 
0.317458 -0.552151 -0.0120028 103 
0.317223 -0.5521 -0.0111938 104 
0.317457 -0.552155 -0.0101708 108 
0.31665 -0.551978 -0.00962279 161 
0.316261 -0.551893 -0.00888478 111 
0.314992 -0.551613 -0.00855178 114 
0.315329 -0.55169 -0.00748179 109 
0.167154 -0.515863 -0.338079 10 
0.300988 -0.544232 -0.401929 10 
0.311719 -0.546508 -0.406212 8 
0.0331994 -0.487468 -0.274159 11 
0.304635 -0.545011 -0.401008 9 
0.302059 -0.544467 -0.39889 10 
0.299996 -0.544032 -0.397026 12 
0.206179 -0.524146 -0.352087 10 
0.0136414 -0.483324 -0.264158 10 
0.140853 -0.510299 -0.320595 8 
0.0320754 -0.487235 -0.271454 9 
0.302728 -0.544621 -0.39389 8 
0.306172 -0.545353 -0.394593 11 
0.0277914 -0.486328 -0.268698 11 
0.307639 -0.545668 -0.393483 11 
0.305331 -0.545181 -0.391544 10 
0.299773 -0.544005 -0.388147 10 
0.306051 -0.545338 -0.390098 9 
0.302502 -0.544587 -0.387624 11 
0.297357 -0.543499 -0.384456 10 
0.299558 -0.543967 -0.384566 8 
0.191686 -0.521094 -0.336281 9 
-0.0214393 -0.475888 -0.247402 9 
0.298474 -0.543743 -0.381489 11 
0.296186 -0.54326 -0.37963 11 
0.298372 -0.543726 -0.379717 12 
0.294456 -0.542897 -0.377169 11 
0.296904 -0.543418 -0.377365 15 
0.294824 -0.542979 -0.37562 16 
0.300976 -0.544286 -0.377379 13 
0.2965 -0.543339 -0.374624 11 
0.298971 -0.543865 -0.374808 16 
0.302047 -0.544519 -0.375235 16 
0.298258 -0.543717 -0.372795 16 
0.297528 -0.543564 -0.371637 16 
0.297738 -0.543611 -0.37087 23 
0.296356 -0.54332 -0.369451 21 
0.296193 -0.543287 -0.368535 24 
0.297011 -0.543463 -0.368019 19 
0.298162 -0.543709 -0.367634 23 
0.297013 -0.543467 -0.366322 23 
0.296944 -0.543454 -0.365447 22 
0.301268 -0.544374 -0.366318 27 
0.295876 -0.543232 -0.363332 17 
0.298567 -0.543805 -0.363547 24 
0.301198 -0.544365 -0.363728 20 
0.29843 -0.543779 -0.361799 21 
0.298974 -0.543897 -0.361164 21 
0.299614 -0.544034 -0.360563 21 
0.299357 -0.543982 -0.359618 25 
0.300519 -0.54423 -0.359215 29 
0.299647 -0.544047 -0.358037 27 
0.299532 -0.544025 -0.357149 31 
0.300363 -0.544203 -0.356617 24 
0.30115 -0.544372 -0.356065 23 
0.300846 -0.544309 -0.355106 26 
0.299927 -0.544117 -0.353923 25 
0.30095 -0.544335 -0.353456 27 
0.301787 -0.544515 -0.352918 24 
0.302435 -0.544655 -0.352309 27 
0.300516 -0.544249 -0.350773 28 
0.302924 -0.544762 -0.350795 31 
0.302524 -0.544679 -0.349808 30 
0.302841 -0.544748 -0.349078 34 
0.302537 -0.544686 -0.348128 30 
0.302424 -0.544664 -0.347247 34 
0.301267 -0.54442 -0.346004 33 
0.30397 -0.544996 -0.346101 36 
0.302423 -0.54467 -0.344727 32 
0.303027 -0.5448 -0.344095 34 
0.304209 -0.545053 -0.343658 29 
0.303475 -0.544899 -0.342569 33 
0.303364 -0.544877 -0.341693 35 
0.30378 -0.544967 -0.340995 33 
0.304053 -0.545027 -0.340247 38 
0.303991 -0.545016 -0.339389 35 
0.304505 -0.545127 -0.338721 39 
0.305068 -0.545249 -0.338067 35 
0.304958 -0.545227 -0.337194 43 
0.304129 -0.545053 -0.33609 38 
0.306089 -0.545471 -0.335882 37 
0.306899 -0.545645 -0.335302 39 
0.306596 -0.545583 -0.334368 38 
0.307166 -0.545705 -0.333709 39 
0.306814 -0.545633 -0.332761 42 
0.30753 -0.545787 -0.332146 43 
0.30864 -0.546024 -0.33165 44 
0.308238 -0.545941 -0.330689 44 
0.308227 -0.545941 -0.329848 48 
0.308217 -0.54594 -0.329008 47 
0.310312 -0.546387 -0.328799 55 
0.308441 -0.545992 -0.327403 50 
0.309556 -0.54623 -0.326897 50 
0.311169 -0.546575 -0.326534 51 
0.309782 -0.546283 -0.325289 54 
0.310215 -0.546376 -0.324579 53 
0.311142 -0.546575 -0.324009 57 
0.311925 -0.546743 -0.323395 57 
0.311768 -0.546712 -0.322512 59 
0.311021 -0.546555 -0.321463 57 
0.311162 -0.546587 -0.320667 61 
0.311352 -0.546629 -0.319885 60 
0.312483 -0.546872 -0.319361 55 
0.313321 -0.547052 -0.318754 59 
0.312175 -0.54681 -0.317605 60 
0.312764 -0.546937 -0.316929 60 
0.313953 -0.547192 -0.316412 59 
0.313898 -0.547182 -0.31556 65 
0.313794 -0.547162 -0.314696 64 
0.314889 -0.547396 -0.314147 67 
0.314785 -0.547376 -0.313282 67 
0.314882 -0.547399 -0.312471 63 
0.31508 -0.547443 -0.311685 62 
0.315579 -0.547551 -0.310976 61 
0.315727 -0.547584 -0.310177 63 
0.315977 -0.547639 -0.309403 75 
0.315524 -0.547545 -0.308454 79 
0.315724 -0.547589 -0.307669 79 
0.316881 -0.547837 -0.307117 71 
0.316981 -0.54786 -0.306305 79 
0.317083 -0.547884 -0.305493 81 
0.317084 -0.547886 -0.304658 78 
0.317186 -0.547909 -0.303847 85 
0.318098 -0.548105 -0.303226 86 
0.318252 -0.54814 -0.302425 86 
0.318407 -0.548175 -0.301625 89 
0.318664 -0.548231 -0.300848 84 
0.318566 -0.548212 -0.299991 84 
0.31857 -0.548215 -0.299157 83 
0.318371 -0.548175 -0.298278 91 
0.318174 -0.548135 -0.297401 91 
0.319041 -0.548321 -0.296758 90 
0.318692 -0.548249 -0.295849 92 
0.318597 -0.548231 -0.294996 93 
0.317996 -0.548105 -0.294036 98 
0.318256 -0.548162 -0.29326 101 
0.318771 -0.548273 -0.292538 99 
0.318374 -0.548191 -0.291625 93 
0.318332 -0.548184 -0.290786 107 
0.318493 -0.54822 -0.28999 100 
0.318554 -0.548235 -0.289173 103 
0.318412 -0.548207 -0.288317 96 
0.318423 -0.548211 -0.287491 95 
0.318283 -0.548183 -0.286636 103 
0.318548 -0.548241 -0.285861 102 
0.317752 -0.548074 -0.284882 99 
0.318068 -0.548143 -0.284117 102 
0.317678 -0.548062 -0.283219 102 
0.317742 -0.548077 -0.282407 105 
0.316452 -0.547805 -0.281346 103 
0.316717 -0.547863 -0.280574 102 
0.316183 -0.547752 -0.279657 104 
0.316049 -0.547725 -0.278814 105 
0.316515 -0.547826 -0.278078 104 
0.315485 -0.547609 -0.277079 106 
0.315502 -0.547614 -0.276266 102 
0.314528 -0.547409 -0.275284 111 
0.314943 -0.547499 -0.27454 111 
0.314071 -0.547316 -0.27358 113 
0.313401 -0.547175 -0.272658 113 
0.31288 -0.547066 -0.271762 113 
0.31295 -0.547083 -0.270964 113 
0.312824 -0.547058 -0.270135 116 
0.313141 -0.547127 -0.269377 120 
0.313409 -0.547186 -0.268609 121 
0.313039 -0.547109 -0.267744 117 
0.311789 -0.546845 -0.266748 120 
0.311228 -0.546728 -0.265859 116 
0.310961 -0.546673 -0.265016 120 
0.31118 -0.546721 -0.264245 119 
0.310429 -0.546563 -0.263335 120 
0.309826 -0.546437 -0.262448 121 
0.310046 -0.546485 -0.261679 124 
0.309348 -0.546339 -0.260784 126 
0.308127 -0.546081 -0.25982 121 
0.307581 -0.545967 -0.258952 121 
0.307752 -0.546005 -0.25818 124 
0.307542 -0.545962 -0.257359 125 
0.306857 -0.545818 -0.256478 127 
0.306506 -0.545745 -0.255642 129 
0.306204 -0.545683 -0.254814 123 
0.305195 -0.54547 -0.2539 125 
0.30466 -0.545358 -0.253048 123 
0.303988 -0.545216 -0.252182 125 
0.303739 -0.545165 -0.251368 125 
0.303724 -0.545164 -0.250583 123 
0.302637 -0.544935 -0.249676 125 
0.302066 -0.544815 -0.248831 124 
0.302007 -0.544804 -0.248045 133 
0.301578 -0.544714 -0.247219 139 
0.30203 -0.544812 -0.246488 132 
0.302344 -0.544881 -0.245741 135 
0.302426 -0.5449 -0.24497 130 
0.302138 -0.544841 -0.244161 131 
0.302128 -0.544841 -0.243382 131 
0.301655 -0.544742 -0.242558 129 
0.301323 -0.544673 -0.241749 128 
0.301315 -0.544673 -0.240972 133 
0.302048 -0.544831 -0.240261 133 
0.30232 -0.54489 -0.239508 133 
0.30134 -0.544684 -0.238645 138 
0.302121 -0.544852 -0.237935 135 
0.30193 -0.544813 -0.237143 136 
0.302018 -0.544833 -0.236373 135 
0.302198 -0.544873 -0.235611 136 
0.301731 -0.544776 -0.234798 138 
0.301912 -0.544816 -0.234036 136 
0.303164 -0.545084 -0.233351 130 
0.302278 -0.544897 -0.23251 135 
0.302043 -0.54485 -0.231718 139 
0.302831 -0.545019 -0.230995 140 
0.303016 -0.54506 -0.23023 137 
0.303715 -0.545211 -0.229497 138 
0.303201 -0.545103 -0.228688 141 
0.302736 -0.545006 -0.227883 142 
0.304089 -0.545296 -0.227184 140 
0.30353 -0.545178 -0.226375 145 
0.303485 -0.545171 -0.225595 141 
0.30344 -0.545163 -0.224815 139 
0.30377 -0.545235 -0.224055 146 
0.304381 -0.545367 -0.223307 147 
0.303823 -0.54525 -0.222502 147 
0.30467 -0.545432 -0.221762 152 
0.304816 -0.545465 -0.22099 157 
0.304727 -0.545448 -0.220207 150 
0.304968 -0.545501 -0.219437 155 
0.305303 -0.545574 -0.21867 153 
0.30484 -0.545477 -0.217874 150 
0.305505 -0.545621 -0.217118 152 
0.305231 -0.545564 -0.216329 150 
0.305851 -0.545698 -0.215568 146 
0.306711 -0.545883 -0.214811 149 
0.30748 -0.546049 -0.214048 154 
0.306162 -0.54577 -0.213234 151 
0.30693 -0.545935 -0.21247 151 
0.306846 -0.545919 -0.211685 146 
0.307427 -0.546045 -0.210914 152 
0.307534 -0.546069 -0.210132 151 
0.307499 -0.546064 -0.209348 152 
0.307893 -0.546149 -0.20857 152 
0.308957 -0.546378 -0.207797 150 
0.31022 -0.546649 -0.207022 158 
0.310042 -0.546613 -0.206232 152 
0.310202 -0.546649 -0.205445 155 
0.309785 -0.546561 -0.204655 152 
0.310186 -0.546649 -0.203868 147 
0.310203 -0.546654 -0.20308 151 
0.309884 -0.546588 -0.202292 150 
0.310094 -0.546635 -0.201504 149 
0.310498 -0.546722 -0.200713 148 
0.311921 -0.547028 -0.199912 146 
0.311214 -0.546879 -0.199128 151 
0.312984 -0.547258 -0.198316 151 
0.312372 -0.547129 -0.19753 156 
0.312637 -0.547187 -0.196734 154 
0.313098 -0.547287 -0.195932 151 
0.313365 -0.547346 -0.195133 150 
0.313193 -0.547311 -0.194342 151 
0.313706 -0.547423 -0.193535 153 
0.315651 -0.547839 -0.19269 157 
0.316221 -0.547962 -0.191875 158 
0.316148 -0.547948 -0.191077 156 
