0.416482,-0.128233,0.184356,111
0.416264,-0.128137,0.185155,106
0.416571,-0.128277,0.186203,103
0.416591,-0.128289,0.187117,99
0.416517,-0.128258,0.187986,97
0.416205,-0.128119,0.188741,97
0.41575,-0.127917,0.189427,93
0.415581,-0.127843,0.190251,91
0.415365,-0.127748,0.191052,153
0.415721,-0.12791,0.192133,90
0.416172,-0.128116,0.193264,92
0.415528,-0.127828,0.193855,92
0.421861,-0.125917,-0.208261,9
0.420203,-0.125193,-0.206478,12
0.420747,-0.125434,-0.205836,12
0.420412,-0.125289,-0.204744,10
0.419691,-0.124975,-0.203456,8
0.425759,-0.127637,-0.205623,11
0.15866,-0.0105608,-0.0719962,10
0.42191,-0.125955,-0.201825,9
0.455293,-0.140589,-0.217652,11
0.420511,-0.125346,-0.19929,12
0.142138,-0.00332028,-0.0631316,11
0.413275,-0.122179,-0.193885,13
0.415881,-0.123323,-0.194271,9
0.418328,-0.124398,-0.194569,9
0.412099,-0.12167,-0.190627,8
0.137782,-0.00141395,-0.0597751,9
0.349242,-0.0941196,-0.158557,9
0.418183,-0.124344,-0.190882,9
0.416716,-0.123702,-0.189278,11
0.1348,-0.000108999,-0.0573859,9
0.418797,-0.12462,-0.18847,11
0.413925,-0.122486,-0.185271,8
0.415775,-0.123299,-0.185251,13
0.418598,-0.124539,-0.185677,13
0.412803,-0.122001,-0.182086,10
0.413705,-0.122398,-0.181619,11
0.41664,-0.123687,-0.182085,10
0.418035,-0.124301,-0.181834,18
0.411942,-0.121631,-0.178163,11
0.413771,-0.122436,-0.178114,12
0.413788,-0.122445,-0.17724,8
0.40956,-0.120594,-0.174461,9
0.41415,-0.122608,-0.175641,12
0.406206,-0.119127,-0.171229,13
0.409662,-0.120645,-0.171896,15
0.410413,-0.120976,-0.171358,16
0.408928,-0.120327,-0.169838,12
0.407861,-0.119862,-0.168508,9
0.406981,-0.119478,-0.167265,14
0.405838,-0.118979,-0.165913,12
0.405726,-0.118932,-0.165008,15
0.405792,-0.118963,-0.164182,14
0.406306,-0.11919,-0.163545,16
0.403312,-0.117879,-0.161426,20
0.403643,-0.118027,-0.160718,15
0.403623,-0.11802,-0.159862,17
0.403603,-0.118013,-0.159006,21
0.405173,-0.118704,-0.15881,20
0.405508,-0.118853,-0.158099,19
0.404513,-0.118419,-0.156843,23
0.405557,-0.118878,-0.156422,18
0.404518,-0.118425,-0.155155,23
0.406096,-0.119119,-0.154945,24
0.407058,-0.119543,-0.154483,23
0.405879,-0.119028,-0.153165,24
0.404753,-0.118536,-0.151875,26
0.403766,-0.118106,-0.150644,27
0.404717,-0.118525,-0.150178,24
0.40523,-0.118752,-0.149537,28
0.404023,-0.118224,-0.148229,29
0.404754,-0.118547,-0.147673,29
0.406911,-0.119495,-0.147659,28
0.403492,-0.117998,-0.145516,27
0.406387,-0.11927,-0.145777,33
0.403505,-0.118008,-0.143854,34
0.406133,-0.119162,-0.144003,31
0.406162,-0.119177,-0.143176,32
0.404382,-0.118398,-0.141681,38
0.405424,-0.118858,-0.141231,32
0.405454,-0.118873,-0.140408,35
0.405175,-0.118753,-0.139473,33
0.407868,-0.119936,-0.139613,39
0.407096,-0.119599,-0.138498,36
0.406505,-0.119342,-0.137452,39
0.406403,-0.1193,-0.136583,35
0.406169,-0.119199,-0.135668,41
0.406821,-0.119487,-0.135065,41
0.407342,-0.119718,-0.134415,45
0.406664,-0.119422,-0.133348,43
0.40652,-0.119361,-0.132468,42
0.409407,-0.12063,-0.132625,40
0.408008,-0.120018,-0.131315,46
0.409249,-0.120564,-0.130903,46
0.408343,-0.120169,-0.129766,43
0.409228,-0.120559,-0.12923,42
0.409666,-0.120753,-0.128543,43
0.409073,-0.120495,-0.127516,44
0.410006,-0.120907,-0.12699,48
0.409951,-0.120885,-0.126141,52
0.409807,-0.120823,-0.125263,52
0.410203,-0.120999,-0.12456,49
0.409924,-0.120879,-0.123641,53
0.410186,-0.120996,-0.122895,43
0.410944,-0.12133,-0.122304,50
0.41008,-0.120954,-0.121205,51
0.411471,-0.121566,-0.120808,52
0.411418,-0.121545,-0.119962,51
0.411276,-0.121484,-0.11909,53
0.411948,-0.121781,-0.118465,51
0.411083,-0.121404,-0.117376,57
0.412117,-0.12186,-0.116858,58
0.412384,-0.121979,-0.116109,62
0.41297,-0.122238,-0.115454,54
0.413786,-0.122598,-0.114864,61
0.412778,-0.122158,-0.113741,61
0.412275,-0.121939,-0.112769,67
0.413134,-0.122318,-0.112189,66
0.413449,-0.122459,-0.111452,65
0.413948,-0.12268,-0.110766,65
0.413535,-0.1225,-0.109823,69
0.414629,-0.122982,-0.109301,71
0.414032,-0.122722,-0.108308,67
0.414625,-0.122985,-0.107645,64
0.415082,-0.123187,-0.106942,77
0.414714,-0.123028,-0.106016,77
0.415447,-0.123352,-0.105387,79
0.415447,-0.123354,-0.10456,74
0.416414,-0.12378,-0.103988,77
0.41623,-0.123701,-0.103112,73
0.41623,-0.123704,-0.102286,79
0.41637,-0.123767,-0.101496,78
0.418132,-0.124542,-0.101119,81
0.416927,-0.124016,-0.0999853,84
0.417068,-0.124079,-0.0991946,81
0.416793,-0.123961,-0.0983006,81
0.417351,-0.124208,-0.0976134,82
0.417169,-0.12413,-0.0967437,81
0.417127,-0.124113,-0.095909,84
0.417363,-0.124219,-0.0951417,85
0.41746,-0.124264,-0.094341,89
0.417789,-0.12441,-0.0935952,92
0.418027,-0.124517,-0.092827,86
0.417754,-0.124399,-0.0919401,84
0.417853,-0.124444,-0.0911402,90
0.417906,-0.12447,-0.0903299,91
0.418285,-0.124638,-0.0895932,92
0.417921,-0.12448,-0.0886897,99
0.418393,-0.12469,-0.087973,93
0.417984,-0.124512,-0.0870617,95
0.418179,-0.124599,-0.0862836,88
0.418374,-0.124687,-0.0855053,100
0.418384,-0.124693,-0.0846872,98
0.418255,-0.124639,-0.0838403,96
0.417478,-0.1243,-0.0828592,101
0.417444,-0.124287,-0.082035,99
0.417594,-0.124355,-0.0812493,105
0.417375,-0.124261,-0.0803886,102
0.417342,-0.124248,-0.0795664,100
0.417863,-0.124479,-0.0788549,97
0.417414,-0.124284,-0.0779512,102
0.417521,-0.124333,-0.0771576,100
0.417905,-0.124503,-0.0764173,103
0.417273,-0.124228,-0.0754828,101
0.416645,-0.123954,-0.0745518,104
0.416111,-0.123722,-0.0736414,107
0.416448,-0.123872,-0.0728938,106
0.416465,-0.123881,-0.072087,107
0.416299,-0.12381,-0.0712477,113
0.415676,-0.123539,-0.0703282,115
0.415466,-0.123449,-0.0694842,111
0.414167,-0.12288,-0.0684523,114
0.414595,-0.12307,-0.0677223,109
0.413935,-0.122782,-0.0668067,111
0.413548,-0.122614,-0.0659399,120
0.413344,-0.122526,-0.0651051,114
0.412914,-0.12234,-0.0642349,119
0.412397,-0.122115,-0.0633525,116
0.411972,-0.12193,-0.0624872,123
0.41186,-0.121883,-0.0616733,118
0.41166,-0.121797,-0.0608465,118
0.411326,-0.121652,-0.0600005,118
0.410905,-0.121469,-0.0591428,115
0.409865,-0.121014,-0.0581951,113
0.409713,-0.12095,-0.0573824,117
0.409385,-0.120808,-0.0565451,121
0.409014,-0.120647,-0.0557034,121
0.408733,-0.120525,-0.0548761,125
0.408759,-0.120538,-0.0540929,126
0.408216,-0.120302,-0.0532321,119
0.408156,-0.120277,-0.0524388,127
0.407747,-0.120099,-0.0515997,125
0.407034,-0.119788,-0.0507229,122
0.407324,-0.119918,-0.0499783,123
0.407048,-0.119798,-0.0491612,122
0.405906,-0.119299,-0.0482377,119
0.405677,-0.1192,-0.0474308,126
0.405319,-0.119045,-0.0466096,124
0.405178,-0.118985,-0.0458157,126
0.404951,-0.118887,-0.0450128,128
0.404424,-0.118657,-0.0441767,127
0.404328,-0.118617,-0.0433913,128
0.404618,-0.118746,-0.0426492,128
0.404823,-0.118838,-0.0418969,128
0.40447,-0.118685,-0.0410848,127
0.40459,-0.11874,-0.0403235,128
0.40471,-0.118794,-0.0395621,134
0.404873,-0.118868,-0.0388047,134
0.404909,-0.118885,-0.0380343,131
0.404944,-0.118903,-0.037264,134
0.404981,-0.118921,-0.0364937,131
0.405146,-0.118996,-0.0357355,136
0.405399,-0.119108,-0.0349846,142
0.405264,-0.119051,-0.0341988,138
0.405431,-0.119126,-0.0334396,143
0.405599,-0.119202,-0.0326801,140
0.406805,-0.119734,-0.032005,142
0.405893,-0.119335,-0.0311561,142
0.406408,-0.119563,-0.0304221,145
0.406103,-0.119431,-0.029624,145
0.40623,-0.119489,-0.0288592,143
0.407268,-0.119947,-0.0281595,147
0.407267,-0.119948,-0.0273831,147
0.407483,-0.120045,-0.0266217,147
0.407396,-0.120009,-0.0258396,147
0.407395,-0.120011,-0.0250635,144
0.407788,-0.120185,-0.0243118,144
0.408443,-0.120475,-0.0235743,145
0.409233,-0.120824,-0.022842,148
0.409674,-0.121019,-0.0220873,148
0.40972,-0.121042,-0.0213097,147
0.409855,-0.121103,-0.0205366,148
0.410078,-0.121203,-0.0197675,147
0.409729,-0.121051,-0.0189704,146
0.410218,-0.121268,-0.0182129,147
0.410399,-0.12135,-0.0174401,147
0.410404,-0.121354,-0.0166594,145
0.412139,-0.122118,-0.015947,149
0.410813,-0.121537,-0.0151132,148
0.411396,-0.121795,-0.0143523,147
0.411802,-0.121976,-0.0135833,146
0.41181,-0.121981,-0.0128002,146
0.411418,-0.121811,-0.0120053,149
0.412361,-0.122227,-0.0112486,151
0.412459,-0.122272,-0.0104668,148
0.412825,-0.122435,-0.00969091,150
0.413238,-0.122618,-0.00891453,151
0.413248,-0.122625,-0.00812879,151
0.413439,-0.12271,-0.00734614,147
0.4148,-0.123311,-0.00658056,147
0.414722,-0.123278,-0.00579052,144
0.414644,-0.123246,-0.00500083,144
0.414792,-0.123313,-0.00421354,144
0.415711,-0.123719,-0.00343116,144
0.415544,-0.123647,-0.00263952,143
0.417243,-0.124396,-0.00185434,143
0.417213,-0.124385,-0.00106043,142
0.416954,-0.124273,-0.000266856,145
0.417473,-0.124503,0.000527988,141
0.417857,-0.124674,0.00132427,144
0.417737,-0.124623,0.00211859,141
0.419505,-0.125402,0.00292948,145
0.418324,-0.124885,0.00371499,142
0.419265,-0.125301,0.00452347,147
0.420025,-0.125637,0.00533307,149
0.420185,-0.125709,0.0061355,150
0.420345,-0.125781,0.00693864,150
0.420645,-0.125915,0.00774545,151
0.421133,-0.126132,0.00855786,153
0.422044,-0.126534,0.00938298,152
0.421178,-0.126156,0.0101635,147
0.422654,-0.126807,0.011009,150
0.422867,-0.126902,0.0118211,154
0.423033,-0.126977,0.0126326,155
0.423105,-0.127011,0.0134416,153
0.423273,-0.127086,0.0142544,153
0.423347,-0.127121,0.0150644,153
0.423185,-0.127052,0.015865,151
0.423118,-0.127024,0.0166692,150
0.423808,-0.12733,0.0175075,151
0.423553,-0.127219,0.018304,152
0.424103,-0.127463,0.0191393,154
0.42475,-0.12775,0.0199821,153
0.423831,-0.127348,0.0207438,155
0.424384,-0.127593,0.0215835,152
0.425177,-0.127943,0.0224395,155
0.425304,-0.128002,0.0232592,158
0.42548,-0.128081,0.0240826,156
0.425657,-0.128161,0.0249069,151
0.425405,-0.128052,0.0257038,154
0.425058,-0.127901,0.0264935,155
0.424569,-0.127689,0.0272721,153
0.424605,-0.127706,0.0280865,157
0.426025,-0.128332,0.0290033,158
0.425536,-0.128119,0.0297814,154
0.425764,-0.128222,0.0306135,155
0.425372,-0.128052,0.0313971,151
0.425745,-0.128218,0.0322421,155
0.425689,-0.128195,0.0330526,159
0.42592,-0.128298,0.0338879,158
0.425673,-0.128192,0.0346823,155
0.425618,-0.12817,0.0354931,157
0.42542,-0.128085,0.0362908,156
0.42594,-0.128315,0.0371555,160
0.425887,-0.128294,0.0379674,157
0.42617,-0.12842,0.0388122,157
0.426501,-0.128568,0.0396634,164
0.426497,-0.128569,0.0404819,165
0.426254,-0.128464,0.0412756,162
0.425724,-0.128232,0.0420381,157
0.425913,-0.128318,0.0428766,162
0.426056,-0.128382,0.043711,158
0.426102,-0.128405,0.0445354,157
0.426006,-0.128364,0.045344,158
0.42615,-0.12843,0.0461804,163
0.425767,-0.128263,0.0469552,162
0.427017,-0.128815,0.0479257,165
0.426345,-0.128522,0.0486658,162
0.426107,-0.128419,0.0494576,162
0.42635,-0.128528,0.0503097,157
0.426931,-0.128786,0.0512066,164
0.426405,-0.128556,0.0519614,160
0.425785,-0.128285,0.0527018,159
0.426366,-0.128543,0.053602,161
0.426275,-0.128505,0.0544129,163
0.426041,-0.128404,0.0552038,157
0.426432,-0.128578,0.0560823,165
0.42639,-0.128562,0.0569009,164
0.426205,-0.128483,0.0576988,166
0.426213,-0.128488,0.0585246,164
0.425981,-0.128388,0.0593151,165
0.426472,-0.128606,0.0602142,168
0.426144,-0.128464,0.0609902,163
0.426202,-0.128491,0.0618252,166
0.426406,-0.128583,0.0626837,162
0.426369,-0.128569,0.063505,163
0.426188,-0.128491,0.0643033,162
0.425959,-0.128393,0.0650935,162
0.424438,-0.127726,0.065669,167
0.42469,-0.127838,0.0665359,166
0.42413,-0.127594,0.0672665,167
0.425532,-0.128213,0.0683322,165
0.42478,-0.127884,0.0690295,169
0.425082,-0.128019,0.0699096,167
0.424571,-0.127796,0.0706467,169
0.424587,-0.127805,0.0714769,169
0.423363,-0.127269,0.0720819,165
0.423047,-0.127132,0.0728494,159
0.422685,-0.126974,0.0736073,162
0.422655,-0.126963,0.0744268,165
0.4231,-0.127161,0.0753371,161
0.423119,-0.127171,0.0761675,169
0.420681,-0.126101,0.0765207,165
0.420372,-0.125967,0.0772826,167
0.420438,-0.125998,0.0781183,167
0.420036,-0.125823,0.0788608,169
0.420197,-0.125896,0.0797161,162
0.418351,-0.125085,0.0801616,171
0.418604,-0.125199,0.0810341,168
0.417836,-0.124863,0.0816948,164
0.417256,-0.12461,0.0823923,164
0.417601,-0.124764,0.0832853,162
0.41767,-0.124796,0.0841205,159
0.417415,-0.124686,0.0848862,159
0.415366,-0.123786,0.0852579,161
0.415298,-0.123758,0.08606,159
0.415321,-0.12377,0.0868829,162
0.414842,-0.123561,0.0875929,161
0.414729,-0.123514,0.0883848,161
0.41416,-0.123265,0.0890721,158
0.413548,-0.122998,0.0897474,159
0.414028,-0.123211,0.0906762,157
0.414647,-0.123486,0.0916402,156
0.414399,-0.123379,0.092401,152
0.412744,-0.122652,0.0928231,149
0.412861,-0.122705,0.0936684,150
0.413887,-0.123159,0.0947369,146
0.413687,-0.123073,0.0955079,148
0.412807,-0.122688,0.0961095,147
0.413062,-0.122802,0.0969925,148
0.413727,-0.123097,0.097981,143
0.413347,-0.122932,0.0987062,146
0.41406,-0.123248,0.0997114,143
0.414411,-0.123404,0.100626,140
0.414854,-0.123601,0.101567,144
0.414473,-0.123436,0.102294,147
0.41478,-0.123573,0.103202,151
0.41495,-0.12365,0.104075,143
0.415121,-0.123727,0.10495,137
0.415016,-0.123683,0.105751,139
0.41551,-0.123902,0.106716,138
0.416284,-0.124245,0.107761,136
0.415995,-0.12412,0.108515,138
0.415799,-0.124036,0.109294,138
0.417412,-0.124748,0.110583,130
0.417636,-0.124848,0.111485,139
0.417114,-0.124621,0.112174,132
0.416919,-0.124537,0.112956,139
0.417656,-0.124863,0.11401,134
0.418115,-0.125068,0.114985,134
0.418623,-0.125293,0.115978,136
0.418757,-0.125354,0.116862,137
0.418703,-0.125333,0.117691,139
0.419215,-0.12556,0.118691,135
0.419303,-0.125601,0.119565,133
0.420623,-0.126184,0.120817,131
0.420951,-0.126331,0.12177,132
0.420995,-0.126352,0.122637,126
0.421563,-0.126605,0.123668,126
0.422086,-0.126837,0.124689,125
0.423767,-0.127579,0.126078,123
0.423765,-0.127581,0.12694,123
0.424102,-0.127731,0.12791,126
0.42415,-0.127754,0.12879,128
0.424343,-0.127842,0.129717,126
0.424829,-0.128058,0.130742,130
0.425317,-0.128275,0.13177,126
0.4261,-0.128622,0.132899,130
0.426395,-0.128754,0.13387,130
0.426496,-0.1288,0.134777,131
0.4264,-0.12876,0.135618,129
0.427733,-0.12935,0.136946,129
0.428182,-0.12955,0.137978,132
0.428236,-0.129575,0.138877,135
0.428142,-0.129536,0.139724,134
0.428246,-0.129584,0.140642,132
0.428699,-0.129786,0.141683,129
0.428705,-0.129791,0.142569,133
0.428563,-0.12973,0.143403,135
0.42852,-0.129713,0.144272,134
0.429125,-0.129982,0.145376,132
0.429033,-0.129944,0.14623,133
0.430745,-0.1307,0.147742,133
0.430201,-0.130463,0.148435,135
0.429659,-0.130226,0.149128,128
0.429368,-0.1301,0.149912,135
0.429228,-0.130041,0.150752,139
0.429589,-0.130202,0.151779,133
0.429599,-0.130209,0.152677,137
0.42856,-0.129753,0.153178,132
0.429171,-0.130024,0.154304,133
0.429383,-0.13012,0.155281,129
0.429646,-0.130238,0.156279,130
0.429007,-0.129959,0.156929,134
0.42847,-0.129724,0.157617,136
0.428483,-0.129732,0.158519,136
0.428147,-0.129586,0.159284,132
0.427961,-0.129507,0.160108,132
0.427626,-0.129361,0.160873,137
0.427193,-0.129173,0.161597,131
0.427108,-0.129137,0.162461,127
0.426923,-0.129059,0.163285,130
0.426541,-0.128892,0.164028,132
0.425913,-0.128618,0.164669,136
0.425681,-0.128518,0.165472,138
0.425845,-0.128592,0.166439,132
0.42512,-0.128275,0.167037,137
0.424889,-0.128176,0.16784,140
0.424758,-0.12812,0.168684,140
0.424086,-0.127826,0.169299,130
0.423906,-0.127749,0.170122,125
0.423825,-0.127715,0.170988,125
0.423303,-0.127488,0.171663,120
0.42381,-0.127714,0.172784,111
0.423191,-0.127443,0.173416,117
0.423111,-0.12741,0.174283,121
0.422201,-0.127011,0.174786,114
0.422365,-0.127086,0.17576,116
0.42107,-0.126517,0.176087,119
0.421234,-0.126592,0.177061,125
0.42101,-0.126495,0.177862,114
0.42171,-0.126806,0.179079,119
0.419886,-0.126004,0.179158,117
0.419857,-0.125994,0.180046,111
0.420166,-0.126132,0.18109,116
0.419751,-0.125952,0.181802,119
0.419385,-0.125792,0.182537,113
0.419212,-0.125719,0.18336,106
0.418703,-0.125496,0.184027,106
0.418051,-0.125211,0.184625,106
0.417736,-0.125075,0.18538,108
0.417805,-0.125107,0.186316,106
0.417347,-0.124907,0.187003,105
0.416842,-0.124687,0.187666,103
0.417629,-0.125036,0.188948,96
0.417315,-0.1249,0.189704,101
0.417385,-0.124933,0.190645,99
0.417743,-0.125093,0.191727,152
0.417526,-0.125,0.192531,93
0.41731,-0.124907,0.193335,92
0.417285,-0.124898,0.194234,91
0.416145,-0.11973,-0.204796,11
0.115825,0.00910312,-0.0538498,11
0.110554,0.0113647,-0.0514832,8
0.417509,-0.120322,-0.202764,10
0.420416,-0.121571,-0.203332,13
0.276177,-0.0596971,-0.129776,9
0.600839,-0.198973,-0.292709,11
0.415167,-0.119326,-0.197952,9
0.413529,-0.118625,-0.196232,10
0.421044,-0.121851,-0.199071,11
0.418489,-0.120758,-0.196894,14
0.41927,-0.121095,-0.196372,13
0.420733,-0.121725,-0.196182,8
0.421133,-0.121899,-0.195467,15
0.419159,-0.121054,-0.193598,11
0.420088,-0.121455,-0.193143,8
1.60267,-0.628821,-0.765328,8
0.422201,-0.122366,-0.192345,9
0.419497,-0.121208,-0.190146,11
0.419606,-0.121257,-0.189296,11
0.416417,-0.119891,-0.186889,11
0.422885,-0.122668,-0.189037,10
0.41711,-0.120193,-0.185428,12
0.418987,-0.121,-0.185409,14
0.415296,-0.119418,-0.182803,12
0.418059,-0.120606,-0.183189,10
0.418409,-0.120758,-0.182457,10
0.419862,-0.121384,-0.182228,13
0.411727,-0.117896,-0.177638,10
0.408361,-0.116454,-0.175241,12
0.412317,-0.118153,-0.176152,11
0.412566,-0.118262,-0.175388,14
0.409873,-0.117109,-0.173314,11
0.414183,-0.11896,-0.174354,11
0.410049,-0.117188,-0.171655,10
0.407079,-0.115916,-0.169485,11
0.40791,-0.116275,-0.168988,10
0.410154,-0.11724,-0.169101,12
0.410448,-0.117368,-0.168362,14
0.405021,-0.115041,-0.165166,16
0.40804,-0.116339,-0.165603,13
0.404755,-0.114931,-0.163349,15
0.407184,-0.115976,-0.163526,15
0.403961,-0.114595,-0.161315,16
0.405134,-0.1151,-0.160959,19
0.406001,-0.115475,-0.160471,19
0.405092,-0.115086,-0.159245,18
0.403396,-0.114361,-0.157699,17
0.405717,-0.115359,-0.157807,18
0.402963,-0.114179,-0.155838,18
0.404615,-0.11489,-0.155667,19
0.40354,-0.11443,-0.15439,20
0.403873,-0.114575,-0.153683,24
0.405177,-0.115137,-0.153363,23
0.403749,-0.114526,-0.151955,25
0.403775,-0.11454,-0.151127,28
0.403846,-0.114572,-0.150317,27
0.405105,-0.115115,-0.149971,33
0.404691,-0.114939,-0.148971,27
0.404278,-0.114764,-0.147974,33
0.402818,-0.114139,-0.146578,33
0.405391,-0.115246,-0.146727,29
0.405906,-0.115469,-0.146085,27
0.405801,-0.115426,-0.145208,30
0.404068,-0.114684,-0.143722,29
0.404844,-0.115019,-0.143179,31
0.404522,-0.114883,-0.142227,31
0.406582,-0.115769,-0.142153,30
0.405638,-0.115366,-0.140972,35
0.405359,-0.115248,-0.140038,38
0.406272,-0.115643,-0.139537,40
0.405024,-0.115109,-0.138256,36
0.407443,-0.11615,-0.138291,36
0.406409,-0.115708,-0.13709,36
0.406396,-0.115704,-0.136254,41
0.406915,-0.115929,-0.135606,37
0.405886,-0.115489,-0.134416,41
0.408181,-0.116476,-0.134384,41
0.407901,-0.116358,-0.133455,43
0.407889,-0.116355,-0.13262,37
0.408279,-0.116525,-0.131923,39
0.408625,-0.116675,-0.131209,45
0.408302,-0.116538,-0.13027,42
0.409768,-0.11717,-0.129931,45
0.408236,-0.116515,-0.128591,41
0.40903,-0.116857,-0.128025,47
0.409737,-0.117163,-0.127427,45
0.410672,-0.117566,-0.126902,48
0.410392,-0.117448,-0.12598,46
0.409933,-0.117253,-0.125003,49
0.41096,-0.117696,-0.124502,46
0.410501,-0.117501,-0.123527,52
0.411078,-0.117751,-0.122881,55
0.411025,-0.11773,-0.122036,58
0.41165,-0.118001,-0.121401,48
0.412595,-0.118408,-0.120864,49
0.412406,-0.118329,-0.119976,54
0.411629,-0.117998,-0.118911,62
0.412166,-0.11823,-0.118246,65
0.411707,-0.118036,-0.117281,59
0.412335,-0.118307,-0.116642,58
0.413147,-0.118658,-0.116055,57
0.412597,-0.118424,-0.115066,59
0.413456,-0.118795,-0.114491,61
0.413634,-0.118873,-0.113715,64
0.414269,-0.119148,-0.11307,69
0.414998,-0.119463,-0.11245,68
0.414444,-0.119227,-0.111465,67
0.415496,-0.119681,-0.110933,72
0.414255,-0.11915,-0.109759,66
0.415214,-0.119564,-0.109199,71
0.415442,-0.119664,-0.108434,72
0.416268,-0.120021,-0.107833,71
0.415622,-0.119746,-0.10683,69
0.416496,-0.120123,-0.106239,70
0.416495,-0.120125,-0.105411,74
0.417235,-0.120444,-0.10478,78
0.419189,-0.121286,-0.104464,74
0.417281,-0.120468,-0.103137,76
0.417374,-0.12051,-0.102334,79
0.417375,-0.120513,-0.101508,80
0.41733,-0.120495,-0.10067,77
0.418167,-0.120857,-0.100055,78
0.418681,-0.12108,-0.0993571,79
0.41873,-0.121103,-0.0985421,81
0.419152,-0.121286,-0.0978191,85
0.418969,-0.12121,-0.0969474,86
0.418647,-0.121073,-0.0960435,83
0.418977,-0.121217,-0.0952975,81
0.419869,-0.121602,-0.0946838,87
0.4195,-0.121446,-0.0937705,82
0.419598,-0.12149,-0.0929682,84
0.419698,-0.121535,-0.0921662,82
0.41947,-0.121439,-0.0912895,85
0.419057,-0.121264,-0.0903721,89
0.420045,-0.12169,-0.0897715,91
0.419678,-0.121535,-0.088866,91
0.419453,-0.12144,-0.0879936,100
0.419882,-0.121626,-0.0872654,91
0.419657,-0.121532,-0.0863946,99
0.420368,-0.121839,-0.0857256,94
0.419863,-0.121624,-0.0847961,100
0.419967,-0.121671,-0.0839971,97
0.419884,-0.121637,-0.0831593,101
0.419336,-0.121404,-0.0822264,97
0.419301,-0.121391,-0.0814009,105
0.419499,-0.121478,-0.080623,98
0.419,-0.121265,-0.0797054,105
0.419432,-0.121453,-0.0789744,96
0.418934,-0.121241,-0.0780601,108
0.419087,-0.121309,-0.0772744,99
0.418592,-0.121098,-0.076364,102
0.419256,-0.121385,-0.0756761,102
0.418206,-0.120936,-0.0746643,99
0.418777,-0.121183,-0.0739579,97
0.417961,-0.120835,-0.0729952,98
0.417609,-0.120685,-0.0721204,100
0.418041,-0.120873,-0.071388,104
0.417414,-0.120606,-0.0704665,107
0.417111,-0.120477,-0.0696047,114
0.416671,-0.12029,-0.0687208,106
0.415913,-0.119966,-0.0677847,109
0.416298,-0.120134,-0.0670453,106
0.415725,-0.11989,-0.0661446,113
0.414837,-0.11951,-0.0651947,117
0.414903,-0.11954,-0.0644043,114
0.413975,-0.119143,-0.0634539,110
0.414132,-0.119213,-0.0626802,118
0.413253,-0.118837,-0.0617437,118
0.413007,-0.118733,-0.0609089,111
0.412851,-0.118668,-0.0600893,111
0.41198,-0.118296,-0.059163,116
0.411603,-0.118136,-0.0583139,112
0.411539,-0.11811,-0.0575126,116
0.410986,-0.117874,-0.0566412,112
0.410657,-0.117735,-0.0558042,112
0.410728,-0.117767,-0.055025,115
0.4104,-0.117628,-0.0541907,119
0.409809,-0.117376,-0.0533221,121
0.409748,-0.117352,-0.0525275,125
0.409644,-0.117309,-0.0517276,123
0.408881,-0.116983,-0.0508426,122
0.408866,-0.116978,-0.0500569,123
0.408414,-0.116786,-0.0492164,123
0.4084,-0.116782,-0.0484323,120
0.407339,-0.116328,-0.0475209,124
0.406718,-0.116063,-0.0466668,125
0.406403,-0.115929,-0.0458515,123
0.406304,-0.115888,-0.0450629,127
0.405947,-0.115737,-0.0442455,128
0.405678,-0.115623,-0.0434395,130
0.405409,-0.115509,-0.042635,128
0.405787,-0.115674,-0.0419015,128
0.405648,-0.115616,-0.0411121,132
0.405639,-0.115614,-0.0403369,134
0.40576,-0.115668,-0.0395752,133
0.405795,-0.115685,-0.0388047,133
0.405442,-0.115535,-0.0379964,129
0.405693,-0.115645,-0.0372475,130
0.405988,-0.115774,-0.0365018,135
0.406155,-0.115847,-0.0357434,135
0.406321,-0.115921,-0.0349846,137
0.406532,-0.116013,-0.0342291,132
0.405923,-0.115753,-0.0334027,136
0.406177,-0.115864,-0.0326511,138
0.406345,-0.115939,-0.0318918,140
0.40604,-0.115809,-0.0310942,142
0.407508,-0.116442,-0.0304356,137
0.406552,-0.116033,-0.029588,141
0.407764,-0.116556,-0.028904,144
0.408154,-0.116726,-0.0281564,147
0.40763,-0.116502,-0.0273438,144
0.407455,-0.116429,-0.0265571,144
0.40789,-0.116618,-0.025811,144
0.408325,-0.116807,-0.0250635,148
0.40789,-0.116622,-0.0242608,141
0.408545,-0.116905,-0.0235248,149
0.408415,-0.116851,-0.0227413,148
0.408373,-0.116835,-0.0219632,146
0.408769,-0.117007,-0.0212088,141
0.408946,-0.117086,-0.0204417,143
0.408862,-0.117051,-0.0196611,144
0.410226,-0.11764,-0.0189495,150
0.410495,-0.117757,-0.0181828,145
0.410411,-0.117723,-0.0173999,143
0.410152,-0.117614,-0.0166102,145
0.410598,-0.117808,-0.0158493,144
0.410428,-0.117736,-0.0150637,144
0.410876,-0.117931,-0.0143007,139
0.411104,-0.118031,-0.0135286,150
0.411465,-0.118188,-0.0127598,153
0.411784,-0.118327,-0.0119884,149
0.413174,-0.118927,-0.011245,148
0.413093,-0.118894,-0.0104589,149
0.413326,-0.118996,-0.00968051,147
0.413426,-0.119041,-0.00889837,152
0.413123,-0.118913,-0.00810815,147
0.413178,-0.118939,-0.00732534,148
0.414176,-0.11937,-0.00655662,150
0.414008,-0.119299,-0.00576859,148
0.415418,-0.119908,-0.00499882,148
0.414438,-0.119488,-0.00420159,148
0.414002,-0.119303,-0.00341219,147
0.415142,-0.119795,-0.00263259,147
0.415338,-0.119881,-0.00184549,146
0.415579,-0.119987,-0.00105765,147
0.415685,-0.120034,-0.000268956,149
0.416837,-0.120532,0.000523258,143
0.416945,-0.12058,0.00131494,143
0.416552,-0.120413,0.00210358,142
0.41794,-0.121012,0.00290667,144
0.417912,-0.121002,0.00369981,144
0.417382,-0.120776,0.00448632,141
0.418317,-0.12118,0.00529276,142
0.418843,-0.121409,0.00609603,145
0.420065,-0.121936,0.00691472,143
0.420503,-0.122127,0.00772189,145
0.420293,-0.122038,0.0085159,146
0.420966,-0.12233,0.0093313,149
0.420989,-0.122342,0.0101318,148
0.421105,-0.122394,0.0109353,149
0.421829,-0.122707,0.0117582,148
0.423403,-0.123387,0.0126123,151
0.422582,-0.123035,0.0133885,153
0.424211,-0.123738,0.0142527,154
0.423859,-0.123588,0.0150458,150
0.423933,-0.123622,0.0158552,155
0.422642,-0.123069,0.016606,150
0.424084,-0.123691,0.0174754,151
0.42416,-0.123726,0.0182861,152
0.423811,-0.123578,0.0190763,151
0.425026,-0.124102,0.0199454,151
0.424155,-0.12373,0.0207084,151
0.425563,-0.124338,0.0215941,151
0.424691,-0.123965,0.0223548,154
0.425009,-0.124103,0.0231828,152
0.424899,-0.124058,0.0239859,156
0.424837,-0.124033,0.0247919,156
0.424776,-0.124009,0.0255977,153
0.425381,-0.124271,0.0264485,156
0.426515,-0.124762,0.0273386,154
0.425929,-0.124511,0.0281104,156
0.426588,-0.124797,0.0289716,158
0.426673,-0.124835,0.0297922,156
0.42561,-0.12438,0.0305244,154
0.426509,-0.124769,0.0314086,158
0.426355,-0.124705,0.0322108,155
0.426299,-0.124682,0.0330206,155
0.426434,-0.124743,0.0338468,154
0.426955,-0.124969,0.0347075,153
0.427188,-0.125071,0.0355449,157
0.426845,-0.124925,0.0363305,157
0.42732,-0.125132,0.0371916,160
0.428764,-0.125756,0.0381478,154
0.427069,-0.125028,0.0388028,158
0.427787,-0.125339,0.0396923,162
0.427639,-0.125277,0.0404966,162
0.427346,-0.125153,0.0412856,163
0.428746,-0.125758,0.0422529,159
0.427631,-0.12528,0.0429546,161
0.428694,-0.125739,0.0438917,154
0.427242,-0.125117,0.0445516,156
0.429324,-0.126015,0.045609,158
0.429422,-0.126059,0.0464447,161
0.427725,-0.12533,0.0470691,163
0.428016,-0.125458,0.0479257,166
0.428939,-0.125857,0.0488611,159
0.429136,-0.125944,0.0497103,160
0.429334,-0.126031,0.0505607,160
0.427253,-0.125137,0.0511198,156
0.428078,-0.125495,0.0520496,154
0.427744,-0.125353,0.0528295,163
0.427362,-0.12519,0.053602,152
0.426837,-0.124966,0.0543537,160
0.427277,-0.125158,0.0552372,158
0.428203,-0.125558,0.0561912,164
0.427435,-0.12523,0.0569078,165
0.426767,-0.124944,0.057636,160
0.426968,-0.125033,0.0584893,162
0.426591,-0.124873,0.0592578,165
0.427469,-0.125252,0.0602142,165
0.427575,-0.1253,0.0610567,170
0.427585,-0.125307,0.0618851,165
0.426775,-0.12496,0.0625852,165
0.426931,-0.125029,0.0634359,162
0.426991,-0.125057,0.0642722,161
0.427244,-0.125168,0.0651407,167
0.426678,-0.124926,0.0658752,166
0.425681,-0.124499,0.0665359,164
0.425599,-0.124465,0.0673475,165
0.425949,-0.124618,0.0682333,164
0.425771,-0.124544,0.0690295,164
0.425594,-0.12447,0.0698254,168
0.4247,-0.124086,0.0704938,169
0.424477,-0.123992,0.0712793,170
0.424445,-0.123981,0.0720992,164
0.424367,-0.123949,0.0729106,166
0.424193,-0.123876,0.0737046,161
0.42402,-0.123804,0.0744983,165
0.421763,-0.122834,0.0748965,166
0.421923,-0.122905,0.0757491,164
0.421894,-0.122894,0.0765664,170
0.421678,-0.122803,0.0773472,165
0.421038,-0.12253,0.0780439,167
0.421434,-0.122702,0.0789455,169
0.421408,-0.122693,0.0797637,167
0.420395,-0.122259,0.080381,162
0.419295,-0.121787,0.0809764,164
0.418943,-0.121637,0.0817238,166
0.418593,-0.121489,0.0824704,164
0.418615,-0.1215,0.0832952,168
0.41873,-0.121552,0.0841405,164
0.416901,-0.120766,0.0845657,159
0.416464,-0.12058,0.0852881,162
0.416119,-0.120433,0.0860296,168
0.416005,-0.120386,0.0868215,165
0.416212,-0.120477,0.0876857,162
0.415457,-0.120154,0.0883328,161
0.415757,-0.120285,0.0892189,163
0.415507,-0.120179,0.0899797,162
0.415349,-0.120113,0.0907615,159
0.415879,-0.120344,0.091705,157
0.413804,-0.119452,0.0920329,156
0.413512,-0.119328,0.0927797,153
0.413584,-0.119361,0.0936135,148
0.413384,-0.119277,0.0943819,154
0.413185,-0.119193,0.0951502,145
0.413303,-0.119246,0.0959969,148
0.413422,-0.119299,0.0968448,147
0.413269,-0.119236,0.0976252,142
0.413253,-0.119231,0.0984403,144
0.413237,-0.119226,0.0992559,144
0.41354,-0.119358,0.100154,143
0.413479,-0.119334,0.10096,141
0.41433,-0.119703,0.102005,141
0.414865,-0.119935,0.102971,144
0.414302,-0.119695,0.103647,143
0.415941,-0.120403,0.104912,144
0.415238,-0.120102,0.105551,139
0.415318,-0.120138,0.106401,137
0.415997,-0.120433,0.107417,140
0.415939,-0.12041,0.108232,140
0.416252,-0.120547,0.109151,139
0.416241,-0.120544,0.109981,135
0.416323,-0.120582,0.110838,136
0.416545,-0.120679,0.111736,137
0.417325,-0.121018,0.112796,134
0.418811,-0.12166,0.114064,135
0.417448,-0.121075,0.114507,137
0.418233,-0.121415,0.115577,139
0.418741,-0.121636,0.116569,135
0.418734,-0.121635,0.11741,134
0.419198,-0.121837,0.118393,130
0.419474,-0.121958,0.119323,127
0.419893,-0.122141,0.120297,128
0.421168,-0.122693,0.121536,128
0.420926,-0.12259,0.122313,128
0.420827,-0.12255,0.123134,128
0.421872,-0.123002,0.124313,127
0.422491,-0.123271,0.125364,127
0.423064,-0.12352,0.126403,126
0.423207,-0.123584,0.127307,123
0.423543,-0.123731,0.128275,125
0.424654,-0.124212,0.129497,123
0.425529,-0.124591,0.130647,121
0.42553,-0.124593,0.131514,124
0.426165,-0.12487,0.132591,128
0.426657,-0.125083,0.133625,125
0.426953,-0.125213,0.134595,128
0.427645,-0.125514,0.135701,129
0.428587,-0.125922,0.136896,131
0.427849,-0.125606,0.137521,128
0.429042,-0.126122,0.138808,129
0.429295,-0.126234,0.139776,128
0.429351,-0.12626,0.140677,122
0.429705,-0.126415,0.141683,129
0.429711,-0.12642,0.142569,130
0.430769,-0.126878,0.143828,131
0.430325,-0.126689,0.144558,138
0.430835,-0.12691,0.145628,134
0.430692,-0.126851,0.146465,139
0.430249,-0.126662,0.147194,132
0.43081,-0.126906,0.148288,133
0.431373,-0.127151,0.149387,135
0.43093,-0.126962,0.150116,136
0.431444,-0.127186,0.151201,135
0.432619,-0.127695,0.152535,135
0.431112,-0.127048,0.152867,136
0.430922,-0.126968,0.153691,134
0.431085,-0.12704,0.154649,132
0.430845,-0.126939,0.155455,134
0.430908,-0.126968,0.156377,137
0.430417,-0.126759,0.157085,135
0.429978,-0.126572,0.157812,131
0.429941,-0.126558,0.158696,137
0.429252,-0.126263,0.159323,139
0.429265,-0.126271,0.160227,134
0.428679,-0.12602,0.160893,134
0.429244,-0.126266,0.162017,131
0.428708,-0.126037,0.162702,134
0.428123,-0.125788,0.163366,131
0.428089,-0.125775,0.164251,131
0.427705,-0.125612,0.164995,130
0.427771,-0.125642,0.165922,132
0.427289,-0.125436,0.166624,132
0.425916,-0.124847,0.166955,129
0.425883,-0.124835,0.16784,131
0.425652,-0.124737,0.168642,130
0.425619,-0.124725,0.169529,131
0.425192,-0.124543,0.170248,134
0.425406,-0.124638,0.17124,124
0.425128,-0.12452,0.172023,120
0.424505,-0.124254,0.172656,121
0.423786,-0.123946,0.173246,115
0.424295,-0.124168,0.174369,117
0.42343,-0.123797,0.174893,110
0.423448,-0.123807,0.175803,117
0.423026,-0.123627,0.176519,119
0.422654,-0.123469,0.177256,116
0.422624,-0.123458,0.178145,121
0.422497,-0.123405,0.178992,121
0.42198,-0.123185,0.179662,116
0.421562,-0.123006,0.180376,116
0.421387,-0.122933,0.1812,115
0.421116,-0.122818,0.18198,112
0.421428,-0.122955,0.183028,108
0.42038,-0.122506,0.18345,107
0.419242,-0.122017,0.183825,106
0.41989,-0.122298,0.185031,101
0.420104,-0.122393,0.186037,100
0.419256,-0.122029,0.186543,97
0.419181,-0.121999,0.187413,96
0.419299,-0.122052,0.188376,89
0.418983,-0.121919,0.189132,96
0.419246,-0.122034,0.190167,94
0.418642,-0.121776,0.190784,87
0.418954,-0.121913,0.191844,144
0.418399,-0.121675,0.192484,78
0.417941,-0.12148,0.19317,86
0.418928,-0.121908,0.194566,86
0.428239,-0.121144,-0.210559,10
0.421922,-0.118495,-0.206377,10
0.425338,-0.119931,-0.207204,11
0.421447,-0.1183,-0.204295,9
0.427655,-0.120908,-0.206525,10
0.422099,-0.118579,-0.20279,9
0.424521,-0.119597,-0.203089,10
0.636081,-0.208394,-0.30832,10
0.420614,-0.117962,-0.199302,9
0.308427,-0.0708756,-0.143005,10
0.424209,-0.119475,-0.199254,9
0.418474,-0.11707,-0.19552,15
0.422997,-0.118971,-0.196827,11
0.425475,-0.120013,-0.19712,11
0.421844,-0.118492,-0.194444,10
0.123137,0.00690203,-0.0535028,8
0.42177,-0.118465,-0.192593,9
0.418738,-0.117194,-0.190238,12
0.422379,-0.118725,-0.19107,12
0.417522,-0.116688,-0.187867,13
0.421042,-0.118168,-0.188629,10
0.421637,-0.11842,-0.188007,10
0.115711,0.0100165,-0.0488138,10
0.416584,-0.116303,-0.183859,12
0.417262,-0.11659,-0.183283,11
0.414498,-0.115432,-0.181124,11
0.41944,-0.117509,-0.182501,11
0.41411,-0.115274,-0.179183,12
0.41315,-0.114873,-0.177869,9
0.149206,-0.00405436,-0.060615,10
0.410742,-0.113866,-0.175036,12
0.410486,-0.113761,-0.174052,8
0.41518,-0.115733,-0.175266,10
0.416325,-0.116216,-0.174893,11
0.413724,-0.115126,-0.17287,10
0.412632,-0.11467,-0.171519,10
0.40931,-0.113277,-0.169205,14
0.40856,-0.112965,-0.168018,14
0.409487,-0.113356,-0.167557,14
0.194941,-0.0232684,-0.0760734,13
0.406424,-0.112074,-0.164532,14
0.40806,-0.112763,-0.164372,14
0.408128,-0.112793,-0.163545,16
0.403219,-0.110734,-0.160632,16
0.405315,-0.111616,-0.160662,20
0.403749,-0.110961,-0.159166,18
0.404037,-0.111084,-0.158442,22
0.405431,-0.111671,-0.15817,21
0.404306,-0.111201,-0.156866,20
0.407037,-0.11235,-0.157133,21
0.404797,-0.111411,-0.155381,21
0.403591,-0.110907,-0.154055,23
0.402133,-0.110297,-0.152634,26
0.405493,-0.11171,-0.153134,26
0.404196,-0.111167,-0.151781,27
0.404662,-0.111365,-0.151127,25
0.404381,-0.111249,-0.150179,27
0.403269,-0.110784,-0.148911,26
0.404128,-0.111147,-0.148409,25
0.404903,-0.111474,-0.147872,28
0.405019,-0.111525,-0.147081,36
0.405179,-0.111594,-0.146307,32
0.405031,-0.111534,-0.145417,30
0.40528,-0.111641,-0.144676,28
0.404473,-0.111304,-0.143542,29
0.40459,-0.111355,-0.142754,31
0.407449,-0.112558,-0.142979,34
0.405926,-0.11192,-0.141584,34
0.40578,-0.111861,-0.140698,30
0.406428,-0.112136,-0.140102,32
0.405488,-0.111742,-0.138932,36
0.407688,-0.112669,-0.138891,36
0.407097,-0.112422,-0.137847,37
0.405978,-0.111954,-0.13662,39
0.406938,-0.11236,-0.136129,39
0.407014,-0.112394,-0.135326,41
0.407534,-0.112614,-0.134678,42
0.406946,-0.112369,-0.133645,41
0.407733,-0.112702,-0.133088,41
0.407899,-0.112774,-0.132316,40
0.407799,-0.112734,-0.131454,43
0.40935,-0.113387,-0.131149,41
0.408758,-0.11314,-0.130121,44
0.408747,-0.113138,-0.129289,47
0.408826,-0.113173,-0.128487,49
0.409845,-0.113604,-0.127995,46
0.410419,-0.113847,-0.127354,44
0.411402,-0.114261,-0.126843,50
0.408834,-0.113185,-0.125185,50
0.410167,-0.113747,-0.124788,52
0.411781,-0.114427,-0.124474,54
0.41096,-0.114084,-0.123385,54
0.410188,-0.113762,-0.122316,52
0.411621,-0.114366,-0.121937,54
0.411252,-0.114213,-0.120996,50
0.411832,-0.114459,-0.120348,52
0.412777,-0.114857,-0.119809,52
0.412226,-0.114628,-0.118814,57
0.4129,-0.114913,-0.118191,53
0.413212,-0.115046,-0.117457,64
0.413161,-0.115027,-0.116615,59
0.413246,-0.115065,-0.115814,63
0.414153,-0.115448,-0.115253,66
0.414148,-0.115448,-0.114424,66
0.413642,-0.115237,-0.113452,66
0.414825,-0.115736,-0.112965,65
0.415142,-0.115872,-0.112228,64
0.414955,-0.115795,-0.111349,64
0.415135,-0.115873,-0.110573,59
0.416097,-0.116279,-0.110014,63
0.416417,-0.116416,-0.109275,63
0.416877,-0.116611,-0.108573,71
0.416782,-0.116573,-0.10772,66
0.417845,-0.117022,-0.107179,72
0.418448,-0.117277,-0.106512,73
0.417704,-0.116967,-0.105485,75
0.41775,-0.116988,-0.10467,77
0.418121,-0.117146,-0.10394,84
0.418354,-0.117246,-0.103173,78
0.418122,-0.11715,-0.102286,79
0.419007,-0.117524,-0.101686,74
0.419709,-0.117821,-0.101036,79
0.419523,-0.117745,-0.100161,81
0.419759,-0.117847,-0.099392,84
0.419434,-0.117712,-0.0984845,85
0.419998,-0.117951,-0.0977962,82
0.420095,-0.117994,-0.0969928,89
0.419959,-0.117939,-0.0961334,88
0.420197,-0.118041,-0.0953644,95
0.420201,-0.118045,-0.0945397,89
0.419972,-0.11795,-0.0936608,84
0.420915,-0.118349,-0.0930554,87
0.420639,-0.118235,-0.0921662,85
0.420692,-0.118259,-0.0913536,86
0.420887,-0.118343,-0.0905732,92
0.421411,-0.118565,-0.0898663,94
0.421324,-0.118531,-0.0890222,97
0.420816,-0.118319,-0.0880862,100
0.421199,-0.118482,-0.0873471,96
0.421584,-0.118646,-0.0866072,97
0.421171,-0.118474,-0.0856955,94
0.421509,-0.118619,-0.0849451,96
0.420956,-0.118388,-0.0840069,99
0.421671,-0.118691,-0.0833346,98
0.421494,-0.118619,-0.0824765,103
0.421553,-0.118645,-0.0816675,102
0.421518,-0.118633,-0.0808399,99
0.421437,-0.1186,-0.0800036,106
0.421403,-0.118588,-0.0791774,101
0.421745,-0.118734,-0.0784252,99
0.420868,-0.118367,-0.0774366,104
0.420555,-0.118238,-0.0765598,106
0.419963,-0.117991,-0.0756321,106
0.419886,-0.11796,-0.0748032,110
0.419855,-0.117949,-0.0739837,105
0.419593,-0.117841,-0.0731224,103
0.418821,-0.117519,-0.0721706,102
0.418793,-0.117508,-0.071355,103
0.41881,-0.117518,-0.0705481,105
0.418044,-0.117198,-0.0696047,108
0.418432,-0.117363,-0.0688638,110
0.417392,-0.116928,-0.0678785,110
0.417642,-0.117034,-0.0671149,108
0.416837,-0.116698,-0.0661751,112
0.417086,-0.116805,-0.0654123,110
0.416194,-0.116431,-0.0644635,112
0.415396,-0.116098,-0.0635339,112
0.415146,-0.115995,-0.0626945,119
0.415668,-0.116216,-0.0619771,119
0.414558,-0.115751,-0.0610063,124
0.414672,-0.115801,-0.0602266,120
0.413929,-0.115491,-0.059318,121
0.413325,-0.115238,-0.0584333,119
0.413619,-0.115364,-0.0576827,124
0.412971,-0.115094,-0.0567956,122
0.413087,-0.115144,-0.0560197,121
0.412442,-0.114875,-0.0551373,120
0.411667,-0.114551,-0.0542397,120
0.411072,-0.114303,-0.0533702,119
0.410923,-0.114242,-0.052563,118
0.41104,-0.114293,-0.0517918,124
0.410405,-0.114028,-0.0509227,126
0.410257,-0.113968,-0.0501189,125
0.410198,-0.113945,-0.049327,124
0.409392,-0.113607,-0.0484432,122
0.408066,-0.113051,-0.0474996,121
0.407878,-0.112975,-0.046698,124
0.407779,-0.112935,-0.0459077,132
0.407419,-0.112785,-0.045088,127
0.407538,-0.112837,-0.0443243,130
0.40744,-0.112798,-0.0435362,131
0.406866,-0.112558,-0.0426966,133
0.406856,-0.112556,-0.0419202,129
0.40663,-0.112463,-0.0411212,131
0.406534,-0.112424,-0.0403369,131
0.406655,-0.112477,-0.0395752,132
0.406345,-0.112348,-0.0387703,129
0.406165,-0.112275,-0.0379796,134
0.40633,-0.112346,-0.0372227,136
0.406496,-0.112418,-0.0364655,132
0.406835,-0.112562,-0.0357236,137
0.407003,-0.112635,-0.0349652,134
0.406565,-0.112452,-0.0341534,139
0.406906,-0.112598,-0.0334101,137
0.406901,-0.112598,-0.0326367,136
0.406897,-0.112598,-0.0318636,137
0.408283,-0.113183,-0.031201,135
0.40715,-0.112708,-0.0303381,135
0.407407,-0.112818,-0.0295848,132
0.4081,-0.113112,-0.0288624,140
0.406927,-0.11262,-0.0280044,139
0.408271,-0.113187,-0.0273257,139
0.408009,-0.113079,-0.0265336,140
0.408139,-0.113136,-0.0257684,144
0.408444,-0.113266,-0.0250138,141
0.408401,-0.113249,-0.0242368,144
0.408445,-0.11327,-0.0234653,147
0.408621,-0.113346,-0.0227013,145
0.408492,-0.113293,-0.0219198,143
0.408931,-0.11348,-0.0211692,147
0.408846,-0.113446,-0.0203901,145
0.408849,-0.11345,-0.0196159,142
0.40894,-0.11349,-0.0188458,142
0.409075,-0.113549,-0.0180775,142
0.409255,-0.113626,-0.0173106,142
0.409348,-0.113667,-0.0165395,138
0.411068,-0.114393,-0.015832,144
0.409578,-0.113768,-0.0149982,146
0.410948,-0.114346,-0.0142711,146
0.410735,-0.114258,-0.0134861,144
0.411051,-0.114393,-0.0127184,149
0.411413,-0.114547,-0.0119509,148
0.411687,-0.114665,-0.0111797,148
0.411519,-0.114596,-0.0103962,147
0.411838,-0.114732,-0.00962479,150
0.411671,-0.114664,-0.00884183,148
0.411992,-0.114801,-0.00806892,153
0.412225,-0.114901,-0.00729326,151
0.412414,-0.114982,-0.00651603,148
0.412248,-0.114914,-0.00573342,146
0.41324,-0.115334,-0.00496435,154
0.4137,-0.115529,-0.00418647,146
0.413983,-0.11565,-0.00340551,149
0.414086,-0.115696,-0.00262251,149
0.41428,-0.115779,-0.00183938,149
0.414565,-0.115901,-0.00105557,150
0.414535,-0.11589,-0.000270904,152
0.415543,-0.116317,0.000516703,149
0.414613,-0.115927,0.00129878,143
0.415893,-0.116468,0.00209251,145
0.416228,-0.116611,0.00288294,143
0.415884,-0.116468,0.00366728,143
0.416719,-0.116821,0.00446558,145
0.417012,-0.116946,0.00525914,143
0.417853,-0.117303,0.00606324,147
0.418011,-0.117371,0.00685777,149
0.418674,-0.117652,0.0076636,146
0.419063,-0.117818,0.00846585,146
0.419269,-0.117907,0.00926515,148
0.41943,-0.117976,0.0100641,148
0.421633,-0.118906,0.0109231,152
0.421657,-0.118918,0.0117233,148
0.421123,-0.118695,0.0125053,150
0.421474,-0.118844,0.0133162,144
0.422294,-0.119192,0.0141461,150
0.422273,-0.119185,0.0149464,147
0.422347,-0.119218,0.0157507,149
0.423031,-0.119508,0.0165817,154
0.423953,-0.119898,0.0174262,149
0.424786,-0.120251,0.0182704,150
0.424768,-0.120245,0.0190763,153
0.424656,-0.1202,0.0198773,152
0.424829,-0.120275,0.0206932,150
0.42467,-0.12021,0.0214917,147
0.42456,-0.120165,0.0222923,149
0.425303,-0.120481,0.0231433,153
0.424956,-0.120336,0.0239306,151
0.425037,-0.120372,0.0247437,150
0.426118,-0.12083,0.0256226,152
0.426153,-0.120846,0.0264356,154
0.425902,-0.120742,0.0272291,152
0.426702,-0.121081,0.0280967,151
0.426786,-0.121119,0.0289153,155
0.427015,-0.121217,0.0297452,153
0.427245,-0.121316,0.0305763,154
0.427475,-0.121415,0.0314086,157
0.42737,-0.121373,0.0322147,153
0.427602,-0.121472,0.0330486,157
0.426777,-0.121127,0.0337935,152
0.427586,-0.121469,0.0346781,158
0.427482,-0.121428,0.0354845,159
0.427187,-0.121306,0.0362732,156
0.427614,-0.121487,0.0371285,153
0.427416,-0.121406,0.037926,155
0.427941,-0.121629,0.0387934,157
0.427696,-0.121528,0.0395865,155
0.427403,-0.121406,0.0403741,155
0.427159,-0.121306,0.0411658,155
0.427445,-0.121428,0.0420126,153
0.427635,-0.12151,0.0428507,152
0.428116,-0.121715,0.0437216,156
0.430546,-0.12274,0.0448123,154
0.429083,-0.122126,0.0454706,157
0.42855,-0.121904,0.0462308,152
0.428502,-0.121886,0.0470462,155
0.428697,-0.12197,0.0478909,155
0.428408,-0.12185,0.0486776,160
0.429041,-0.122118,0.0495776,162
0.428849,-0.12204,0.0503768,160
0.429047,-0.122125,0.0512252,157
0.429781,-0.122436,0.0521445,163
0.428958,-0.122092,0.0528615,160
0.428526,-0.121912,0.053628,156
0.428338,-0.121834,0.0544261,157
0.428344,-0.121839,0.0552506,158
0.42903,-0.12213,0.0561707,159
0.42826,-0.121808,0.0568871,166
0.42851,-0.121915,0.0577477,165
0.428276,-0.121818,0.0585388,162
0.427897,-0.121661,0.0593079,161
0.427616,-0.121545,0.0600905,161
0.4284,-0.121877,0.0610345,162
0.427974,-0.1217,0.0617954,168
0.428034,-0.121726,0.0626306,166
0.427851,-0.121652,0.0634283,168
0.428056,-0.12174,0.0642878,168
0.427343,-0.121442,0.0649992,163
0.427985,-0.121714,0.065931,165
0.425877,-0.120828,0.0664078,160
0.425555,-0.120694,0.0671776,166
0.425521,-0.120682,0.0679955,166
0.425631,-0.12073,0.0688386,167
0.425406,-0.120638,0.0696241,170
0.42547,-0.120666,0.0704599,164
0.425246,-0.120574,0.0712451,164
0.425406,-0.120644,0.0720992,165
0.425423,-0.120653,0.0729281,168
0.424579,-0.120299,0.0735985,167
0.423978,-0.120048,0.074311,167
0.422999,-0.119637,0.0749501,165
0.423017,-0.119647,0.0757763,165
0.422232,-0.119318,0.0764478,173
0.422062,-0.119249,0.0772366,167
0.422507,-0.119438,0.0781463,168
0.422007,-0.11923,0.0788702,167
0.420104,-0.118429,0.0793096,166
0.419937,-0.118361,0.0800951,164
0.420051,-0.118411,0.080938,168
0.420026,-0.118402,0.0817529,166
0.419814,-0.118315,0.0825291,164
0.419463,-0.118169,0.0832754,164
0.419672,-0.118259,0.0841405,163
0.419648,-0.118251,0.0849567,162
0.417444,-0.117324,0.0852981,165
0.417237,-0.117239,0.0860701,165
0.418556,-0.117797,0.0871808,163
0.417146,-0.117205,0.0876857,161
0.41717,-0.117217,0.0885098,165
0.416505,-0.116938,0.0891769,160
0.416852,-0.117087,0.0900751,162
0.416417,-0.116906,0.0907935,157
0.415069,-0.116339,0.0912964,160
0.415003,-0.116314,0.0920977,157
0.41535,-0.116462,0.0929974,156
0.414327,-0.116033,0.0935697,158
0.413854,-0.115835,0.0942716,149
0.413745,-0.115791,0.0950612,152
0.413636,-0.115747,0.095851,153
0.413755,-0.1158,0.0966976,154
0.413648,-0.115756,0.0974882,146
0.413676,-0.11577,0.0983136,146
0.413524,-0.115708,0.0990934,144
0.413599,-0.115742,0.0999316,147
0.41372,-0.115795,0.100783,143
0.414024,-0.115925,0.101682,141
0.41401,-0.115921,0.1025,143
0.415184,-0.116418,0.103634,143
0.415538,-0.116569,0.104554,142
0.415249,-0.116449,0.105303,139
0.414778,-0.116253,0.106001,136
0.414995,-0.116346,0.106887,134
0.415442,-0.116537,0.107837,138
0.415523,-0.116573,0.108689,136
0.416065,-0.116803,0.10967,135
0.41564,-0.116626,0.110381,134
0.416044,-0.116799,0.111327,134
0.417006,-0.117207,0.112435,137
0.416858,-0.117146,0.113227,136
0.4175,-0.117419,0.114249,136
0.417631,-0.117476,0.115125,136
0.417857,-0.117573,0.11603,137
0.418036,-0.117651,0.116922,136
0.418263,-0.117749,0.117831,131
0.418725,-0.117945,0.118811,130
0.419047,-0.118084,0.119752,130
0.419183,-0.118143,0.120638,133
0.419979,-0.118481,0.121728,127
0.420779,-0.11882,0.122824,131
0.421202,-0.119001,0.123806,131
0.421294,-0.119041,0.124687,125
0.422484,-0.119545,0.125916,128
0.423009,-0.119769,0.126939,124
0.423344,-0.119912,0.127904,125
0.423873,-0.120137,0.128933,129
0.425276,-0.120731,0.13025,124
0.425714,-0.120918,0.131258,120
0.426203,-0.121126,0.132285,124
0.426791,-0.121377,0.133348,124
0.426499,-0.121256,0.13412,127
0.427335,-0.12161,0.13527,126
0.428077,-0.121925,0.136393,122
0.428872,-0.122263,0.137538,124
0.42992,-0.122707,0.138774,129
0.429825,-0.122669,0.139621,126
0.430179,-0.122821,0.140625,130
0.430385,-0.122909,0.141578,130
0.430641,-0.12302,0.142551,128
0.430748,-0.123067,0.143473,136
0.431407,-0.123347,0.144593,128
0.431919,-0.123565,0.145664,131
0.431877,-0.12355,0.146538,131
0.432239,-0.123705,0.147559,129
0.432197,-0.123689,0.148435,134
0.432156,-0.123674,0.149313,134
0.432926,-0.124001,0.150489,139
0.432278,-0.12373,0.151144,129
0.432694,-0.123907,0.152194,130
0.431996,-0.123615,0.152829,136
0.431754,-0.123516,0.153634,128
0.432171,-0.123693,0.154688,134
0.43193,-0.123594,0.155493,139
0.431892,-0.12358,0.156377,135
0.431248,-0.123311,0.157027,135
0.431463,-0.123404,0.158008,137
0.43072,-0.123092,0.158617,137
0.431541,-0.123441,0.159838,132
0.431555,-0.123449,0.160745,132
0.431317,-0.123351,0.161552,132
0.429971,-0.122785,0.161917,133
0.430288,-0.122921,0.162944,130
0.4297,-0.122675,0.163608,130
0.429866,-0.122747,0.164577,131
0.429129,-0.122439,0.165178,127
0.428344,-0.12211,0.165758,131
0.428011,-0.121971,0.166521,125
0.42738,-0.121707,0.16716,130
0.427049,-0.12157,0.167922,132
0.426668,-0.121411,0.168663,125
0.42619,-0.121212,0.169362,128
0.426603,-0.121388,0.170437,129
0.426075,-0.121168,0.171114,124
0.425697,-0.12101,0.171853,118
0.425764,-0.121041,0.172784,114
0.425585,-0.120967,0.173608,119
0.425999,-0.121144,0.174691,114
0.424931,-0.120696,0.175129,116
0.424309,-0.120436,0.17576,114
0.424279,-0.120425,0.176649,114
0.423807,-0.120228,0.177343,113
0.42363,-0.120156,0.178167,114
0.42419,-0.120394,0.179321,115
0.422837,-0.119825,0.179618,115
0.423199,-0.11998,0.180686,118
0.421707,-0.119353,0.180913,113
0.422702,-0.119775,0.18227,110
0.421941,-0.119456,0.182827,108
0.421281,-0.11918,0.183427,109
0.420816,-0.118986,0.184117,101
0.420595,-0.118895,0.184918,102
0.420567,-0.118885,0.18581,103
0.42088,-0.119019,0.186862,100
0.420465,-0.118846,0.187573,98
0.420244,-0.118756,0.188376,94
0.420315,-0.118788,0.189317,91
0.420386,-0.11882,0.19026,91
0.420166,-0.118729,0.191064,88
0.420723,-0.118967,0.192243,147
0.41997,-0.118651,0.19279,88
0.420333,-0.118806,0.193879,88
0.420309,-0.118798,0.19478,86
0.425955,-0.116454,-0.208901,9
0.41996,-0.113996,-0.204902,11
0.428934,-0.117682,-0.208564,11
0.141133,0.000462611,-0.0646745,10
0.4236,-0.115497,-0.204002,14
0.423559,-0.115482,-0.203062,11
0.427546,-0.117121,-0.204141,10
0.547465,-0.166351,-0.26313,8
0.42388,-0.115621,-0.200469,16
0.42144,-0.114621,-0.198347,11
0.420093,-0.11407,-0.196775,12
0.422143,-0.114914,-0.196872,11
0.423721,-0.115564,-0.196732,9
0.428357,-0.11747,-0.198068,15
0.423841,-0.115618,-0.194965,9
0.422969,-0.115262,-0.193635,14
0.420162,-0.114112,-0.191385,11
0.418447,-0.11341,-0.189668,11
0.417174,-0.112889,-0.188169,9
0.418092,-0.113269,-0.187709,11
0.421181,-0.114539,-0.188265,10
0.414999,-0.112003,-0.184479,14
0.416144,-0.112475,-0.184126,13
0.419536,-0.11387,-0.184808,10
0.417547,-0.113056,-0.182999,9
0.42879,-0.117674,-0.187261,9
0.415737,-0.112317,-0.180399,11
0.413371,-0.111348,-0.178444,11
