ply
format ascii 1.0
comment VCGLIB generated
element vertex 946
property float x
property float y
property float z
property float nx
property float ny
property float nz
property uchar red
property uchar green
property uchar blue
property uchar alpha
element face 0
property list uchar int vertex_indices
end_header
-0.8749763 -0.004659203 4.542566 0 0 0 172 155 135 255 
-2.003323 0.8497977 3.913389 0 0 0 122 106 90 255 
-2.003397 0.738067 3.997598 0 0 0 171 158 139 255 
-2.437314 1.053503 3.764321 0 0 0 152 134 114 255 
-2.514978 0.8171834 3.959236 0 0 0 114 96 76 255 
0.8699822 2.326752 3.502002 0 0 0 105 104 102 255 
-0.6691968 3.09448 2.79088 0 0 0 213 206 198 255 
-0.108244 2.732508 3.250734 0 0 0 149 139 127 255 
1.051611 0.8791568 4.102538 0 0 0 162 145 127 255 
-0.1713098 0.1344025 4.571697 0 0 0 153 136 118 255 
-2.458794 0.7193039 4.029877 0 0 0 130 112 88 255 
-0.007001364 0.5845227 4.224118 0 0 0 155 142 125 255 
-2.224445 2.233931 3.286225 0 0 0 181 169 157 255 
-1.147085 -0.04937466 4.576733 0 0 0 157 142 121 255 
-0.1717795 0.1340267 4.57093 0 0 0 153 136 118 255 
-0.4455962 2.423382 3.478146 0 0 0 173 161 147 255 
-2.08164 0.6478987 4.077946 0 0 0 132 115 89 255 
2.965593 1.979677 3.396102 0 0 0 205 188 162 255 
0.3558568 2.419549 3.651029 0 0 0 194 184 172 255 
-2.127191 2.220733 3.267006 0 0 0 162 150 138 255 
1.95937 1.487678 3.793438 0 0 0 132 124 111 255 
-1.74031 0.6572477 4.137502 0 0 0 146 129 109 255 
-0.799073 -0.1510732 4.678417 0 0 0 109 90 76 255 
-1.128292 0.726642 4.095855 0 0 0 124 108 92 255 
-0.7408032 0.6329213 4.231607 0 0 0 156 141 122 255 
-2.634353 3.805998 1.984709 0 0 0 173 161 145 255 
-1.902052 1.875023 3.310432 0 0 0 158 142 127 255 
-0.9153547 -0.1624476 4.714016 0 0 0 128 111 93 255 
0.04055338 2.713525 3.330234 0 0 0 127 121 119 255 
-1.25529 0.6223867 4.193072 0 0 0 110 94 78 255 
-1.122622 2.596986 2.997919 0 0 0 0 0 0 255 
-2.050124 1.512934 3.624317 0 0 0 180 166 153 255 
-2.215046 1.567025 3.560789 0 0 0 0 0 0 255 
-2.259593 1.58058 3.551579 0 0 0 148 135 119 255 
1.127823 3.026922 2.872628 0 0 0 178 171 163 255 
-2.200789 1.512034 3.613562 0 0 0 188 173 154 255 
-1.588777 0.840978 3.999523 0 0 0 168 151 131 255 
-2.533133 1.109698 3.750959 0 0 0 128 112 97 255 
-2.040765 0.7073175 4.090703 0 0 0 176 158 136 255 
-1.320909 0.0807047 4.425588 0 0 0 192 177 157 255 
-1.205472 0.6131428 4.208313 0 0 0 111 94 76 255 
-1.633523 1.250776 3.74154 0 0 0 144 127 111 255 
0.09034893 0.3697826 4.414721 0 0 0 154 139 120 255 
0.1796992 3.920551 2.077526 0 0 0 216 207 200 255 
0.04657804 4.457349 1.668377 0 0 0 225 216 209 255 
2.699964 6.731701 0.496415 0 0 0 202 191 185 255 
0.7837443 1.215811 3.954741 0 0 0 171 154 136 255 
-1.580932 1.151275 3.855903 0 0 0 182 167 146 255 
-1.961651 0.8985566 3.916802 0 0 0 162 145 127 255 
0.0544182 2.549935 3.389896 0 0 0 194 189 181 255 
0.04657804 4.457349 1.668377 0 0 0 225 216 209 255 
3.047542 1.739045 3.495648 0 0 0 206 196 184 255 
2.147301 1.281586 3.906213 0 0 0 173 164 155 255 
-1.190489 3.958355 2.269637 0 0 0 194 185 178 255 
-1.355857 3.430562 2.424526 0 0 0 159 148 142 255 
-1.001311 -0.8713426 5.155923 0 0 0 151 142 125 255 
-0.8289208 3.126204 2.825614 0 0 0 177 165 153 255 
-0.1225664 2.439462 3.464117 0 0 0 211 204 194 255 
-0.08216836 0.1322444 4.578599 0 0 0 170 154 138 255 
-0.3813818 0.07613818 4.597111 0 0 0 175 160 139 255 
-2.573111 0.977435 3.848957 0 0 0 163 145 128 255 
1.855717 6.6771 0.3450559 0 0 0 176 163 155 255 
0.4479177 5.328274 1.04147 0 0 0 199 189 180 255 
-0.1523071 3.30103 2.60426 0 0 0 102 97 93 255 
-2.385785 1.438306 3.69852 0 0 0 180 165 146 255 
-0.1553663 2.870806 3.037815 0 0 0 0 0 0 255 
0.188692 2.600481 3.370579 0 0 0 141 132 120 255 
-1.055961 4.023375 2.260537 0 0 0 167 158 151 255 
2.06497 0.6522802 4.102269 0 0 0 117 102 83 255 
1.844529 4.530885 1.69617 0 0 0 177 170 164 255 
0.7627085 2.30217 3.521172 0 0 0 204 196 181 255 
-1.243536 2.944836 2.906923 0 0 0 198 193 187 255 
-1.378051 2.38664 3.136037 0 0 0 158 142 127 255 
-0.9413022 2.166342 3.477285 0 0 0 141 133 130 255 
-2.864935 2.925063 2.862452 0 0 0 150 134 118 255 
-0.3610539 1.207873 4.033415 0 0 0 173 158 137 255 
-0.7537117 1.142814 3.972064 0 0 0 193 177 160 255 
0.2534207 0.1493198 4.548876 0 0 0 149 134 115 255 
-1.054187 1.264827 3.804819 0 0 0 112 99 80 255 
-1.21897 1.170309 3.867786 0 0 0 121 105 89 255 
-1.720005 0.8806635 3.967732 0 0 0 139 120 103 255 
-0.8711812 0.7323208 4.130549 0 0 0 135 117 95 255 
-2.119823 1.758152 3.409718 0 0 0 148 132 117 255 
-0.5823944 0.4164094 4.445842 0 0 0 102 87 68 255 
-1.150197 0.7194985 4.108669 0 0 0 135 117 97 255 
-1.875055 1.343082 3.717113 0 0 0 187 173 160 255 
-2.490555 1.675624 3.497674 0 0 0 148 132 117 255 
-1.999091 1.045021 3.789378 0 0 0 159 141 126 255 
-1.839517 0.8976966 3.925107 0 0 0 125 108 92 255 
-1.566252 0.6372343 4.146604 0 0 0 157 141 125 255 
-1.720005 0.8806635 3.967732 0 0 0 139 120 103 255 
-0.8315672 -0.1798197 4.708903 0 0 0 88 72 56 255 
-1.022518 -0.09670381 4.632179 0 0 0 77 63 50 255 
-1.965422 0.6596378 4.081082 0 0 0 184 173 160 255 
-2.347878 0.9485494 3.867166 0 0 0 170 152 132 255 
-1.022518 -0.09670381 4.632179 0 0 0 77 63 50 255 
-2.02232 0.9148098 3.874408 0 0 0 122 105 87 255 
-1.371778 0.6149256 4.177433 0 0 0 161 144 124 255 
-1.839517 0.8976966 3.925107 0 0 0 125 108 92 255 
-1.146014 0.717984 4.106706 0 0 0 135 117 97 255 
-1.84413 2.256746 3.128377 0 0 0 176 164 152 255 
0.6520453 1.167717 3.976227 0 0 0 179 166 147 255 
-0.8402576 2.859009 2.987631 0 0 0 201 188 179 255 
-0.8484361 4.003139 2.198337 0 0 0 196 187 180 255 
-0.02656933 3.576662 2.350369 0 0 0 177 167 158 255 
2.59592 3.572607 2.475312 0 0 0 0 0 0 255 
2.750391 5.476211 1.13737 0 0 0 210 201 192 255 
2.347905 5.468209 1.126801 0 0 0 165 156 149 255 
0.493035 5.567234 0.8372257 0 0 0 206 198 187 255 
1.385448 5.487535 1.177262 0 0 0 0 0 0 255 
1.564874 4.271809 1.858737 0 0 0 0 0 0 255 
0.4171475 4.995403 1.30697 0 0 0 182 172 162 255 
3.879546 2.160069 3.221166 0 0 0 172 160 145 255 
-3.314446 2.440102 3.077272 0 0 0 130 116 103 255 
3.183873 2.754572 2.923851 0 0 0 205 197 186 255 
-0.3337267 4.749343 1.402182 0 0 0 190 181 172 255 
0.01353491 4.367873 1.727313 0 0 0 224 216 206 255 
0.1452485 4.211647 1.818629 0 0 0 175 166 157 255 
3.093452 1.526245 3.559374 0 0 0 145 132 116 255 
2.696013 1.655031 3.512263 0 0 0 157 145 131 255 
1.196124 0.6481156 4.276338 0 0 0 170 158 142 255 
-0.7222507 4.315471 1.887451 0 0 0 203 193 183 255 
0.5463275 3.106976 2.731008 0 0 0 197 187 175 255 
1.53755 1.956217 3.418531 0 0 0 172 159 143 255 
-2.156043 3.516512 2.389606 0 0 0 177 157 132 255 
-0.6574582 3.865504 2.236013 0 0 0 222 213 204 255 
1.258107 2.248301 3.356305 0 0 0 143 140 133 255 
-0.819155 4.024797 2.206633 0 0 0 177 168 159 255 
1.878667 1.488372 3.771295 0 0 0 192 186 172 255 
1.152017 2.295543 3.369989 0 0 0 83 80 75 255 
-0.7055351 3.169644 2.774653 0 0 0 167 154 136 255 
-0.06691174 2.796879 3.190049 0 0 0 196 186 176 255 
1.524617 0.7657529 4.189204 0 0 0 122 111 91 255 
-1.387619 3.160215 2.659142 0 0 0 164 152 140 255 
1.06404 0.8310825 4.133211 0 0 0 156 139 119 255 
0.7078578 2.363559 3.480382 0 0 0 196 184 168 255 
1.278262 0.6480291 4.260397 0 0 0 141 128 111 255 
0.7362798 1.0269 4.128098 0 0 0 155 147 135 255 
0.8487572 0.5499564 4.259906 0 0 0 191 178 161 255 
-0.2856037 2.255295 3.783268 0 0 0 133 121 105 255 
0.1771517 1.062191 4.084483 0 0 0 167 156 138 255 
-1.799703 2.578225 2.913115 0 0 0 160 148 136 255 
0.06221665 1.120539 4.06585 0 0 0 133 121 105 255 
-1.407496 2.245268 3.270944 0 0 0 169 159 149 255 
-1.690997 2.347102 3.112881 0 0 0 195 181 168 255 
-0.3714844 1.328942 3.931941 0 0 0 123 108 89 255 
-0.3047827 1.127998 4.082381 0 0 0 124 111 92 255 
-1.508936 1.826788 3.3909 0 0 0 164 148 135 255 
-0.8366399 0.1571365 4.551521 0 0 0 183 175 166 255 
-0.1499554 0.5858062 4.226013 0 0 0 118 102 86 255 
-1.594307 1.816865 3.376133 0 0 0 0 0 0 255 
-1.260628 1.660246 3.611301 0 0 0 144 126 106 255 
-1.348889 1.694846 3.56004 0 0 0 180 163 147 255 
-1.975744 2.197199 3.210442 0 0 0 198 188 178 255 
-2.110057 2.345159 3.180166 0 0 0 185 172 156 255 
0.01896404 0.2908991 4.444821 0 0 0 155 138 120 255 
-0.3493762 0.5605678 4.236933 0 0 0 97 83 70 255 
-1.148708 1.249543 3.811582 0 0 0 99 87 75 255 
-0.5034499 0.6272594 4.194202 0 0 0 109 103 91 255 
-0.7944266 0.8456063 4.059128 0 0 0 94 82 68 255 
-0.5071035 0.5528758 4.262516 0 0 0 140 121 106 255 
-0.5415458 0.5500059 4.287926 0 0 0 98 81 64 255 
-1.614268 1.45014 3.668713 0 0 0 196 184 172 255 
-0.5803578 0.4859347 4.370504 0 0 0 100 81 64 255 
-1.214084 0.7811677 4.039988 0 0 0 128 113 94 255 
-0.5449947 0.3538463 4.499456 0 0 0 81 71 61 255 
-2.030455 1.567641 3.621819 0 0 0 147 130 114 255 
-0.5472324 0.3061875 4.522833 0 0 0 120 108 93 255 
1.073129 2.414873 3.275088 0 0 0 189 172 152 255 
-1.292262 0.7686221 4.036568 0 0 0 114 97 79 255 
-1.86232 1.146626 3.72383 0 0 0 168 151 133 255 
-1.061445 0.5636402 4.277328 0 0 0 155 138 119 255 
-1.463431 0.7810624 4.002798 0 0 0 132 114 94 255 
-0.58796 -0.9853865 5.207922 0 0 0 91 80 74 255 
-0.8733731 0.3863938 4.435141 0 0 0 135 120 100 255 
-2.426253 1.348485 3.782794 0 0 0 189 178 160 255 
-1.89859 1.078701 3.768288 0 0 0 118 102 87 255 
-0.9576185 0.4014264 4.404784 0 0 0 152 137 114 255 
-1.019204 0.4365664 4.373729 0 0 0 160 145 124 255 
-1.130712 0.4632552 4.348188 0 0 0 167 151 135 255 
2.465365 3.753656 2.330893 0 0 0 198 183 160 255 
-2.394987 1.521884 3.650384 0 0 0 179 162 142 255 
-1.295467 0.4983308 4.316911 0 0 0 118 101 85 255 
0.8190324 -1.289779 5.399395 0 0 0 188 172 157 255 
-2.302626 1.396686 3.76146 0 0 0 174 161 145 255 
-1.502271 0.556743 4.22864 0 0 0 132 118 99 255 
-0.7641385 -0.1535493 4.690238 0 0 0 96 78 64 255 
1.315471 1.44777 3.829702 0 0 0 163 148 126 255 
-2.431247 1.421399 3.731568 0 0 0 191 178 162 255 
-1.467992 2.878061 2.885644 0 0 0 196 187 178 255 
-2.075047 0.9360808 3.878086 0 0 0 128 111 93 255 
-0.7657793 -0.1922133 4.726655 0 0 0 122 105 86 255 
2.752852 7.473487 0.002918398 0 0 0 174 161 152 255 
-0.0527493 4.787163 1.437789 0 0 0 222 213 206 255 
-1.755788 0.03877531 4.411913 0 0 0 149 133 108 255 
-2.025168 1.580275 3.536826 0 0 0 182 169 152 255 
-2.100004 0.6387543 4.108388 0 0 0 188 171 152 255 
-2.135706 0.8071777 4.014733 0 0 0 168 150 129 255 
-1.937817 0.7270375 4.092764 0 0 0 167 150 130 255 
-0.08003072 3.323364 2.614132 0 0 0 220 211 204 255 
0.3429756 4.526225 1.575759 0 0 0 200 191 184 255 
-2.050407 0.7346693 4.077092 0 0 0 134 116 95 255 
-2.020907 0.723029 4.093007 0 0 0 180 165 146 255 
-1.937817 0.7270375 4.092764 0 0 0 167 150 130 255 
1.429109 -0.6818913 5.073106 0 0 0 166 154 142 255 
-1.989697 0.7732652 4.026958 0 0 0 176 163 147 255 
-1.497865 0.5712751 4.23988 0 0 0 132 118 99 255 
-1.294211 0.5001882 4.317853 0 0 0 118 101 85 255 
-1.781136 1.10909 3.795499 0 0 0 195 181 168 255 
-0.4467224 0.1854535 4.571852 0 0 0 185 169 153 255 
-0.4914569 0.2625475 4.546573 0 0 0 122 106 90 255 
-0.6879044 0.5473961 4.331174 0 0 0 137 122 103 255 
-0.7005645 0.5982073 4.262893 0 0 0 165 150 131 255 
-0.4546082 0.4147394 4.406121 0 0 0 109 92 72 255 
-0.001901589 0.2263373 4.505941 0 0 0 119 103 87 255 
0.06984966 0.2715352 4.451179 0 0 0 122 105 87 255 
0.06984966 0.2715352 4.451179 0 0 0 122 105 87 255 
3.192728 2.754612 2.989998 0 0 0 166 141 114 255 
-1.99325 2.153591 3.241268 0 0 0 197 187 177 255 
0.135832 0.3677448 4.368882 0 0 0 121 104 86 255 
0.4895692 2.262043 3.747952 0 0 0 140 128 114 255 
3.054975 2.174195 3.388641 0 0 0 164 143 112 255 
0.04934126 0.260628 4.465087 0 0 0 124 107 89 255 
1.632298 1.37798 3.838948 0 0 0 182 172 160 255 
1.152017 2.295543 3.369989 0 0 0 83 80 75 255 
-0.1062031 3.354177 2.618466 0 0 0 184 177 171 255 
1.258107 2.248301 3.356305 0 0 0 143 140 133 255 
3.10506 1.158116 3.963644 0 0 0 174 157 127 255 
1.324157 2.323872 3.380136 0 0 0 143 140 133 255 
-0.650281 3.876979 2.240635 0 0 0 0 0 0 255 
0.5017434 3.074178 2.737704 0 0 0 0 0 0 255 
1.17006 -0.07524656 4.777829 0 0 0 0 0 0 255 
1.403191 2.598707 3.072839 0 0 0 164 154 142 255 
2.698204 1.656498 3.512817 0 0 0 157 145 131 255 
3.208999 1.870867 3.508826 0 0 0 175 165 153 255 
3.334679 2.896314 2.864455 0 0 0 176 168 157 255 
0.01621139 2.757339 3.257966 0 0 0 152 142 133 255 
1.525892 2.28248 3.31793 0 0 0 99 94 87 255 
-1.151777 2.941831 2.902691 0 0 0 103 101 101 255 
-1.151814 2.941859 2.902691 0 0 0 104 101 102 255 
0.2292431 0.05897205 4.629882 0 0 0 126 119 111 255 
-0.2355781 2.811832 3.011954 0 0 0 225 211 198 255 
-0.5931726 2.29782 3.491328 0 0 0 192 180 162 255 
-0.9061508 1.363683 3.794807 0 0 0 153 142 131 255 
-0.4606844 0.3045629 4.512183 0 0 0 139 122 104 255 
-0.6537524 1.223598 3.948056 0 0 0 175 156 130 255 
2.654008 1.055754 4.050826 0 0 0 134 126 118 255 
3.211511 1.560022 3.601743 0 0 0 164 151 134 255 
-0.6430454 3.070348 2.781304 0 0 0 166 158 151 255 
-2.086263 0.9184197 3.847016 0 0 0 119 106 91 255 
-0.05315411 3.822921 2.107501 0 0 0 203 194 180 255 
0.2653926 1.245383 3.973164 0 0 0 108 99 88 255 
-0.8073714 -0.12684 4.667397 0 0 0 130 111 92 255 
-1.160432 -0.377889 4.887972 0 0 0 120 107 91 255 
-1.422476 3.347453 2.440912 0 0 0 181 171 162 255 
-1.096926 1.905556 3.464427 0 0 0 0 0 0 255 
-0.5705686 0.4821942 4.343269 0 0 0 136 118 98 255 
-1.251069 0.5955251 4.212547 0 0 0 119 102 84 255 
-1.919537 1.469984 3.649651 0 0 0 162 149 132 255 
2.481299 0.6095219 4.143516 0 0 0 132 115 99 255 
-2.072517 0.7354542 4.071646 0 0 0 112 94 70 255 
-1.925876 0.746188 4.076615 0 0 0 125 108 88 255 
-1.226125 0.5461265 4.274803 0 0 0 155 138 121 255 
2.571052 5.392643 1.171053 0 0 0 177 168 159 255 
-1.073647 1.888656 3.387723 0 0 0 181 176 172 255 
-1.705523 1.94031 3.456978 0 0 0 189 173 157 255 
-1.93485 1.895136 3.276882 0 0 0 159 143 128 255 
3.60563 8.23666 -0.5154814 0 0 0 209 200 191 255 
2.770165 0.9032434 4.076863 0 0 0 196 185 167 255 
0.7347994 3.023023 2.835883 0 0 0 120 110 100 255 
1.604331 3.172034 2.663725 0 0 0 189 174 155 255 
-1.360686 0.5462283 4.256531 0 0 0 117 103 92 255 
-1.257014 0.01273214 4.480549 0 0 0 90 77 69 255 
1.526728 1.76806 3.56783 0 0 0 193 178 157 255 
2.722957 2.330943 3.187264 0 0 0 161 143 119 255 
-0.2060551 0.2176988 4.550049 0 0 0 153 136 120 255 
2.070325 1.208779 3.885197 0 0 0 0 0 0 255 
2.705234 3.851022 2.296822 0 0 0 195 178 159 255 
2.696665 3.466941 2.483868 0 0 0 158 142 127 255 
1.023728 1.449131 3.799857 0 0 0 161 144 121 255 
2.37209 0.6011291 4.178257 0 0 0 113 97 82 255 
2.696665 3.466941 2.483868 0 0 0 158 142 127 255 
0.1249586 3.80498 2.130692 0 0 0 192 175 155 255 
-1.90381 4.04888 2.101829 0 0 0 187 174 158 255 
-0.4887981 3.38547 2.438998 0 0 0 204 192 180 255 
-2.924764 -0.5711026 4.746457 0 0 0 95 78 68 255 
-1.076581 3.282818 2.606083 0 0 0 0 0 0 255 
1.195096 3.396197 2.490114 0 0 0 134 121 105 255 
1.650971 0.2224795 4.549741 0 0 0 108 92 76 255 
2.181558 3.302219 2.569881 0 0 0 0 0 0 255 
2.285638 3.739113 2.288306 0 0 0 200 183 163 255 
2.237764 0.6128969 4.145767 0 0 0 126 108 88 255 
2.90094 3.062772 2.80022 0 0 0 175 158 132 255 
3.240102 2.931899 2.87148 0 0 0 208 197 177 255 
0.337765 2.766278 3.052029 0 0 0 0 0 0 255 
2.283141 3.740834 2.287393 0 0 0 200 183 163 255 
2.610345 0.5697063 4.169982 0 0 0 146 131 112 255 
-0.3165052 3.457309 2.404667 0 0 0 211 199 185 255 
3.058456 2.121735 3.397558 0 0 0 187 170 142 255 
3.081073 2.319368 3.248483 0 0 0 176 157 127 255 
2.911951 3.787879 2.411354 0 0 0 155 137 117 255 
2.446481 0.5904797 4.164449 0 0 0 121 105 89 255 
2.02881 2.711132 2.955221 0 0 0 175 157 133 255 
2.055241 0.4857243 4.395263 0 0 0 172 151 124 255 
1.902589 2.484501 3.12556 0 0 0 187 172 153 255 
1.571725 1.913812 3.474381 0 0 0 0 0 0 255 
1.76419 3.604052 2.367596 0 0 0 170 155 134 255 
2.445844 0.5935783 4.166604 0 0 0 121 105 89 255 
-2.83307 3.470656 2.315201 0 0 0 186 177 162 255 
-2.333993 3.138718 2.711319 0 0 0 193 181 167 255 
-1.886719 -0.2865925 4.710877 0 0 0 126 112 101 255 
0.07018984 1.636004 3.92309 0 0 0 122 107 88 255 
2.76823 2.936067 2.830111 0 0 0 178 164 138 255 
0.1384886 3.43001 2.464769 0 0 0 0 0 0 255 
1.532148 3.905717 2.123016 0 0 0 218 204 193 255 
1.466017 0.9750047 3.966216 0 0 0 124 106 82 255 
-2.681609 0.7221879 4.035086 0 0 0 0 0 0 255 
-2.113508 3.178659 2.725494 0 0 0 128 117 107 255 
-2.534884 0.4289129 4.223518 0 0 0 164 148 132 255 
0.3197989 2.427449 3.623518 0 0 0 39 36 30 255 
1.061921 3.76567 2.338865 0 0 0 166 154 138 255 
3.109824 3.180884 2.78152 0 0 0 156 137 107 255 
-2.534762 0.428782 4.22319 0 0 0 164 148 132 255 
-1.819392 4.439528 1.683002 0 0 0 183 171 159 255 
-1.752884 3.193398 2.609901 0 0 0 201 187 169 255 
-1.49393 3.64812 2.427109 0 0 0 211 195 172 255 
-3.047369 -0.08956837 4.42587 0 0 0 101 87 76 255 
-0.9334219 -0.1191547 4.609382 0 0 0 121 108 94 255 
2.396041 2.412331 3.151327 0 0 0 192 177 158 255 
2.704053 1.072158 4.046215 0 0 0 183 172 152 255 
2.862727 1.068427 4.034859 0 0 0 189 174 155 255 
1.129834 3.746974 2.32118 0 0 0 201 186 165 255 
0.331539 0.06947878 4.622959 0 0 0 156 140 124 255 
-2.478911 3.257645 2.577873 0 0 0 187 182 163 255 
0.2325424 -0.3731754 4.803465 0 0 0 134 124 114 255 
0.2632971 2.645382 3.325545 0 0 0 103 90 81 255 
-1.719013 4.092067 2.132593 0 0 0 159 146 130 255 
-1.645868 3.902686 2.253729 0 0 0 155 145 136 255 
1.511151 0.4065498 4.347877 0 0 0 191 179 160 255 
1.63189 2.530863 3.083269 0 0 0 171 160 151 255 
2.517819 0.7414411 4.036559 0 0 0 141 123 101 255 
-0.01999773 -0.1943633 4.694231 0 0 0 162 149 132 255 
3.215113 3.090983 2.801036 0 0 0 198 182 157 255 
-1.242965 -0.02118081 4.505815 0 0 0 89 76 68 255 
-1.769355 1.229008 3.72998 0 0 0 0 0 0 255 
-3.459131 -0.5507678 4.721875 0 0 0 0 0 0 255 
-2.923588 3.37139 2.420656 0 0 0 159 151 140 255 
0.4529446 3.842426 2.177436 0 0 0 188 175 159 255 
2.85138 1.184986 3.940164 0 0 0 170 155 134 255 
-1.445746 4.072249 2.165775 0 0 0 0 0 0 255 
-0.5722686 4.23782 1.948455 0 0 0 185 173 159 255 
-0.2010442 -0.1261846 4.594852 0 0 0 109 90 75 255 
2.14269 1.215964 3.873222 0 0 0 195 182 165 255 
2.625557 3.80752 2.388777 0 0 0 0 0 0 255 
2.609489 3.304081 2.566393 0 0 0 0 0 0 255 
-1.948399 1.626925 3.792675 0 0 0 0 0 0 255 
-1.834047 0.1336144 4.306297 0 0 0 0 0 0 255 
0.8716744 2.479602 3.420823 0 0 0 134 121 104 255 
2.307903 1.329559 3.868246 0 0 0 173 158 137 255 
2.297006 0.4939898 4.261594 0 0 0 125 108 90 255 
2.958196 2.368043 3.14697 0 0 0 149 128 101 255 
2.826801 0.7202961 4.068322 0 0 0 152 136 113 255 
2.848094 0.9822646 4.066991 0 0 0 195 184 166 255 
2.463975 2.322501 3.215935 0 0 0 168 152 130 255 
1.455579 0.2859693 4.407869 0 0 0 152 141 123 255 
-0.1134146 3.269724 2.632692 0 0 0 204 195 182 255 
-2.628504 3.494366 2.29074 0 0 0 153 139 126 255 
-2.453828 1.769741 3.40563 0 0 0 129 117 105 255 
-0.8832145 3.530883 2.387353 0 0 0 0 0 0 255 
-0.08364618 0.4509833 4.319374 0 0 0 162 150 138 255 
-0.8368251 2.766206 2.977548 0 0 0 205 193 177 255 
-0.08990666 0.1784097 4.553702 0 0 0 151 135 122 255 
0.2522289 0.03404284 4.653984 0 0 0 175 166 151 255 
0.5972394 4.138128 1.909624 0 0 0 173 158 139 255 
1.141753 3.163775 2.71356 0 0 0 159 152 142 255 
1.24757 2.404338 3.320673 0 0 0 92 82 72 255 
1.690375 0.773923 4.141309 0 0 0 101 85 70 255 
1.760595 0.8174496 4.045186 0 0 0 134 117 99 255 
-2.336072 3.723819 2.180997 0 0 0 156 147 132 255 
1.092504 2.224287 3.486397 0 0 0 170 163 152 255 
-1.975825 4.085969 2.237705 0 0 0 0 0 0 255 
2.101901 0.6713241 4.123171 0 0 0 112 96 80 255 
-1.371405 4.545965 1.64548 0 0 0 174 160 147 255 
-1.271413 1.822945 3.440024 0 0 0 138 125 116 255 
-1.140538 -0.02161831 4.541527 0 0 0 90 76 65 255 
1.187461 2.330782 3.427589 0 0 0 94 91 86 255 
-0.7943259 1.563354 3.766524 0 0 0 185 173 159 255 
-0.172281 0.158999 4.555871 0 0 0 163 147 132 255 
-0.05695603 3.209027 2.693034 0 0 0 0 0 0 255 
2.151616 0.2099017 4.571675 0 0 0 126 113 94 255 
-2.414274 3.762811 2.117451 0 0 0 206 196 184 255 
2.959853 2.356752 3.163118 0 0 0 176 156 129 255 
2.943093 1.676207 3.489803 0 0 0 157 138 108 255 
-1.402639 4.229118 1.966264 0 0 0 155 142 126 255 
2.551182 1.0679 4.036004 0 0 0 155 140 114 255 
-1.41959 4.04356 2.184372 0 0 0 118 110 99 255 
1.039957 0.3957818 4.334479 0 0 0 175 159 143 255 
-3.196209 0.01950216 4.372972 0 0 0 163 150 133 255 
-3.173882 1.51173 3.690055 0 0 0 200 186 173 255 
-2.762787 3.054007 2.551255 0 0 0 132 119 111 255 
-2.579916 0.2087883 4.237533 0 0 0 186 170 154 255 
1.526235 0.0630803 4.788961 0 0 0 0 0 0 255 
1.838071 1.56826 3.69601 0 0 0 160 142 122 255 
2.02329 0.8094635 4.012871 0 0 0 115 98 80 255 
1.928237 0.4170685 4.494094 0 0 0 130 113 95 255 
2.231139 3.272345 2.572586 0 0 0 150 134 118 255 
2.348938 1.402036 3.803117 0 0 0 180 163 137 255 
2.383529 1.435695 3.762275 0 0 0 143 126 106 255 
2.502135 0.7593696 4.031088 0 0 0 142 124 102 255 
2.695865 2.662076 2.871821 0 0 0 163 143 118 255 
2.779186 3.351159 2.534395 0 0 0 186 170 154 255 
2.023209 0.8093952 4.011565 0 0 0 115 98 80 255 
1.046585 0.3299812 4.366547 0 0 0 104 86 72 255 
2.350512 3.741961 2.242381 0 0 0 0 0 0 255 
-1.665224 1.090173 3.814823 0 0 0 0 0 0 255 
2.287812 1.301597 3.886211 0 0 0 176 161 142 255 
2.029479 0.677136 4.150518 0 0 0 115 99 83 255 
2.58131 3.379091 2.532694 0 0 0 154 137 117 255 
2.012952 1.185336 3.918124 0 0 0 174 159 138 255 
0.7699705 4.19556 1.942065 0 0 0 190 174 158 255 
0.5188696 3.073216 2.742483 0 0 0 180 164 141 255 
-0.8173309 -0.3630957 4.90796 0 0 0 60 55 49 255 
-1.12807 4.175092 2.04122 0 0 0 137 123 110 255 
-1.45908 0.50967 4.23658 0 0 0 0 0 0 255 
-2.003397 0.738067 3.997598 0 0 0 0 0 0 255 
1.76213 0.5156727 4.421578 0 0 0 165 149 132 255 
1.526701 0.3588338 4.372267 0 0 0 151 133 113 255 
1.392683 0.04281103 4.686607 0 0 0 100 92 81 255 
1.56376 2.004992 3.384463 0 0 0 147 131 108 255 
0.4114503 2.31583 3.74858 0 0 0 175 160 141 255 
0.06726002 0.08196756 4.619843 0 0 0 153 139 128 255 
2.310158 0.6802266 4.103902 0 0 0 0 0 0 255 
-0.3941222 1.592825 3.832486 0 0 0 165 148 130 255 
-1.483296 3.611451 2.371698 0 0 0 193 181 165 255 
2.620718 3.75411 2.366776 0 0 0 160 142 118 255 
-2.267429 3.532742 2.325803 0 0 0 190 174 159 255 
-3.472257 -0.523534 4.735129 0 0 0 0 0 0 255 
-2.89326 -0.5119135 4.707213 0 0 0 105 88 78 255 
-2.613994 -0.2890241 4.673841 0 0 0 125 111 98 255 
-2.398798 3.571872 2.252425 0 0 0 189 176 160 255 
2.834541 3.092965 2.842346 0 0 0 0 0 0 255 
2.438199 0.6867059 4.096869 0 0 0 154 135 118 255 
2.4852 0.5190294 4.210916 0 0 0 146 131 112 255 
2.715183 1.25158 3.89234 0 0 0 140 124 104 255 
2.871267 2.112836 3.38521 0 0 0 194 179 156 255 
2.360983 3.585384 2.431957 0 0 0 207 192 173 255 
2.775951 3.323883 2.550361 0 0 0 200 184 161 255 
2.579247 3.378678 2.533125 0 0 0 154 137 117 255 
2.012282 1.18461 3.920487 0 0 0 174 159 138 255 
1.464295 2.988898 2.880127 0 0 0 151 137 124 255 
2.248719 0.8995559 3.992222 0 0 0 124 108 85 255 
-1.784296 0.2168764 4.235494 0 0 0 0 0 0 255 
3.638871 -0.5355238 4.932025 0 0 0 0 0 0 255 
0.3613085 2.405287 3.653304 0 0 0 177 162 140 255 
1.495468 1.436512 3.83566 0 0 0 185 176 159 255 
0.8235958 0.5702735 4.232291 0 0 0 177 159 137 255 
0.9241464 0.4817572 4.303004 0 0 0 159 143 127 255 
1.098452 2.307127 3.455296 0 0 0 78 73 69 255 
1.258502 2.431472 3.269519 0 0 0 133 115 93 255 
1.369265 0.03019802 4.684913 0 0 0 131 118 102 255 
1.738707 2.496078 3.095822 0 0 0 155 137 115 255 
1.791479 2.308565 3.273632 0 0 0 155 138 118 255 
1.817208 2.228692 3.338394 0 0 0 162 151 133 255 
1.762942 0.6481217 4.380276 0 0 0 161 151 141 255 
1.918024 1.450918 3.807036 0 0 0 181 164 147 255 
1.934319 0.4172488 4.489647 0 0 0 139 124 101 255 
2.39083 1.960829 3.319442 0 0 0 157 141 116 255 
2.536429 3.842088 2.272513 0 0 0 84 70 57 255 
2.640117 3.296316 2.595613 0 0 0 170 153 133 255 
2.851405 2.133466 3.368906 0 0 0 140 120 93 255 
-3.032727 -0.01331551 4.39505 0 0 0 113 99 88 255 
-0.5063246 1.103903 4.097008 0 0 0 0 0 0 255 
-2.559773 3.679518 2.137918 0 0 0 188 176 162 255 
-2.23629 3.110663 2.76687 0 0 0 125 115 106 255 
-1.918602 -0.4913265 4.79006 0 0 0 122 104 90 255 
1.041077 -0.2813959 4.859786 0 0 0 0 0 0 255 
-1.353787 4.166535 2.052554 0 0 0 139 126 115 255 
-1.334517 3.243085 2.594051 0 0 0 151 135 119 255 
-1.250125 0.03842798 4.471196 0 0 0 82 67 60 255 
0.5840954 3.051263 2.832762 0 0 0 112 100 86 255 
-1.647348 3.596294 2.326437 0 0 0 174 160 137 255 
0.7112246 3.433299 2.466261 0 0 0 169 154 134 255 
1.030042 2.377213 3.385677 0 0 0 98 89 80 255 
1.298737 1.883684 3.514604 0 0 0 144 128 105 255 
1.309129 0.5911541 4.284361 0 0 0 176 163 146 255 
1.464255 3.047444 2.821616 0 0 0 184 168 152 255 
-0.9564538 1.779718 3.571284 0 0 0 109 95 84 255 
-0.3740043 1.145759 4.067814 0 0 0 110 101 90 255 
-3.770605 1.510771 3.565777 0 0 0 184 171 156 255 
-2.123801 0.7297236 3.992949 0 0 0 166 149 135 255 
-1.878355 0.1484915 4.269239 0 0 0 143 126 110 255 
-1.758064 0.851512 3.986153 0 0 0 119 101 87 255 
-1.53983 3.689727 2.365041 0 0 0 0 0 0 255 
-1.479849 3.554159 2.376639 0 0 0 0 0 0 255 
-1.52148 -0.3536495 4.814353 0 0 0 106 94 82 255 
-1.250044 0.04110608 4.473615 0 0 0 78 71 65 255 
-0.4559981 -0.0778638 4.586296 0 0 0 179 162 144 255 
-0.3823822 1.142884 4.038581 0 0 0 0 0 0 255 
-0.2299404 2.641625 3.229923 0 0 0 212 196 181 255 
-2.480021 0.1070977 4.237835 0 0 0 0 0 0 255 
1.720772 3.718581 2.29347 0 0 0 0 0 0 255 
1.179029 2.384272 3.363521 0 0 0 123 114 107 255 
1.360413 3.20901 2.649692 0 0 0 166 149 129 255 
1.321878 3.031249 2.852857 0 0 0 186 177 166 255 
-1.159576 -0.09285313 4.627219 0 0 0 90 84 74 255 
1.232435 0.01080578 4.692322 0 0 0 150 139 121 255 
1.404154 1.935716 3.454808 0 0 0 156 138 116 255 
1.262145 0.0273186 4.676215 0 0 0 151 139 123 255 
1.380982 1.604691 3.758909 0 0 0 98 88 76 255 
1.487319 2.251755 3.345778 0 0 0 189 177 163 255 
1.501013 1.586122 3.747736 0 0 0 115 102 92 255 
1.475858 0.5019229 4.315217 0 0 0 172 163 143 255 
-1.224295 0.751425 4.063426 0 0 0 109 101 90 255 
1.56629 1.708044 3.616872 0 0 0 173 158 139 255 
1.639856 2.254398 3.325246 0 0 0 179 167 152 255 
1.618282 1.542565 3.721027 0 0 0 181 169 155 255 
1.703549 2.433317 3.163528 0 0 0 194 176 152 255 
1.905433 3.027996 2.795783 0 0 0 169 152 132 255 
1.980183 1.760125 3.556682 0 0 0 85 68 50 255 
2.117045 2.335781 3.232778 0 0 0 180 167 150 255 
2.374666 2.465616 3.109354 0 0 0 177 161 141 255 
2.620344 3.529366 2.444258 0 0 0 161 148 132 255 
2.581129 2.13258 3.326051 0 0 0 175 162 145 255 
-1.985856 -0.4988919 4.788946 0 0 0 112 94 80 255 
1.76654 4.357337 1.752678 0 0 0 0 0 0 255 
-0.7290126 0.4260969 4.436696 0 0 0 67 61 61 255 
-0.7258702 1.866911 3.618338 0 0 0 167 151 135 255 
-0.6729624 1.3699 3.850842 0 0 0 97 85 72 255 
-1.596086 -0.8485419 5.2323 0 0 0 47 43 32 255 
-0.2823647 2.667451 3.183657 0 0 0 204 188 173 255 
-0.2350759 0.2919428 4.477582 0 0 0 133 116 100 255 
1.699119 4.029798 2.126787 0 0 0 183 170 154 255 
-0.08483438 2.635116 3.300788 0 0 0 126 113 105 255 
0.0100067 2.708786 3.289244 0 0 0 151 141 132 255 
0.07161492 2.595838 3.351387 0 0 0 228 221 212 255 
0.8345811 1.117252 4.057768 0 0 0 156 141 122 255 
0.1836101 2.491611 3.421391 0 0 0 194 185 170 255 
0.2270872 2.489081 3.465042 0 0 0 136 127 111 255 
-1.284208 -0.844853 5.221666 0 0 0 77 68 51 255 
0.571416 0.4555358 4.364284 0 0 0 0 0 0 255 
0.6607082 3.385681 2.488719 0 0 0 160 145 126 255 
0.6759074 3.244938 2.570355 0 0 0 163 146 126 255 
0.6327888 2.58713 3.230467 0 0 0 200 185 166 255 
0.7430881 1.224256 3.950335 0 0 0 145 128 108 255 
0.8257644 2.324998 3.502153 0 0 0 158 147 137 255 
1.007825 1.701158 3.71596 0 0 0 169 157 141 255 
1.046952 1.46801 3.789516 0 0 0 169 149 126 255 
-0.8209192 1.276354 3.879617 0 0 0 146 129 109 255 
-0.3867551 1.172519 4.049291 0 0 0 93 83 73 255 
0.2495593 0.2023367 4.497145 0 0 0 144 130 117 255 
0.3652353 2.97701 2.870364 0 0 0 163 150 134 255 
0.5412899 1.729159 3.845443 0 0 0 179 167 154 255 
0.7442897 1.224375 3.950399 0 0 0 145 128 108 255 
1.060739 1.357059 3.867635 0 0 0 136 119 99 255 
1.446494 3.457643 2.433982 0 0 0 197 186 166 255 
1.433898 2.949092 2.908934 0 0 0 184 175 159 255 
1.404154 1.935716 3.454808 0 0 0 156 138 116 255 
1.634328 1.664989 3.612149 0 0 0 192 177 158 255 
1.808465 2.981264 2.866829 0 0 0 140 123 107 255 
-3.047586 1.803101 3.474573 0 0 0 138 124 113 255 
-2.795082 -0.4231007 4.693029 0 0 0 166 154 140 255 
-2.873648 0.8821287 3.918574 0 0 0 0 0 0 255 
-2.97152 1.609877 3.666827 0 0 0 116 109 101 255 
-2.651842 -0.4112887 4.695774 0 0 0 178 165 149 255 
-2.472336 3.278372 2.55585 0 0 0 173 163 153 255 
-2.151722 0.6380506 4.084198 0 0 0 170 157 141 255 
-1.979472 0.1375748 4.338476 0 0 0 0 0 0 255 
-1.605266 1.017815 3.903077 0 0 0 0 0 0 255 
-1.481659 1.270838 3.748308 0 0 0 137 124 108 255 
-1.416144 4.044408 2.185363 0 0 0 0 0 0 255 
2.415039 2.278914 3.247371 0 0 0 167 154 137 255 
-1.243169 -0.01779536 4.526829 0 0 0 73 63 53 255 
-1.283352 -0.2683445 4.768551 0 0 0 141 129 117 255 
-1.155174 0.8952246 3.962186 0 0 0 179 163 148 255 
-1.199356 1.25038 3.798984 0 0 0 119 109 100 255 
2.562732 1.832564 3.404912 0 0 0 157 141 122 255 
1.187916 3.698165 2.389123 0 0 0 129 117 107 255 
1.040191 0.3637432 4.341907 0 0 0 99 86 77 255 
-0.5822961 0.3805366 4.478909 0 0 0 69 63 57 255 
0.1688748 3.806849 2.122044 0 0 0 168 151 133 255 
1.540499 3.100812 2.755045 0 0 0 189 179 164 255 
1.030684 3.090035 2.80767 0 0 0 106 97 90 255 
1.198299 0.824622 4.122631 0 0 0 106 95 82 255 
-0.2109086 1.064483 4.133297 0 0 0 98 87 76 255 
-1.679961 1.108344 3.843472 0 0 0 156 147 138 255 
-1.077961 1.200749 3.863758 0 0 0 131 117 99 255 
-1.715009 1.125627 3.819911 0 0 0 120 108 97 255 
-0.6175333 0.874264 4.063258 0 0 0 162 149 132 255 
0.2108912 0.1976301 4.503397 0 0 0 113 108 103 255 
2.183426 1.898544 3.41757 0 0 0 78 73 69 255 
0.7347994 3.023023 2.835883 0 0 0 120 110 100 255 
2.91462 2.997036 2.854659 0 0 0 156 140 114 255 
-2.601642 3.128347 2.605007 0 0 0 201 191 179 255 
-2.2641 3.568493 2.285436 0 0 0 155 139 126 255 
1.882577 1.385767 3.836784 0 0 0 113 102 88 255 
-2.2641 3.568493 2.285436 0 0 0 155 139 126 255 
-0.09179178 1.205863 4.00477 0 0 0 114 97 78 255 
3.020092 1.062065 4.031095 0 0 0 146 129 108 255 
3.025496 2.133689 3.391939 0 0 0 176 159 131 255 
1.723142 0.08872709 4.699617 0 0 0 99 93 81 255 
3.105264 3.376169 2.446606 0 0 0 0 0 0 255 
-1.743836 4.52911 1.880354 0 0 0 0 0 0 255 
-1.766943 -0.2405523 4.689685 0 0 0 127 113 102 255 
2.838989 3.046558 2.804535 0 0 0 177 159 135 255 
3.252342 1.960447 3.49858 0 0 0 148 131 105 255 
-1.572525 3.839713 2.283848 0 0 0 146 134 122 255 
2.763642 3.114863 2.79034 0 0 0 181 165 140 255 
2.533282 3.891145 2.308923 0 0 0 192 180 166 255 
2.536429 3.842088 2.272513 0 0 0 84 70 57 255 
-2.526449 3.655365 2.130007 0 0 0 188 176 162 255 
-2.462443 3.772197 2.085756 0 0 0 205 193 181 255 
-2.223822 3.077318 2.791203 0 0 0 187 177 165 255 
-1.159097 -0.2847615 4.772883 0 0 0 97 90 80 255 
2.541876 7.072689 0.2606523 0 0 0 178 169 162 255 
0.7205548 1.050823 4.09947 0 0 0 120 113 105 255 
1.701678 2.282446 3.257697 0 0 0 163 156 146 255 
1.847581 1.566863 3.861619 0 0 0 0 0 0 255 
1.957875 5.014756 1.488653 0 0 0 213 210 205 255 
-1.379363 2.493023 3.048196 0 0 0 170 161 154 255 
1.03703 1.275049 3.92521 0 0 0 150 132 108 255 
-0.1715902 0.2176706 4.528076 0 0 0 169 157 142 255 
0.4607311 0.1588531 4.536275 0 0 0 114 104 94 255 
0.1051937 0.1467302 4.559034 0 0 0 162 154 141 255 
1.440298 0.7709987 4.159272 0 0 0 0 0 0 255 
1.200411 4.051234 2.04915 0 0 0 218 217 215 255 
2.979466 3.35601 2.562488 0 0 0 165 156 149 255 
-0.7912583 2.468212 3.217763 0 0 0 210 200 190 255 
2.984313 3.361644 2.563392 0 0 0 165 156 149 255 
3.116811 2.484587 3.149225 0 0 0 187 164 133 255 
0.8506598 1.837516 3.689621 0 0 0 165 155 143 255 
1.348933 0.1229451 4.701966 0 0 0 0 0 0 255 
1.603231 2.640887 3.000656 0 0 0 151 138 123 255 
4.338916 8.037461 -0.214709 0 0 0 169 165 157 255 
3.178734 3.570728 2.425011 0 0 0 222 218 209 255 
1.841485 3.111483 2.697777 0 0 0 184 175 166 255 
-1.187006 0.8292337 4.128728 0 0 0 0 0 0 255 
0.5253014 0.2493395 4.429662 0 0 0 159 148 130 255 
-2.446587 3.149091 2.563869 0 0 0 0 0 0 255 
3.321742 2.827872 3.024157 0 0 0 121 103 83 255 
-1.251474 2.342724 3.207374 0 0 0 0 0 0 255 
2.382955 5.994727 0.9218096 0 0 0 208 203 197 255 
1.800391 0.713151 4.25537 0 0 0 102 92 82 255 
-1.632625 0.5606816 4.21497 0 0 0 161 151 139 255 
0.6100943 0.2488812 4.42994 0 0 0 125 115 105 255 
0.6104903 0.2480644 4.429652 0 0 0 125 115 105 255 
1.375965 0.5815321 4.285952 0 0 0 166 159 149 255 
1.461646 0.1692378 4.527408 0 0 0 130 116 103 255 
-0.7416254 1.075267 4.052122 0 0 0 214 207 199 255 
1.414508 3.909841 2.08742 0 0 0 219 216 211 255 
-1.827557 3.188032 2.581806 0 0 0 166 157 150 255 
-0.4492692 2.419223 3.451478 0 0 0 166 158 147 255 
-1.316993 -0.8688457 5.261777 0 0 0 99 89 79 255 
2.352634 2.341682 3.295912 0 0 0 209 204 200 255 
-1.414035 4.107286 2.109439 0 0 0 155 151 148 255 
-2.492727 2.533556 2.98582 0 0 0 171 162 153 255 
0.06991468 2.742347 3.262259 0 0 0 104 92 80 255 
1.952706 2.478984 3.15348 0 0 0 175 168 160 255 
0.4582595 2.181602 3.799322 0 0 0 154 143 137 255 
-1.249457 0.4727907 4.340806 0 0 0 169 153 137 255 
0.2712668 2.662521 3.278674 0 0 0 159 141 117 255 
0.4889452 0.2024656 4.487886 0 0 0 138 126 114 255 
-1.234119 -0.02381891 4.528882 0 0 0 81 74 66 255 
-1.495612 -0.07800147 4.552453 0 0 0 140 128 112 255 
1.256112 -0.2250667 4.858429 0 0 0 93 86 78 255 
1.55597 0.9468029 3.970679 0 0 0 116 106 96 255 
0.880055 0.5300241 4.248053 0 0 0 151 134 118 255 
-0.6229165 -0.1749844 4.685121 0 0 0 147 136 116 255 
-1.191295 0.003709036 4.507072 0 0 0 155 146 137 255 
-1.335338 -0.1542356 4.638386 0 0 0 159 147 133 255 
0.04459023 -0.2966776 4.70536 0 0 0 140 127 111 255 
-1.233101 -0.2493225 4.775949 0 0 0 130 121 112 255 
-0.4508568 -0.4886101 4.855639 0 0 0 163 157 141 255 
-0.3747993 2.329643 3.658626 0 0 0 151 142 134 255 
-1.147085 -0.04937466 4.576733 0 0 0 141 132 117 255 
-1.386508 1.203884 3.834378 0 0 0 145 130 112 255 
-0.6486136 1.193166 3.967452 0 0 0 153 144 127 255 
-0.2166009 1.167187 4.05802 0 0 0 139 131 120 255 
0.837159 0.7196835 4.182263 0 0 0 167 159 148 255 
-1.505227 0.6141942 4.177789 0 0 0 126 114 98 255 
-1.335338 -0.1542356 4.638386 0 0 0 159 147 133 255 
-1.636321 0.5834359 4.187173 0 0 0 162 154 143 255 
-0.6175952 2.425952 3.330839 0 0 0 218 209 200 255 
-1.974149 1.524522 3.616106 0 0 0 167 155 141 255 
-1.090659 0.008201567 4.528073 0 0 0 110 97 88 255 
-2.21644 3.183696 2.622537 0 0 0 0 0 0 255 
0.8067743 3.313013 2.557861 0 0 0 220 217 212 255 
-1.56787 4.526518 1.660304 0 0 0 153 151 152 255 
-2.461292 5.30584 1.26535 0 0 0 170 166 165 255 
-2.461372 5.412415 1.184593 0 0 0 215 210 207 255 
5.090721 8.000309 -0.102395 0 0 0 157 150 140 255 
-0.4207554 -0.1327835 4.620703 0 0 0 129 117 105 255 
0.2011294 2.869589 3.068832 0 0 0 0 0 0 255 
-1.282532 -0.09862272 4.592557 0 0 0 125 113 97 255 
-1.478206 -0.1451412 4.620426 0 0 0 166 157 142 255 
-1.315796 -0.04144748 4.532221 0 0 0 132 120 105 255 
-1.480139 -0.06095622 4.5327 0 0 0 98 86 74 255 
-1.15547 -0.06418743 4.594299 0 0 0 86 76 64 255 
-1.467895 -0.08573617 4.55662 0 0 0 115 103 87 255 
-1.120963 -0.08822984 4.629982 0 0 0 64 54 44 255 
-0.8210947 -0.12075 4.635217 0 0 0 140 129 111 255 
0.7058897 -0.09890957 4.780416 0 0 0 80 72 62 255 
-0.211028 -0.204262 4.654798 0 0 0 107 91 78 255 
0.01148966 -0.3049736 4.716429 0 0 0 148 136 121 255 
-2.621756 5.41222 1.129059 0 0 0 210 205 202 255 
-2.56388 5.409435 1.155413 0 0 0 156 151 148 255 
1.767075 5.120601 1.518458 0 0 0 215 210 204 255 
-1.121317 -0.08753911 4.630366 0 0 0 64 54 44 255 
1.223583 -0.3019988 4.881911 0 0 0 141 132 125 255 
-1.272094 4.210154 1.975732 0 0 0 0 0 0 255 
-1.504446 3.254016 2.553203 0 0 0 186 181 178 255 
-1.112815 1.540674 3.724538 0 0 0 162 154 143 255 
-0.4484687 1.388571 3.895883 0 0 0 154 146 135 255 
-1.406179 1.090494 3.921136 0 0 0 206 199 193 255 
1.089911 0.8849015 4.087788 0 0 0 136 120 104 255 
-1.702386 0.8299305 4.009615 0 0 0 180 170 159 255 
1.82017 0.7036856 4.286848 0 0 0 99 89 79 255 
1.911284 0.6641921 4.29012 0 0 0 66 57 48 255 
-0.7738139 0.6305527 4.237027 0 0 0 121 111 101 255 
1.788164 0.6226168 4.399014 0 0 0 168 161 153 255 
-0.6826473 0.5583279 4.304871 0 0 0 119 107 91 255 
1.00237 0.3876363 4.330271 0 0 0 121 108 99 255 
0.760357 0.2038185 4.475604 0 0 0 164 151 134 255 
-0.1496001 0.2707378 4.482968 0 0 0 137 121 105 255 
0.5252452 0.1409163 4.5518 0 0 0 111 98 85 255 
0.04156882 0.07679024 4.621045 0 0 0 126 116 104 255 
-2.174775 3.365125 2.48649 0 0 0 180 173 165 255 
2.163178 1.855387 3.458466 0 0 0 190 174 148 255 
-0.525041 0.4190347 4.431967 0 0 0 110 98 84 255 
-1.183801 -0.03173586 4.547591 0 0 0 93 85 74 255 
0.6503944 0.2903329 4.396238 0 0 0 130 117 101 255 
1.411823 0.643739 4.229187 0 0 0 158 148 138 255 
1.358737 0.5421596 4.29411 0 0 0 194 186 175 255 
0.7152486 0.4856705 4.244616 0 0 0 178 170 157 255 
-0.4615764 0.5566748 4.252868 0 0 0 97 88 79 255 
-1.05444 0.6008235 4.240786 0 0 0 126 114 100 255 
-1.71526 0.5649818 4.200974 0 0 0 196 188 177 255 
1.783528 0.6037658 4.416984 0 0 0 143 136 128 255 
-1.516597 0.5345478 4.243844 0 0 0 142 132 122 255 
-1.26286 0.5544189 4.27393 0 0 0 115 105 95 255 
1.443481 0.3386798 4.365704 0 0 0 180 169 151 255 
-1.299528 0.5123318 4.299199 0 0 0 116 106 96 255 
0.6638196 0.2582741 4.429365 0 0 0 154 140 127 255 
-0.7112396 3.847454 2.265229 0 0 0 188 178 169 255 
-1.08901 0.3937773 4.404373 0 0 0 196 190 178 255 
-1.156209 0.3785725 4.413415 0 0 0 188 180 167 255 
-0.03043247 0.1882501 4.541475 0 0 0 114 105 99 255 
0.3273824 0.153738 4.547731 0 0 0 145 129 113 255 
0.373829 0.1320983 4.566352 0 0 0 153 141 127 255 
0.8462983 0.07428883 4.624876 0 0 0 104 92 78 255 
0.004431651 0.1060092 4.595413 0 0 0 165 158 142 255 
2.513491 4.611803 1.753119 0 0 0 208 196 182 255 
-0.728775 -0.01148728 4.54026 0 0 0 124 116 105 255 
0.2651683 0.03577963 4.654799 0 0 0 181 172 155 255 
1.331788 -0.02799871 4.704533 0 0 0 153 138 119 255 
0.07804813 0.01798731 4.66369 0 0 0 183 177 163 255 
3.08084 0.7495447 4.133151 0 0 0 170 154 131 255 
-1.283004 -0.04817422 4.541499 0 0 0 147 135 121 255 
-0.8685603 -0.0615588 4.582775 0 0 0 144 133 113 255 
-1.141832 -0.05813569 4.568379 0 0 0 142 133 118 255 
-1.312116 -0.04439217 4.568402 0 0 0 135 123 109 255 
-1.472961 -0.07170821 4.545045 0 0 0 147 138 121 255 
-0.8653231 -0.07297311 4.593846 0 0 0 110 98 87 255 
-1.24388 -0.05192024 4.591625 0 0 0 129 117 103 255 
-0.5632987 -0.1235179 4.619192 0 0 0 108 99 85 255 
-0.7425857 -0.1196046 4.633365 0 0 0 128 119 104 255 
-1.152513 -0.09967197 4.61692 0 0 0 131 122 107 255 
-1.350734 -0.1575072 4.648932 0 0 0 121 109 93 255 
0.3386335 -0.2874125 4.779655 0 0 0 174 164 152 255 
0.8462983 0.07428883 4.624876 0 0 0 104 92 78 255 
-0.03025786 0.1883437 4.541823 0 0 0 114 105 99 255 
0.09349901 0.2481408 4.471423 0 0 0 149 140 123 255 
-1.026625 0.7501503 4.094926 0 0 0 147 139 128 255 
-1.113567 0.7775062 4.058922 0 0 0 101 92 85 255 
1.597863 0.7790545 4.165696 0 0 0 140 126 113 255 
-1.721244 1.557815 3.614884 0 0 0 199 193 183 255 
0.5809966 2.111633 3.733457 0 0 0 195 186 177 255 
1.211378 2.495814 3.174565 0 0 0 195 185 173 255 
2.386636 3.708529 2.26546 0 0 0 189 182 174 255 
-1.589641 0.1483751 4.29238 0 0 0 0 0 0 255 
-2.045131 0.9364287 3.924775 0 0 0 146 129 113 255 
0.1275896 2.493757 3.41223 0 0 0 166 157 147 255 
1.911801 1.320188 3.802272 0 0 0 178 166 150 255 
-0.6970481 4.702703 1.479934 0 0 0 211 204 198 255 
-1.411269 4.801295 1.470251 0 0 0 180 164 151 255 
-2.266191 4.423021 1.759466 0 0 0 195 187 184 255 
-0.9206427 4.115983 2.100781 0 0 0 192 189 181 255 
-1.416515 3.576579 2.422694 0 0 0 185 180 176 255 
3.024065 3.106256 2.786909 0 0 0 185 170 149 255 
1.877361 3.072928 2.741785 0 0 0 171 163 152 255 
1.21116 2.494225 3.174657 0 0 0 195 185 173 255 
-0.5337775 2.484164 3.316315 0 0 0 180 169 157 255 
1.315504 1.605288 3.763622 0 0 0 162 153 144 255 
2.102772 1.355602 3.887844 0 0 0 180 171 162 255 
0.9664575 1.107816 4.013739 0 0 0 191 181 171 255 
0.1821352 3.305282 2.547792 0 0 0 111 102 97 255 
-1.146392 0.8437647 4.002286 0 0 0 112 107 103 255 
1.366429 0.7512203 4.142741 0 0 0 165 152 136 255 
0.042371 2.045651 3.85088 0 0 0 63 33 39 255 
1.187558 3.172563 2.700143 0 0 0 200 193 183 255 
4.000703 6.737752 0.5877655 0 0 0 150 143 133 255 
2.661639 5.304574 1.183133 0 0 0 171 166 160 255 
-1.520954 3.345832 2.473998 0 0 0 201 197 194 255 
-0.7240263 4.736635 1.444079 0 0 0 184 179 176 255 
-2.030798 4.234699 1.914021 0 0 0 171 164 158 255 
-1.173109 0.01035369 4.513 0 0 0 98 89 81 255 
1.147977 3.162298 2.683747 0 0 0 0 0 0 255 
-0.835969 -0.06401159 4.59012 0 0 0 143 131 117 255 
-0.6931626 -0.1042944 4.621185 0 0 0 112 100 88 255 
1.769517 0.6311666 4.388447 0 0 0 123 112 94 255 
-1.489005 -0.095451 4.570996 0 0 0 122 115 97 255 
-1.326212 -0.09826765 4.587309 0 0 0 85 71 58 255 
-1.171182 -0.07705035 4.621067 0 0 0 96 87 72 255 
-1.350038 -0.1045634 4.594396 0 0 0 99 85 72 255 
1.041764 -0.06965367 4.799123 0 0 0 41 36 30 255 
-1.384589 -0.1263969 4.607083 0 0 0 119 106 90 255 
-1.244257 -0.1491057 4.655407 0 0 0 146 133 117 255 
1.152311 -0.2480646 4.879435 0 0 0 160 150 138 255 
0.8823218 2.62442 3.077095 0 0 0 163 156 148 255 
1.727701 3.624555 2.365874 0 0 0 215 210 206 255 
-1.571068 3.66492 2.341408 0 0 0 0 0 0 255 
2.630805 2.389398 3.142937 0 0 0 168 160 149 255 
-2.220852 2.298878 3.032852 0 0 0 0 0 0 255 
1.251211 2.38744 3.353783 0 0 0 101 100 98 255 
1.564275 1.74475 3.582415 0 0 0 195 187 176 255 
-1.156683 1.614754 3.661888 0 0 0 141 129 113 255 
2.253119 1.258152 3.913371 0 0 0 199 190 177 255 
-0.2650077 1.359217 3.903757 0 0 0 125 118 111 255 
-0.2096988 1.23965 3.991822 0 0 0 175 162 146 255 
1.381392 0.9485934 3.993955 0 0 0 169 160 143 255 
1.482883 0.9409523 4.002298 0 0 0 175 163 147 255 
-1.246512 -0.08519218 4.585185 0 0 0 96 82 69 255 
0.930943 1.083885 4.041965 0 0 0 188 179 172 255 
1.145589 0.9269394 4.041719 0 0 0 133 119 106 255 
-0.8683849 0.7835135 4.091485 0 0 0 143 129 116 255 
-1.725601 0.7347144 4.079021 0 0 0 136 126 114 255 
0.1181569 0.6080888 4.183937 0 0 0 144 135 118 255 
1.858188 0.679937 4.317857 0 0 0 99 90 83 255 
-0.4779701 0.5015691 4.308775 0 0 0 114 101 84 255 
0.566837 2.639406 3.188865 0 0 0 217 202 181 255 
-0.5768098 0.5172319 4.333837 0 0 0 134 122 107 255 
0.6536513 0.3398038 4.348925 0 0 0 136 123 107 255 
-1.19936 0.4819136 4.327551 0 0 0 176 170 158 255 
-1.297419 0.4652834 4.337969 0 0 0 166 156 144 255 
-1.325421 -0.05069722 4.537102 0 0 0 100 88 76 255 
-1.064773 0.3971482 4.40179 0 0 0 183 175 164 255 
0.6657236 0.2272768 4.453933 0 0 0 105 91 80 255 
-0.06442232 0.289333 4.460757 0 0 0 135 120 101 255 
-0.2362491 0.3017218 4.467311 0 0 0 165 154 136 255 
0.2111284 0.2362729 4.468036 0 0 0 125 113 94 255 
0.5220404 0.196724 4.492436 0 0 0 110 94 78 255 
0.8354836 0.1274327 4.557502 0 0 0 143 131 117 255 
-0.8689349 -0.03051271 4.563277 0 0 0 105 95 83 255 
-0.7862082 -0.037015 4.567629 0 0 0 172 163 148 255 
-1.151598 -0.02237031 4.55274 0 0 0 91 82 73 255 
1.198154 0.6375675 4.265388 0 0 0 191 182 173 255 
1.528889 0.7807732 4.170899 0 0 0 163 151 135 255 
1.859078 1.418209 3.811665 0 0 0 170 163 153 255 
-1.891976 1.547247 3.611126 0 0 0 174 167 159 255 
-2.030798 4.234699 1.914021 0 0 0 171 164 158 255 
-1.433761 -0.06013389 4.530914 0 0 0 104 91 75 255 
1.334507 4.361142 1.737777 0 0 0 194 189 183 255 
-0.9882675 0.5409555 4.300183 0 0 0 117 108 93 255 
-1.538292 1.160643 3.853041 0 0 0 180 171 154 255 
-1.181991 1.110674 3.90775 0 0 0 177 169 158 255 
-0.09170352 1.174381 4.047795 0 0 0 121 109 95 255 
1.564644 3.428553 2.405314 0 0 0 225 218 210 255 
-0.9628668 0.8096769 4.054187 0 0 0 114 105 98 255 
-1.700351 0.7228699 4.088918 0 0 0 172 164 151 255 
-1.707174 0.713989 4.098287 0 0 0 139 129 117 255 
1.17285 0.6621021 4.258327 0 0 0 135 125 113 255 
1.405952 0.6037256 4.255308 0 0 0 122 113 104 255 
1.699774 0.7023494 4.315023 0 0 0 71 62 54 255 
0.4080405 -1.197542 5.353844 0 0 0 184 177 159 255 
-1.282131 0.6503499 4.153041 0 0 0 114 104 92 255 
-1.217175 0.649025 4.165822 0 0 0 116 106 96 255 
1.106319 0.2630249 4.409303 0 0 0 89 73 60 255 
-1.236598 0.6314625 4.180263 0 0 0 118 108 98 255 
1.054281 -0.9197398 5.332469 0 0 0 110 96 83 255 
0.201824 0.5213796 4.216344 0 0 0 124 113 102 255 
0.9891651 0.5479226 4.297205 0 0 0 161 152 145 255 
-0.413978 0.5726904 4.232153 0 0 0 112 105 97 255 
-1.468005 0.6016369 4.191581 0 0 0 150 141 126 255 
-1.515872 0.5949003 4.19535 0 0 0 165 153 139 255 
-1.325661 0.5825461 4.234031 0 0 0 146 137 128 255 
-0.6296348 0.5754716 4.278348 0 0 0 100 88 74 255 
1.496045 0.4468125 4.334659 0 0 0 168 158 146 255 
-0.5037898 0.536423 4.283082 0 0 0 138 125 109 255 
0.438459 0.3865651 4.313974 0 0 0 124 111 94 255 
1.080988 0.358447 4.352552 0 0 0 159 149 139 255 
-1.28752 0.5097542 4.307517 0 0 0 104 96 85 255 
1.337569 0.3177353 4.367433 0 0 0 163 154 137 255 
-0.7343285 0.4995839 4.371954 0 0 0 81 74 68 255 
-0.8717654 0.4626483 4.38284 0 0 0 147 144 137 255 
-0.8579123 0.373005 4.44545 0 0 0 155 147 134 255 
-0.6967372 0.3725344 4.470593 0 0 0 69 69 69 255 
-0.7563789 0.3515225 4.478866 0 0 0 172 164 153 255 
-0.295103 0.2824267 4.492147 0 0 0 173 164 149 255 
0.1430021 0.2113722 4.497924 0 0 0 113 104 89 255 
-0.5743336 0.3201665 4.522752 0 0 0 80 72 68 255 
0.2832297 0.1606693 4.53851 0 0 0 111 97 84 255 
0.390201 0.1386802 4.558658 0 0 0 119 105 92 255 
0.5951031 0.111745 4.578842 0 0 0 134 122 106 255 
-1.355705 0.05561319 4.436349 0 0 0 126 112 99 255 
-1.363079 0.05562742 4.443836 0 0 0 170 157 148 255 
1.324343 0.0769833 4.652848 0 0 0 166 155 140 255 
0.155698 0.08554658 4.610723 0 0 0 140 129 115 255 
1.323488 0.04874496 4.674304 0 0 0 194 186 174 255 
1.223242 0.02668153 4.676325 0 0 0 81 72 63 255 
2.714817 3.891285 2.257123 0 0 0 160 143 125 255 
-1.139904 3.957194 2.263163 0 0 0 0 0 0 255 
-1.290889 -0.6910141 4.99603 0 0 0 98 89 74 255 
-2.948719 4.105359 1.860089 0 0 0 227 222 218 255 
-2.508308 4.763203 1.46093 0 0 0 197 192 188 255 
3.618291 4.394355 1.854168 0 0 0 211 208 201 255 
-2.398039 4.463991 1.715833 0 0 0 201 194 188 255 
1.492502 0.7970502 4.146251 0 0 0 128 115 98 255 
-2.277898 4.362472 1.816746 0 0 0 206 199 193 255 
0.771176 0.6186014 4.195436 0 0 0 160 148 134 255 
-2.618579 3.824133 2.035015 0 0 0 163 158 155 255 
1.604016 3.84943 2.208309 0 0 0 172 167 163 255 
-2.323768 3.703022 2.175156 0 0 0 172 167 164 255 
1.111243 3.810823 2.284031 0 0 0 201 196 190 255 
2.171823 3.670751 2.347406 0 0 0 174 167 160 255 
-1.192502 -0.1596337 4.677183 0 0 0 152 140 124 255 
1.577236 0.7631088 4.193439 0 0 0 122 111 97 255 
1.447195 -0.1762584 4.832038 0 0 0 144 136 125 255 
-1.496606 -0.1503952 4.624568 0 0 0 97 86 70 255 
-0.4848678 -0.1467796 4.654554 0 0 0 0 0 0 255 
-1.289527 -0.1036773 4.600842 0 0 0 136 124 108 255 
-1.306785 -0.09616657 4.590752 0 0 0 97 83 70 255 
1.107034 -0.05050617 4.768963 0 0 0 150 142 131 255 
-1.37373 -0.0926642 4.569407 0 0 0 139 129 117 255 
-1.13153 -0.07642367 4.58125 0 0 0 88 78 68 255 
-1.515441 -0.07585587 4.548618 0 0 0 125 114 96 255 
-1.446157 -0.07314068 4.546012 0 0 0 100 91 76 255 
-1.133654 -0.04318212 4.576523 0 0 0 103 93 84 255 
-1.049504 -0.04863114 4.569512 0 0 0 86 79 69 255 
-0.3192826 -0.08478136 4.584072 0 0 0 136 124 110 255 
-1.293563 -0.03961137 4.531883 0 0 0 98 85 69 255 
0.09831861 0.02163262 4.668011 0 0 0 113 104 87 255 
-2.384155 -0.6498442 4.88799 0 0 0 0 0 0 255 
2.286246 3.314308 2.561499 0 0 0 140 136 133 255 
0.06560088 0.3200066 4.404468 0 0 0 154 146 133 255 
-1.726187 3.218147 2.599073 0 0 0 216 211 207 255 
1.435316 3.097019 2.768877 0 0 0 163 156 150 255 
-2.055113 2.996188 2.834245 0 0 0 132 131 129 255 
