ply
format ascii 1.0
comment Created by CloudCompare v2.11 alpha (Anoia)
comment Created 2025/12/9 20:00
obj_info Generated by CloudCompare!
element vertex 1422
property float x
property float y
property float z
property float scalar_Scalar_field
end_header
0.455621 -0.0246585 0.123386 121 
0.455643 -0.0246648 0.124218 124 
0.455772 -0.0246921 0.125033 125 
0.455375 -0.0246156 0.125926 123 
0.455925 -0.0247261 0.126679 127 
0.456055 -0.0247537 0.127494 137 
0.456238 -0.0247918 0.128302 133 
0.456159 -0.0247781 0.129147 133 
0.456344 -0.0248164 0.129954 131 
0.456476 -0.0248445 0.13077 135 
0.457508 -0.0250502 0.131463 138 
0.456321 -0.0248177 0.132457 136 
0.456772 -0.0249086 0.13323 133 
0.456379 -0.024833 0.134114 134 
0.455935 -0.0247473 0.135002 135 
0.456862 -0.0249321 0.135716 127 
0.456155 -0.0247945 0.136636 131 
0.456766 -0.0249171 0.137392 133 
0.455798 -0.0247279 0.13834 144 
0.455149 -0.0246017 0.139246 141 
0.455917 -0.0247552 0.139985 144 
0.455478 -0.0246705 0.140864 145 
0.456038 -0.0247829 0.141629 148 
0.456126 -0.0248021 0.142447 152 
0.455217 -0.0246246 0.143375 156 
0.455358 -0.0246544 0.144186 157 
0.455133 -0.0246119 0.145037 154 
0.454753 -0.0245386 0.145902 166 
0.455209 -0.0246306 0.14668 156 
0.454829 -0.0245575 0.147544 160 
0.454973 -0.0245878 0.148354 161 
0.455065 -0.0246079 0.14917 164 
0.454323 -0.0244632 0.150064 162 
0.454051 -0.0244114 0.150912 158 
0.453469 -0.0242984 0.151786 163 
0.453719 -0.0243496 0.152585 166 
0.453865 -0.0243804 0.153394 174 
0.453493 -0.0243088 0.154246 177 
0.452295 -0.0240741 0.155165 173 
0.452752 -0.0241663 0.155946 174 
0.452694 -0.0241566 0.156769 181 
0.452223 -0.0240655 0.157624 178 
0.452734 -0.0241682 0.158403 172 
0.452625 -0.0241487 0.159228 171 
0.451333 -0.0238954 0.160137 174 
0.450971 -0.0238256 0.160977 176 
0.450916 -0.0238168 0.161795 178 
0.450555 -0.0237474 0.162632 175 
0.450758 -0.0237893 0.163433 178 
0.451064 -0.0238516 0.164227 175 
0.450602 -0.0237622 0.165068 177 
0.449836 -0.0236128 0.165925 175 
0.44999 -0.0236449 0.166727 173 
0.449583 -0.0235665 0.167561 179 
0.44933 -0.0235184 0.168384 177 
0.449333 -0.0235207 0.169194 180 
0.449132 -0.023483 0.170013 186 
0.449186 -0.0234955 0.170819 181 
0.448936 -0.023448 0.17164 183 
0.447424 -0.0231511 0.172512 182 
0.447178 -0.0231043 0.173328 182 
0.447485 -0.0231669 0.174121 180 
0.446888 -0.0230507 0.174949 180 
0.446594 -0.0229944 0.175763 183 
0.446902 -0.0230572 0.176557 184 
0.44676 -0.0230309 0.177365 189 
0.447825 -0.0232433 0.178138 185 
0.447632 -0.0232071 0.178949 186 
0.446235 -0.0229328 0.17979 187 
0.446145 -0.0229169 0.180595 186 
0.445557 -0.0228024 0.18141 187 
0.444522 -0.0225998 0.182232 188 
0.444485 -0.0225942 0.183032 184 
0.444994 -0.0226967 0.183823 186 
0.444411 -0.0225833 0.184631 182 
0.443236 -0.022353 0.185445 177 
0.44325 -0.0223576 0.186241 175 
0.443611 -0.0224307 0.187035 176 
0.442836 -0.0222794 0.187838 172 
0.44384 -0.0224796 0.188629 169 
0.44213 -0.0221435 0.189431 173 
0.441755 -0.0220711 0.190226 173 
0.44138 -0.0219989 0.19102 170 
0.441056 -0.0219366 0.191812 172 
0.440586 -0.0218456 0.192603 169 
0.440702 -0.0218704 0.193395 169 
0.440771 -0.0218857 0.194188 170 
0.440742 -0.0218818 0.19498 171 
0.440762 -0.0218876 0.195772 169 
0.441614 -0.0220579 0.196576 174 
0.441098 -0.0219576 0.197362 175 
0.441364 -0.0220122 0.19816 173 
0.441387 -0.0220185 0.198953 178 
0.441655 -0.0220733 0.199753 181 
0.441924 -0.0221284 0.200553 180 
0.441851 -0.0221156 0.201346 177 
0.441827 -0.0221127 0.20214 180 
0.441803 -0.0221099 0.202934 178 
0.441682 -0.0220878 0.203725 173 
0.442052 -0.0221628 0.204532 172 
0.441981 -0.0221506 0.205325 175 
0.44255 -0.0222649 0.206141 174 
0.442037 -0.0221654 0.206917 175 
0.442312 -0.0222215 0.207724 180 
0.442243 -0.0222097 0.208517 177 
0.443555 -0.0224711 0.209372 179 
0.442451 -0.0222546 0.210119 177 
0.442237 -0.0222139 0.210906 180 
0.442416 -0.0222512 0.211711 173 
0.44299 -0.0223667 0.212538 183 
0.44327 -0.0224239 0.213351 181 
0.443057 -0.0223835 0.214138 180 
0.44423 -0.0226173 0.215005 182 
0.444215 -0.0226163 0.215805 182 
0.444399 -0.0226546 0.216617 181 
0.444485 -0.0226734 0.217424 179 
0.444572 -0.0226924 0.218232 180 
0.444708 -0.0227213 0.219043 179 
0.444647 -0.0227109 0.219842 181 
0.444934 -0.0227696 0.220665 174 
0.444824 -0.0227496 0.22146 180 
0.445013 -0.0227889 0.222278 183 
0.445153 -0.0228184 0.223092 184 
0.445493 -0.0228876 0.223923 180 
0.447342 -0.0232553 0.224877 181 
0.447082 -0.0232057 0.225665 181 
0.447478 -0.0232859 0.226507 182 
0.447068 -0.0232066 0.227281 184 
0.447717 -0.0233371 0.228147 186 
0.447106 -0.023218 0.228903 184 
0.447454 -0.0232887 0.229745 183 
0.447197 -0.0232397 0.230531 187 
0.447294 -0.0232608 0.231351 184 
0.447543 -0.0233119 0.232186 179 
0.447945 -0.0233933 0.233037 180 
0.448095 -0.0234248 0.233865 181 
0.449007 -0.0236072 0.234771 183 
0.450333 -0.0238715 0.235726 180 
0.449668 -0.0237418 0.236472 182 
0.449413 -0.0236932 0.237261 185 
0.449618 -0.0237357 0.238101 184 
0.450489 -0.0239099 0.239016 183 
0.450593 -0.0239325 0.239847 180 
0.450699 -0.0239552 0.240679 180 
0.450445 -0.023907 0.241469 179 
0.450911 -0.0240011 0.242345 178 
0.45107 -0.0240343 0.243185 179 
0.451332 -0.0240882 0.24404 174 
0.451183 -0.0240606 0.244844 172 
0.451447 -0.0241147 0.2457 174 
0.452539 -0.0243327 0.246665 174 
0.45208 -0.0242439 0.24743 178 
0.452554 -0.0243396 0.248319 175 
0.452563 -0.0243432 0.249147 175 
0.452676 -0.0243675 0.249989 174 
0.453361 -0.0245051 0.250912 168 
0.454154 -0.0246639 0.251853 178 
0.45406 -0.0246474 0.252671 173 
0.454752 -0.0247863 0.253602 172 
0.454712 -0.0247803 0.254429 174 
0.454778 -0.0247952 0.255272 173 
0.455632 -0.0249663 0.256235 168 
0.455962 -0.0250336 0.257121 171 
0.456506 -0.0251431 0.258041 167 
0.456468 -0.0251377 0.258874 165 
0.456643 -0.0251743 0.25974 170 
0.457296 -0.0253055 0.260684 175 
0.456731 -0.0251954 0.261433 173 
0.457332 -0.0253165 0.262372 173 
0.45799 -0.0254486 0.263323 168 
0.457743 -0.0254017 0.264125 170 
0.458136 -0.0254815 0.265035 163 
0.459387 -0.0257313 0.266094 166 
0.459355 -0.0257269 0.266936 168 
0.459324 -0.0257226 0.267778 164 
0.459615 -0.0257823 0.268678 169 
0.458888 -0.0256401 0.269397 169 
0.459555 -0.0257743 0.270366 165 
0.459472 -0.0257599 0.271201 165 
0.459659 -0.0257988 0.272086 169 
0.45904 -0.0256782 0.272821 171 
0.460142 -0.0258984 0.27388 168 
0.459308 -0.0257351 0.274573 168 
0.460197 -0.0259132 0.275596 167 
0.458719 -0.0256224 0.276162 176 
0.459446 -0.0257683 0.277157 168 
0.458723 -0.0256271 0.277866 169 
0.458538 -0.0255924 0.278682 173 
0.458193 -0.025526 0.279464 168 
0.458277 -0.0255447 0.280334 168 
0.458791 -0.0256484 0.281294 165 
0.457965 -0.0254868 0.281976 171 
0.45773 -0.0254421 0.28278 167 
0.45803 -0.0255035 0.283697 169 
0.457315 -0.0253638 0.284399 166 
0.456869 -0.0252773 0.285156 173 
0.456424 -0.0251911 0.285912 175 
0.455715 -0.0250525 0.286609 177 
0.455643 -0.0250403 0.287446 178 
0.455626 -0.0250387 0.288294 178 
0.455661 -0.0250478 0.289156 178 
0.455009 -0.0249205 0.289861 178 
0.454148 -0.0247518 0.290516 181 
0.454238 -0.0247715 0.291388 178 
0.453485 -0.0246244 0.292065 172 
0.452893 -0.0245089 0.292777 173 
0.452251 -0.0243835 0.293475 173 
0.45135 -0.0242069 0.29411 166 
0.451388 -0.0242164 0.294968 166 
0.451114 -0.0241641 0.295751 168 
0.451205 -0.0241841 0.296624 168 
0.449999 -0.0239469 0.297176 166 
0.449625 -0.0238747 0.297931 162 
0.450027 -0.0239564 0.298881 160 
0.44955 -0.0238638 0.29961 164 
0.449953 -0.0239456 0.300563 158 
0.449943 -0.0239456 0.301412 164 
0.450504 -0.0240587 0.302409 161 
0.450963 -0.0241517 0.303383 159 
0.450954 -0.0241519 0.304236 151 
0.449958 -0.0239564 0.304827 150 
0.450106 -0.0239877 0.305721 145 
0.450358 -0.0240397 0.306644 145 
0.450299 -0.02403 0.307484 147 
0.449929 -0.0239586 0.30824 148 
0.45086 -0.024145 0.309353 145 
0.450906 -0.0241563 0.310225 136 
0.450849 -0.0241469 0.311069 142 
0.450584 -0.0240963 0.311855 136 
0.451102 -0.024201 0.312863 139 
0.450681 -0.0241194 0.313605 139 
0.4512 -0.0242244 0.314616 136 
0.451197 -0.0242259 0.315479 133 
0.450829 -0.0241548 0.316236 136 
0.450671 -0.0241254 0.317054 132 
0.451349 -0.024262 0.318119 135 
0.451558 -0.0243054 0.319048 131 
0.450982 -0.024193 0.319744 134 
0.451611 -0.0243198 0.320801 135 
0.452453 -0.024489 0.321926 131 
0.452191 -0.024439 0.322717 135 
0.452245 -0.0244518 0.323606 132 
0.452195 -0.0244437 0.324463 134 
0.453572 -0.024719 0.325766 137 
0.453629 -0.0247323 0.32666 134 
0.452996 -0.0246088 0.327338 138 
0.452683 -0.0245487 0.328116 132 
0.45327 -0.0246672 0.32918 137 
0.454446 -0.0249024 0.330438 142 
0.453334 -0.0246839 0.33096 143 
0.453659 -0.0247503 0.331946 129 
0.454144 -0.0248487 0.332987 130 
0.454365 -0.0248945 0.333944 134 
0.454372 -0.0248981 0.334831 133 
0.453528 -0.0247324 0.335435 123 
0.453802 -0.0247889 0.336412 122 
0.454505 -0.0249304 0.337535 112 
0.45505 -0.0250406 0.338609 118 
0.454899 -0.0250127 0.339447 118 
0.454909 -0.0250168 0.340341 110 
0.455511 -0.0251383 0.34144 103 
0.455199 -0.0250786 0.342225 98 
0.455803 -0.0252004 0.34333 101 
0.456085 -0.0252585 0.344325 106 
0.45572 -0.0251881 0.345092 110 
0.455464 -0.0251393 0.345898 116 
0.455316 -0.0251119 0.346742 114 
0.455707 -0.0251916 0.34778 115 
0.455829 -0.025218 0.348724 118 
0.456114 -0.0252766 0.349728 116 
0.455589 -0.0251745 0.350437 106 
0.456416 -0.0253407 0.351643 110 
0.456324 -0.0253245 0.352512 109 
0.456286 -0.0253191 0.353403 109 
0.456195 -0.025303 0.354273 114 
0.455995 -0.0252655 0.355104 110 
0.456176 -0.0253034 0.356078 110 
0.455868 -0.0252445 0.356869 111 
0.455887 -0.0252502 0.357783 113 
0.456014 -0.0252776 0.358741 114 
0.456196 -0.0253159 0.359721 117 
0.45676 -0.0254299 0.360851 118 
0.456182 -0.0253172 0.361537 114 
0.455443 -0.0251725 0.362159 120 
0.455734 -0.0252325 0.363186 119 
0.455701 -0.025228 0.364085 120 
0.455885 -0.0252667 0.365073 113 
0.455148 -0.0251223 0.365692 110 
0.455658 -0.0252258 0.366812 108 
0.455355 -0.0251677 0.367605 110 
0.455975 -0.025293 0.368775 105 
0.454696 -0.025041 0.369169 111 
0.455316 -0.0251663 0.370342 113 
0.454635 -0.0250331 0.370979 112 
0.453956 -0.0249003 0.371614 111 
0.453926 -0.0248965 0.37252 109 
0.454383 -0.0249894 0.373631 109 
0.453813 -0.0248783 0.374311 114 
0.454054 -0.0249284 0.375334 118 
0.454188 -0.0249571 0.376312 119 
0.452972 -0.0247176 0.376714 112 
0.452299 -0.0245859 0.377344 118 
0.452163 -0.0245612 0.378207 115 
0.451868 -0.0245045 0.378999 112 
0.451519 -0.0244373 0.379768 112 
0.451492 -0.0244341 0.380678 113 
0.450343 -0.0242078 0.381093 115 
0.450369 -0.0242153 0.382026 111 
0.44896 -0.0239374 0.38232 104 
0.44904 -0.0239554 0.383276 103 
0.449227 -0.0239946 0.384281 101 
0.448936 -0.0239389 0.385072 105 
0.448275 -0.0238097 0.385694 121 
0.448621 -0.0238805 0.386775 102 
0.448384 -0.0238356 0.38759 101 
0.446776 -0.0235181 0.387773 97 
0.442926 -0.0253014 -0.015327 13 
0.436066 -0.0238989 -0.011091 12 
0.43824 -0.024346 -0.011234 9 
0.439517 -0.0246097 -0.01094 10 
0.43902 -0.02451 -0.00979403 9 
0.435862 -0.0238653 -0.00738805 8 
0.440772 -0.0248729 -0.00881003 12 
0.438194 -0.0243471 -0.00668903 10 
0.441818 -0.0250912 -0.00748404 9 
0.436761 -0.0240578 -0.00421703 8 
0.43271 -0.0232303 -0.00144004 8 
0.436338 -0.0239753 -0.00222804 9 
0.440638 -0.024858 -0.00331204 13 
0.43928 -0.024582 -0.00178704 12 
0.43899 -0.0245247 -0.000756046 8 
0.440779 -0.0248932 -0.000670037 7 
0.438968 -0.0245242 0.00104796 14 
0.448637 -0.0265067 -0.00240204 13 
0.45168 -0.0271321 -0.00284804 11 
0.440938 -0.0249339 0.00285597 18 
0.443049 -0.0253685 0.00281695 16 
0.44209 -0.025174 0.00414097 15 
0.446757 -0.0261322 0.00299096 15 
0.444278 -0.0256265 0.00498096 16 
0.442136 -0.0251898 0.00681196 16 
0.444 -0.0255735 0.00690196 19 
0.443193 -0.0254103 0.00814796 22 
0.443517 -0.0254789 0.00890496 16 
0.445599 -0.0259074 0.00891396 21 
0.444839 -0.0257537 0.010135 20 
0.448451 -0.0264958 0.00950796 20 
0.446636 -0.0261262 0.011174 22 
0.447802 -0.0263671 0.011586 20 
0.446931 -0.0261908 0.012848 18 
0.446637 -0.0261325 0.013868 21 
0.449114 -0.0266421 0.013745 15 
0.446362 -0.0260802 0.015774 18 
0.446692 -0.02615 0.016533 19 
0.445881 -0.0259859 0.017756 27 
0.447877 -0.0263969 0.017843 24 
0.448577 -0.0265424 0.018458 26 
0.450121 -0.0268609 0.018737 21 
0.449246 -0.0266836 0.019983 28 
0.449844 -0.0268084 0.020642 28 
0.448291 -0.0264921 0.022148 28 
0.448103 -0.0264557 0.023114 28 
0.449224 -0.0266873 0.023569 28 
0.451142 -0.0270825 0.02372 25 
0.449529 -0.0267541 0.025236 25 
0.449237 -0.0266962 0.026239 23 
0.448162 -0.0264779 0.027538 25 
0.449335 -0.0267204 0.027981 23 
0.449096 -0.0266736 0.02896 28 
0.449329 -0.0267234 0.02976 24 
0.44857 -0.0265696 0.03093 27 
0.449902 -0.0268448 0.031322 30 
0.449089 -0.0266802 0.032508 28 
0.4475 -0.0263565 0.033974 29 
0.447163 -0.0262895 0.034978 31 
0.446879 -0.0262332 0.0359589 32 
0.446235 -0.0261032 0.037069 34 
0.445902 -0.0260369 0.038064 34 
0.444955 -0.0258448 0.0392749 35 
0.444574 -0.0257687 0.040281 37 
0.444705 -0.0257975 0.041106 41 
0.444836 -0.0258263 0.041929 42 
0.444763 -0.0258133 0.042824 43 
0.44276 -0.0254047 0.044385 44 
0.443043 -0.0254647 0.045151 40 
0.442719 -0.0254003 0.046125 43 
0.442145 -0.0252845 0.047182 45 
0.441221 -0.0250971 0.048354 48 
0.441454 -0.0251467 0.049133 46 
0.441385 -0.0251347 0.0500129 42 
0.440318 -0.0249177 0.051224 47 
0.440151 -0.0248855 0.052132 47 
0.439836 -0.0248228 0.053088 48 
0.440917 -0.0250464 0.053588 49 
0.440901 -0.0250451 0.054446 54 
0.440087 -0.0248803 0.055559 52 
0.439031 -0.0246655 0.0567469 56 
0.438325 -0.0245227 0.057818 51 
0.438706 -0.0246028 0.058542 51 
0.438003 -0.0244605 0.059608 51 
0.436764 -0.0242083 0.060836 46 
0.436215 -0.0240976 0.061846 54 
0.436545 -0.0241672 0.062583 51 
0.43629 -0.0241169 0.063499 54 
0.436865 -0.0242367 0.064161 59 
0.43661 -0.0241864 0.065076 63 
0.436308 -0.0241263 0.066002 59 
0.436152 -0.0240963 0.066884 57 
0.437706 -0.024417 0.067259 55 
0.4356 -0.0239869 0.068713 56 
0.436857 -0.0242466 0.069179 60 
0.436508 -0.0241769 0.070114 60 
0.436597 -0.0241972 0.070921 64 
0.437371 -0.0243578 0.071532 61 
0.437413 -0.0243683 0.072353 62 
0.436918 -0.0242687 0.073325 60 
0.435406 -0.0239605 0.074577 66 
0.436322 -0.0241503 0.075151 64 
0.437584 -0.0244111 0.075632 67 
0.436021 -0.0240923 0.076889 64 
0.437281 -0.0243528 0.077374 60 
0.435916 -0.0240746 0.07857 65 
0.436543 -0.0242052 0.079228 64 
0.437026 -0.0243062 0.079926 65 
0.437559 -0.0244176 0.080611 67 
0.437557 -0.0244189 0.081439 65 
0.437555 -0.0244204 0.082266 64 
0.437455 -0.0244019 0.083117 71 
0.436967 -0.0243036 0.084066 73 
0.436967 -0.0243054 0.08489 68 
0.436529 -0.0242175 0.085823 70 
0.437161 -0.024349 0.086487 67 
0.437745 -0.0244709 0.087164 71 
0.438039 -0.0245331 0.087914 76 
0.438626 -0.0246556 0.088594 75 
0.439117 -0.0247583 0.089298 75 
0.439168 -0.0247707 0.09011 80 
0.438877 -0.0247127 0.091003 80 
0.439615 -0.0248661 0.0916508 79 
0.439962 -0.0249393 0.0923927 79 
0.440951 -0.0251444 0.0929864 80 
0.44056 -0.0250659 0.0939012 81 
0.440712 -0.0250991 0.09469 85 
0.441756 -0.0253152 0.0952772 93 
0.441414 -0.0252469 0.0961786 89 
0.441469 -0.0252601 0.09699 94 
0.441574 -0.0252835 0.0977901 95 
0.442224 -0.0254191 0.0984709 103 
0.441884 -0.025351 0.0993683 100 
0.442437 -0.0254665 0.100072 99 
0.442942 -0.0255721 0.100788 97 
0.444449 -0.0258835 0.101294 97 
0.444056 -0.0258048 0.102202 92 
0.443566 -0.0257059 0.103129 93 
0.444425 -0.0258843 0.103776 94 
0.444385 -0.0258779 0.104609 94 
0.444896 -0.0259849 0.10533 94 
0.445409 -0.0260922 0.106052 97 
0.444717 -0.0259519 0.107014 97 
0.445432 -0.0261007 0.107698 98 
0.445948 -0.0262085 0.108423 99 
0.447326 -0.0264935 0.108984 101 
0.448509 -0.0267384 0.109587 104 
0.448879 -0.0268164 0.110346 98 
0.44874 -0.0267897 0.111201 106 
0.448754 -0.0267945 0.112027 103 
0.449434 -0.026936 0.112732 104 
0.449705 -0.0269936 0.113512 108 
0.449413 -0.0269356 0.114393 120 
0.44943 -0.0269409 0.115218 116 
0.450215 -0.0271043 0.115909 107 
0.450644 -0.0271942 0.116664 111 
0.450816 -0.0272315 0.117464 110 
0.451298 -0.0273325 0.118212 108 
0.450956 -0.0272641 0.119099 115 
0.451801 -0.0274396 0.119789 113 
0.451718 -0.0274244 0.120632 115 
0.451841 -0.0274517 0.121442 118 
0.451862 -0.0274579 0.122268 115 
0.452713 -0.0276346 0.122963 119 
0.452683 -0.0276303 0.123798 117 
0.452757 -0.0276475 0.124617 115 
0.4533 -0.027761 0.125364 121 
0.453271 -0.027757 0.126199 118 
0.453244 -0.0277532 0.127033 120 
0.454677 -0.0280497 0.127654 118 
0.455016 -0.0281214 0.128437 111 
0.454623 -0.0280425 0.129325 118 
0.455331 -0.0281898 0.130057 127 
0.45583 -0.0282945 0.13082 134 
0.454704 -0.0280649 0.131806 140 
0.45468 -0.0280619 0.132639 133 
0.454552 -0.0280374 0.133486 134 
0.453747 -0.0278738 0.13442 127 
0.454089 -0.0279461 0.135203 130 
0.454589 -0.0280508 0.135968 129 
0.455248 -0.0281882 0.136715 133 
0.4546 -0.0280568 0.137623 138 
0.454423 -0.0280224 0.138472 144 
0.454612 -0.0280632 0.139277 145 
0.455326 -0.0282118 0.140021 144 
0.454679 -0.0280808 0.140924 150 
0.454505 -0.0280469 0.14177 147 
0.454488 -0.0280453 0.142598 146 
0.454159 -0.0279795 0.14346 149 
0.453831 -0.0279139 0.14432 151 
0.454336 -0.0280197 0.145091 153 
0.453957 -0.0279436 0.145955 151 
0.453475 -0.0278465 0.146828 152 
0.453773 -0.0279097 0.147621 153 
0.454176 -0.0279945 0.148405 156 
0.453229 -0.0278016 0.149319 157 
0.453788 -0.0279185 0.150088 156 
0.453621 -0.0278861 0.150926 159 
0.453092 -0.0277792 0.151796 160 
0.453134 -0.0277897 0.152613 162 
0.452918 -0.0277471 0.153452 162 
0.452393 -0.0276409 0.154316 169 
0.452953 -0.0277581 0.155089 171 
0.453204 -0.0278116 0.155888 171 
0.453405 -0.0278547 0.156692 168 
0.453139 -0.027802 0.157533 176 
0.452771 -0.0277283 0.158379 171 
0.452044 -0.0275806 0.159251 175 
0.45168 -0.0275075 0.160094 174 
0.451419 -0.0274557 0.160928 175 
0.45157 -0.0274886 0.161733 175 
0.451773 -0.0275322 0.162535 176 
0.451514 -0.0274808 0.163368 180 
0.451718 -0.0275247 0.16417 181 
0.450589 -0.0272944 0.165053 181 
0.450078 -0.0271912 0.165896 178 
0.449773 -0.0271302 0.166725 179 
0.449723 -0.0271218 0.167539 185 
0.449979 -0.0271764 0.168336 179 
0.449777 -0.0271368 0.169158 180 
0.449526 -0.0270868 0.169981 183 
0.449072 -0.0269953 0.170812 186 
0.449177 -0.0270189 0.171617 190 
0.449486 -0.0270844 0.172413 188 
0.448933 -0.0269724 0.173246 189 
0.448939 -0.0269754 0.174055 189 
0.448691 -0.0269264 0.174872 190 
0.447285 -0.0266388 0.17573 197 
0.448908 -0.0269747 0.176482 194 
0.448157 -0.026822 0.177314 196 
0.446555 -0.0264942 0.178167 197 
0.445964 -0.0263743 0.178988 193 
0.445673 -0.0263165 0.179798 192 
0.445334 -0.0262485 0.180608 193 
0.44341 -0.0258544 0.181451 190 
0.442928 -0.025757 0.182258 187 
0.442842 -0.025741 0.183057 189 
0.442755 -0.0257251 0.183855 187 
0.442522 -0.025679 0.184654 187 
0.441359 -0.0254413 0.185465 184 
0.441764 -0.0255266 0.186254 183 
0.441534 -0.025481 0.187051 187 
0.441109 -0.0253954 0.187847 178 
0.440101 -0.0251898 0.188645 178 
0.439777 -0.0251249 0.189438 177 
0.4396 -0.0250902 0.190228 179 
0.439471 -0.0250656 0.191019 173 
0.439053 -0.0249813 0.191808 173 
0.43912 -0.0249968 0.192597 173 
0.439477 -0.0250723 0.193389 173 
0.438771 -0.0249286 0.194173 166 
0.439081 -0.0249942 0.194965 169 
0.439634 -0.0251099 0.195761 173 
0.439218 -0.0250262 0.196546 171 
0.439482 -0.0250823 0.19734 171 
0.44033 -0.0252586 0.198146 169 
0.440596 -0.0253153 0.198943 176 
0.439695 -0.0251316 0.199716 176 
0.439961 -0.0251883 0.200513 175 
0.440618 -0.0253253 0.201321 173 
0.440399 -0.0252821 0.202108 179 
0.441205 -0.0254499 0.202924 176 
0.44128 -0.0254672 0.20372 173 
0.441209 -0.0254543 0.204512 176 
0.441285 -0.0254718 0.205309 179 
0.441361 -0.0254894 0.206106 178 
0.441194 -0.0254568 0.206895 181 
0.440978 -0.0254142 0.20768 179 
0.440959 -0.025412 0.208474 175 
0.441331 -0.0254904 0.209284 177 
0.441557 -0.0255389 0.21009 177 
0.441588 -0.0255471 0.210887 180 
0.442799 -0.0257983 0.211743 180 
0.442192 -0.025675 0.21251 183 
0.443506 -0.0259476 0.213378 179 
0.442553 -0.0257531 0.214125 182 
0.443277 -0.0259042 0.214965 177 
0.442179 -0.0256797 0.215699 177 
0.44241 -0.0257293 0.216511 182 
0.443432 -0.0259417 0.217374 181 
0.444014 -0.0260633 0.218212 181 
0.443753 -0.0260115 0.218997 178 
0.444088 -0.0260824 0.219821 180 
0.443928 -0.0260512 0.220612 181 
0.444066 -0.0260815 0.221424 177 
0.444056 -0.0260812 0.222226 177 
0.444493 -0.0261732 0.223062 178 
0.444882 -0.0262552 0.223896 183 
0.445023 -0.0262861 0.224712 184 
0.447069 -0.0267095 0.225685 183 
0.445157 -0.0263174 0.226334 180 
0.4456 -0.0264105 0.227178 182 
0.445844 -0.0264626 0.228006 187 
0.44654 -0.026608 0.228876 183 
0.447088 -0.0267228 0.229735 179 
0.446782 -0.0266615 0.230517 183 
0.446828 -0.0266729 0.231331 190 
0.447379 -0.0267883 0.232195 187 
0.446973 -0.0267065 0.232967 183 
0.447323 -0.0267806 0.233813 184 
0.447625 -0.0268445 0.234656 181 
0.448383 -0.0270027 0.235549 180 
0.448129 -0.0269522 0.236336 179 
0.448332 -0.0269959 0.237173 180 
0.44884 -0.0271026 0.238044 180 
0.44874 -0.0270838 0.238849 178 
0.449353 -0.0272119 0.239736 179 
0.449559 -0.0272564 0.240578 176 
0.450227 -0.0273959 0.241475 176 
0.449668 -0.0272826 0.242228 175 
0.450286 -0.0274119 0.243123 173 
0.449932 -0.0273409 0.2439 174 
0.451942 -0.0277571 0.244973 168 
0.450815 -0.0275267 0.245654 171 
0.45113 -0.0275935 0.246518 179 
0.451292 -0.0276288 0.247363 172 
0.451971 -0.0277705 0.248278 172 
0.452134 -0.0278062 0.249126 171 
0.452298 -0.027842 0.249975 172 
0.452101 -0.0278032 0.250775 170 
0.452837 -0.0279568 0.251706 170 
0.453524 -0.0281004 0.252633 167 
0.453536 -0.0281047 0.253466 170 
0.453861 -0.0281736 0.254345 173 
0.45513 -0.0284372 0.255366 174 
0.454671 -0.0283446 0.256132 174 
0.454424 -0.0282955 0.256928 171 
0.454648 -0.0283437 0.257797 167 
0.455031 -0.0284245 0.258692 169 
0.454837 -0.0283864 0.259497 173 
0.456592 -0.0287503 0.260616 173 
0.455343 -0.0284947 0.261253 168 
0.45631 -0.0286961 0.26225 171 
0.456117 -0.0286583 0.263058 167 
0.456877 -0.0288169 0.264026 166 
0.456526 -0.0287465 0.264809 165 
0.456918 -0.0288291 0.265718 158 
0.457204 -0.0288901 0.266611 164 
0.457651 -0.0289843 0.267534 163 
0.457674 -0.0289909 0.268383 161 
0.456952 -0.0288441 0.269099 163 
0.457507 -0.0289605 0.270045 163 
0.457797 -0.0290223 0.270945 160 
0.458036 -0.0290734 0.271837 160 
0.458114 -0.0290916 0.2727 164 
0.458354 -0.029143 0.273595 168 
0.458434 -0.0291615 0.27446 165 
0.458675 -0.0292132 0.275357 169 
0.456996 -0.0288686 0.27588 166 
0.457449 -0.0289642 0.276819 168 
0.456574 -0.0287855 0.277494 169 
0.457134 -0.0289031 0.278456 170 
0.456738 -0.0288234 0.279226 170 
0.457034 -0.0288864 0.280137 171 
0.45664 -0.0288069 0.280907 175 
0.455981 -0.0286729 0.28162 172 
0.456596 -0.0288018 0.2826 167 
0.455673 -0.0286134 0.283256 168 
0.456342 -0.0287534 0.28425 173 
0.45558 -0.0285981 0.284937 173 
0.45519 -0.0285196 0.285704 179 
0.454644 -0.0284088 0.286434 174 
0.454783 -0.0284395 0.287316 178 
0.454396 -0.0283616 0.288081 178 
0.453066 -0.028089 0.288631 177 
0.452317 -0.0279364 0.289309 171 
0.452561 -0.0279887 0.290213 173 
0.45171 -0.0278151 0.290865 175 
0.451694 -0.0278138 0.29171 173 
0.450847 -0.0276409 0.292358 172 
0.450366 -0.0275435 0.293091 173 
0.449267 -0.0273186 0.293674 166 
0.448944 -0.0272538 0.294442 167 
0.449342 -0.027338 0.295385 163 
0.448968 -0.0272628 0.29614 161 
0.448801 -0.0272302 0.296945 170 
0.448583 -0.0271871 0.297738 166 
0.448365 -0.0271442 0.29853 167 
0.448405 -0.0271544 0.299388 161 
0.449012 -0.0272816 0.300391 159 
0.450294 -0.0275483 0.301572 159 
0.448837 -0.0272493 0.302046 163 
0.449034 -0.0272919 0.302949 158 
0.448098 -0.0271007 0.303553 157 
0.448295 -0.0271433 0.304456 156 
0.448905 -0.0272712 0.305471 152 
0.448588 -0.0272077 0.306239 147 
0.448838 -0.0272614 0.307161 145 
0.448419 -0.0271768 0.3079 140 
0.44898 -0.0272947 0.308909 138 
0.448716 -0.0272421 0.309692 136 
0.449694 -0.027446 0.310822 141 
0.449897 -0.0274899 0.311738 138 
0.449374 -0.0273839 0.312449 142 
0.449733 -0.02746 0.313411 140 
0.449937 -0.0275042 0.314331 140 
0.450195 -0.0275593 0.315267 137 
0.450975 -0.0277224 0.316358 139 
0.450503 -0.027627 0.317085 136 
0.450554 -0.0276395 0.317965 138 
0.450866 -0.027706 0.318924 140 
0.450814 -0.0276972 0.319775 137 
0.451442 -0.027829 0.320832 138 
0.45181 -0.027907 0.321814 143 
0.451549 -0.027855 0.322605 139 
0.452076 -0.027966 0.323638 141 
0.451605 -0.0278706 0.324365 136 
0.451555 -0.0278623 0.325222 140 
0.452295 -0.0280172 0.326328 139 
0.452668 -0.0280963 0.327321 141 
0.452514 -0.0280664 0.328149 140 
0.452677 -0.0281021 0.329079 135 
0.452365 -0.0280396 0.329857 131 
0.452687 -0.0281083 0.33084 138 
0.452693 -0.0281115 0.331721 138 
0.45307 -0.0281915 0.332726 136 
0.452918 -0.028162 0.333558 138 
0.45319 -0.0282204 0.334531 137 
0.452562 -0.0280925 0.335204 136 
0.452569 -0.0280962 0.33609 130 
0.45364 -0.0283194 0.337337 124 
0.453702 -0.0283344 0.338245 109 
0.454781 -0.0285592 0.339502 104 
0.454523 -0.0285081 0.340304 99 
0.453839 -0.0283687 0.340958 103 
0.453636 -0.0283289 0.341778 100 
0.455039 -0.0286208 0.34316 100 
0.454729 -0.0285589 0.343945 105 
0.45442 -0.028497 0.34473 104 
0.455292 -0.0286792 0.345936 107 
0.454553 -0.0285286 0.346568 100 
0.454674 -0.0285557 0.347508 106 
0.454849 -0.0285939 0.348469 111 
0.454434 -0.0285102 0.349217 110 
0.454932 -0.0286153 0.350298 111 
0.454625 -0.0285538 0.351085 114 
0.455556 -0.0287484 0.352332 111 
0.455735 -0.0287874 0.353302 121 
0.455427 -0.0287259 0.354091 119 
0.455877 -0.028821 0.355165 118 
0.456436 -0.0289388 0.356284 119 
0.456183 -0.0288885 0.357096 117 
0.455498 -0.0287489 0.357742 113 
0.455787 -0.0288108 0.358762 116 
0.456078 -0.028873 0.359784 117 
0.455826 -0.0288231 0.360597 115 
0.455467 -0.0287509 0.361367 116 
0.454784 -0.0286118 0.36201 117 
0.456159 -0.0288982 0.363465 111 
0.455963 -0.0288598 0.364302 108 
0.455767 -0.0288214 0.365138 111 
0.456061 -0.0288842 0.366172 112 
0.455757 -0.0288236 0.366966 108 
0.455617 -0.0287967 0.367826 109 
0.45461 -0.0285906 0.368332 107 
0.455446 -0.0287656 0.369592 110 
0.454982 -0.0286716 0.370319 108 
0.454086 -0.0284884 0.370866 108 
0.454272 -0.028529 0.371862 107 
0.453432 -0.0283576 0.372429 106 
0.453618 -0.0283981 0.373426 102 
0.453374 -0.0283496 0.374242 102 
0.453453 -0.0283681 0.375196 108 
0.451705 -0.0280087 0.37537 111 
0.451462 -0.0279607 0.376184 118 
0.451007 -0.0278685 0.376906 121 
0.450712 -0.0278097 0.377696 113 
0.451165 -0.0279055 0.378813 111 
0.449646 -0.0275934 0.379068 114 
0.449459 -0.0275569 0.379904 116 
0.448797 -0.0274219 0.38053 113 
0.449194 -0.0275061 0.381625 116 
0.448955 -0.0274589 0.382438 109 
0.448347 -0.0273352 0.383086 106 
0.448532 -0.0273757 0.38409 107 
0.447398 -0.0271431 0.384498 112 
0.447636 -0.0271945 0.385526 127 
0.446769 -0.0270171 0.386051 107 
0.445643 -0.0267863 0.386454 103 
0.445723 -0.0268049 0.38741 100 
0.439773 -0.0281089 -0.013929 9 
0.348393 -0.00865219 0.031122 7 
0.438776 -0.0279008 -0.011624 7 
0.434872 -0.0270716 -0.00884204 13 
0.438948 -0.0279417 -0.00989104 11 
0.436141 -0.027346 -0.00764904 15 
0.438464 -0.0278428 -0.00784904 14 
0.442092 -0.0286176 -0.00865503 10 
0.443288 -0.0288743 -0.00830503 11 
0.441396 -0.0284736 -0.00650904 12 
0.438765 -0.0279151 -0.00437704 9 
0.431045 -0.026273 9.59574e-05 8 
0.435335 -0.0271889 -0.000997043 13 
0.44073 -0.02834 -0.00257804 12 
0.439474 -0.0280745 -0.00110204 12 
0.437824 -0.0277252 0.000545958 11 
0.441382 -0.028485 -0.000168047 14 
0.444428 -0.029136 -0.000637046 16 
0.442791 -0.0287894 0.00100296 17 
0.441577 -0.0285328 0.00244696 16 
0.442 -0.028625 0.00315797 20 
0.44268 -0.028772 0.00375696 11 
0.440604 -0.0283318 0.00556896 21 
0.443892 -0.0290344 0.00502596 16 
0.442623 -0.0287661 0.00647896 19 
0.443665 -0.0289902 0.00692397 19 
0.447051 -0.0297136 0.00636295 16 
0.44566 -0.0294194 0.00786496 16 
0.444745 -0.0292264 0.00915595 18 
0.443782 -0.0290234 0.010463 17 
0.446593 -0.0296243 0.010171 18 
0.44526 -0.0293425 0.011632 16 
0.44471 -0.0292272 0.012759 16 
0.445554 -0.0294092 0.013302 20 
0.446922 -0.0297027 0.013631 18 
0.444919 -0.029278 0.015355 21 
0.448683 -0.0300822 0.014704 20 
0.447081 -0.0297428 0.016257 22 
0.447621 -0.02986 0.016934 24 
0.447588 -0.029855 0.017843 28 
0.446515 -0.0296284 0.01917 23 
0.446639 -0.0296569 0.020012 21 
0.449427 -0.0302532 0.019795 23 
0.447615 -0.0298692 0.021408 23 
0.448785 -0.0301206 0.02184 25 
0.449068 -0.0301829 0.022623 28 
0.449509 -0.030279 0.023345 27 
0.448587 -0.0300846 0.024595 27 
0.44929 -0.0302364 0.025215 30 
0.448997 -0.0301761 0.026219 25 
0.449491 -0.0302835 0.026921 24 
0.449829 -0.0303575 0.027683 30 
0.451433 -0.0307015 0.027969 23 
0.450506 -0.0305061 0.029209 25 
0.448487 -0.0300776 0.030853 24 
0.44919 -0.0302295 0.031477 27 
0.450789 -0.0305725 0.031773 33 
0.448145 -0.0300108 0.033632 28 
0.448587 -0.030107 0.034353 26 
0.448665 -0.0301257 0.035207 32 
0.447289 -0.0298344 0.036585 33 
0.445821 -0.0295233 0.0379899 36 
0.447809 -0.0299493 0.038156 32 
0.446957 -0.0297697 0.039336 35 
0.446109 -0.0295909 0.04051 35 
0.445625 -0.0294895 0.0415529 39 
0.444784 -0.0293123 0.042717 42 
0.444405 -0.0292335 0.043717 40 
0.444996 -0.0293615 0.044381 38 
0.444363 -0.0292286 0.0454659 34 
0.444394 -0.0292371 0.0463209 36 
0.444119 -0.0291806 0.047279 43 
0.443441 -0.0290378 0.048372 47 
0.442261 -0.0287881 0.0496279 46 
0.44164 -0.0286576 0.0506929 42 
0.440971 -0.028517 0.05177 45 
0.440106 -0.0283345 0.052909 48 
0.44019 -0.0283542 0.0537339 42 
0.439826 -0.0282786 0.054704 46 
0.438968 -0.0280975 0.055831 50 
0.439398 -0.0281914 0.056541 56 
0.439334 -0.0281797 0.05741 52 
0.438037 -0.0279049 0.058667 51 
0.438615 -0.0280301 0.05933 48 
0.437226 -0.0277357 0.060608 47 
0.437508 -0.0277977 0.061362 48 
0.436517 -0.0275884 0.062508 56 
0.437043 -0.0277026 0.063185 51 
0.436593 -0.0276084 0.064161 59 
0.435609 -0.0274005 0.065296 59 
0.435163 -0.0273072 0.066264 55 
0.435493 -0.0273795 0.066999 60 
0.434613 -0.0271938 0.068093 63 
0.43475 -0.0272248 0.068884 60 
0.434839 -0.0272456 0.069689 60 
0.435508 -0.0273904 0.070325 58 
0.434245 -0.0271228 0.071519 65 
0.43559 -0.0274118 0.071963 65 
0.435729 -0.0274433 0.072753 65 
0.434997 -0.0272891 0.073789 59 
0.434943 -0.0272795 0.074632 62 
0.43489 -0.02727 0.075473 63 
0.43503 -0.0273017 0.076261 61 
0.435025 -0.0273027 0.077088 66 
0.434732 -0.027242 0.077993 59 
0.435404 -0.0273872 0.078635 64 
0.4354 -0.0273884 0.079461 56 
0.435687 -0.0274515 0.080209 66 
0.434864 -0.0272778 0.08125 69 
0.435489 -0.0274131 0.081909 67 
0.435777 -0.0274765 0.082657 74 
0.435052 -0.0273236 0.083666 67 
0.43563 -0.0274488 0.084339 63 
0.437277 -0.0278023 0.084742 66 
0.436209 -0.0275762 0.085835 63 
0.437179 -0.0277852 0.086414 68 
0.43592 -0.0275183 0.087549 77 
0.436259 -0.0275926 0.088285 81 
0.436987 -0.02775 0.088927 79 
0.437767 -0.0279183 0.089559 78 
0.437234 -0.0278064 0.090508 82 
0.436994 -0.027757 0.0913858 74 
0.437725 -0.0279152 0.092032 76 
0.437146 -0.0277933 0.0929879 75 
0.437781 -0.0279309 0.0936585 83 
0.437931 -0.0279648 0.094443 85 
0.438082 -0.0279989 0.0952274 88 
0.439063 -0.0282103 0.0958237 88 
0.43858 -0.028109 0.0967523 87 
0.439319 -0.0282687 0.0974064 91 
0.439619 -0.0283347 0.0981597 97 
0.439577 -0.0283275 0.0989886 100 
0.439829 -0.0283833 0.099753 97 
0.440771 -0.0285863 0.10037 96 
0.440729 -0.0285793 0.101199 102 
0.440935 -0.0286251 0.101976 107 
0.440845 -0.0286078 0.102814 105 
0.441051 -0.0286537 0.103591 98 
0.441999 -0.0288582 0.104215 101 
0.441861 -0.0288305 0.105064 100 
0.442565 -0.0289828 0.105742 98 
0.442626 -0.0289976 0.10655 96 
0.442786 -0.0290337 0.107339 99 
0.443395 -0.0291656 0.10804 104 
0.443556 -0.0292021 0.10883 100 
0.444018 -0.0293026 0.109562 101 
0.444831 -0.0294783 0.110229 104 
0.444595 -0.0294296 0.111096 114 
0.445914 -0.0297133 0.111672 112 
0.446029 -0.0297398 0.112474 110 
0.446296 -0.0297988 0.113249 106 
0.446009 -0.0297394 0.114124 109 
0.446227 -0.0297877 0.114908 113 
0.44695 -0.0299442 0.115603 120 
0.447828 -0.0301337 0.116274 120 
0.447693 -0.0301068 0.117122 118 
0.448168 -0.0302102 0.117865 118 
0.448034 -0.0301835 0.118712 117 
0.448817 -0.0303525 0.119406 118 
0.449653 -0.0305332 0.120094 117 
0.449264 -0.0304519 0.120983 120 
0.449745 -0.0305565 0.121731 115 
0.449203 -0.0304428 0.122643 116 
0.449992 -0.0306132 0.123344 115 
0.450578 -0.0307404 0.124078 121 
0.450242 -0.0306703 0.124956 116 
0.450932 -0.0308198 0.125677 115 
0.451574 -0.0309589 0.126407 118 
0.450415 -0.0307131 0.127405 117 
0.450799 -0.0307971 0.128174 124 
0.45139 -0.0309254 0.128914 126 
0.452242 -0.0311093 0.129619 129 
0.452527 -0.0311721 0.130406 128 
0.45183 -0.0310251 0.131329 131 
0.451909 -0.031044 0.132144 136 
0.452144 -0.031096 0.132938 129 
0.452276 -0.0311261 0.133746 132 
0.452926 -0.031267 0.134487 128 
0.452697 -0.0312199 0.135343 127 
0.452055 -0.0310847 0.13625 131 
0.451828 -0.031038 0.137102 129 
0.452376 -0.031157 0.137858 129 
0.452822 -0.0312542 0.138629 139 
0.452699 -0.0312299 0.139468 142 
0.453147 -0.0313275 0.14024 148 
0.452559 -0.0312038 0.141132 139 
0.452904 -0.0312794 0.141917 140 
0.452887 -0.0312777 0.142742 144 
0.453597 -0.0314313 0.143489 148 
0.452235 -0.031142 0.144459 148 
0.453203 -0.0313508 0.145179 149 
0.45267 -0.0312389 0.146057 148 
0.452812 -0.031271 0.146865 151 
0.453005 -0.0313143 0.147668 150 
0.452785 -0.0312692 0.148511 155 
0.453032 -0.0313238 0.149309 154 
0.4524 -0.0311906 0.15019 152 
0.452183 -0.031146 0.151031 154 
0.451812 -0.0310686 0.151884 157 
0.451853 -0.0310794 0.152699 162 
0.452205 -0.0311564 0.153487 163 
0.451784 -0.0310684 0.154342 161 
0.452034 -0.0311236 0.15514 158 
0.451512 -0.0310139 0.156 165 
0.451146 -0.0309375 0.156846 162 
0.451088 -0.0309271 0.157667 163 
0.451185 -0.0309497 0.158476 163 
0.450873 -0.0308848 0.159315 166 
0.451535 -0.0310283 0.160083 166 
0.451686 -0.0310624 0.160889 169 
0.450606 -0.0308333 0.161778 167 
0.45045 -0.0308018 0.162602 171 
0.451011 -0.0309236 0.163381 172 
0.45014 -0.0307393 0.164249 173 
0.45019 -0.0307519 0.165059 174 
0.450241 -0.0307647 0.165869 174 
0.450139 -0.0307448 0.166688 174 
0.449936 -0.0307032 0.167511 171 
0.449989 -0.0307163 0.16832 180 
0.449838 -0.030686 0.16914 183 
0.449688 -0.0306557 0.169959 182 
0.44959 -0.0306365 0.170775 182 
0.449289 -0.030574 0.171599 179 
0.449242 -0.030566 0.172411 181 
0.449095 -0.0305363 0.173227 183 
0.448949 -0.0305068 0.174043 185 
0.448853 -0.0304883 0.174856 186 
0.448658 -0.0304483 0.175672 186 
0.447806 -0.030268 0.176508 187 
0.446407 -0.0299704 0.177359 185 
0.446065 -0.0298991 0.178173 184 
0.445724 -0.0298281 0.178986 186 
0.445335 -0.0297466 0.179799 186 
0.444847 -0.0296441 0.180613 183 
0.443965 -0.0294572 0.181433 187 
0.442841 -0.0292184 0.182255 185 
0.442115 -0.029065 0.183065 182 
0.44203 -0.0290484 0.183862 182 
0.44165 -0.0289691 0.184663 182 
0.441272 -0.0288901 0.185462 183 
0.441042 -0.0288426 0.186259 181 
0.441008 -0.0288371 0.187053 182 
0.439515 -0.0285194 0.187856 183 
0.439385 -0.0284934 0.188647 183 
0.439111 -0.0284365 0.189439 180 
0.438644 -0.0283385 0.190229 176 
0.438324 -0.0282717 0.191018 178 
0.437908 -0.0281845 0.191805 174 
0.438215 -0.028252 0.192594 173 
0.437896 -0.0281857 0.19338 176 
0.437723 -0.0281504 0.194167 175 
0.438079 -0.0282285 0.194958 176 
0.438437 -0.0283068 0.19575 180 
0.438409 -0.0283027 0.196539 174 
0.43843 -0.0283091 0.197328 175 
0.438259 -0.0282743 0.198114 171 
0.439586 -0.0285602 0.198928 174 
0.438497 -0.0283289 0.199696 172 
0.438569 -0.028346 0.200487 175 
0.438545 -0.0283427 0.201276 167 
0.438569 -0.0283497 0.202066 168 
0.439319 -0.0285122 0.202877 169 
0.44017 -0.0286961 0.203695 173 
0.439711 -0.0285996 0.204472 175 
0.440126 -0.0286904 0.205279 172 
0.440202 -0.0287085 0.206074 175 
0.439744 -0.0286123 0.206849 173 
0.439433 -0.0285475 0.207629 173 
0.440093 -0.0286907 0.208449 175 
0.440074 -0.0286884 0.209241 176 
0.439716 -0.0286135 0.210018 177 
0.439941 -0.0286635 0.210821 177 
0.440702 -0.0288284 0.211653 182 
0.440929 -0.0288789 0.212459 182 
0.441108 -0.0289191 0.213264 185 
0.440995 -0.0288966 0.214054 176 
0.441273 -0.028958 0.214866 174 
0.441552 -0.0290196 0.215679 172 
0.441048 -0.0289136 0.216445 175 
0.441671 -0.0290488 0.21728 172 
0.442149 -0.029153 0.218109 175 
0.442038 -0.0291311 0.218901 171 
0.442863 -0.0293096 0.219756 175 
0.442162 -0.0291614 0.220507 175 
0.442495 -0.0292346 0.22133 175 
0.44283 -0.0293082 0.222156 173 
0.443611 -0.0294773 0.223016 182 
0.443354 -0.0294242 0.223799 180 
0.443841 -0.0295302 0.22464 178 
0.44423 -0.0296154 0.225476 180 
0.443627 -0.0294881 0.226229 181 
0.444017 -0.0295735 0.227066 184 
0.444557 -0.0296911 0.227918 181 
0.4447 -0.0297237 0.228737 182 
0.445044 -0.0297991 0.229574 185 
0.445939 -0.0299928 0.230465 189 
0.446939 -0.030209 0.23137 186 
0.446734 -0.030167 0.232161 181 
0.446028 -0.0300176 0.232902 178 
0.44688 -0.030202 0.233798 182 
0.446125 -0.0300419 0.234532 175 
0.446626 -0.0301512 0.235395 179 
0.446625 -0.0301529 0.236207 186 
0.446575 -0.030144 0.237013 180 
0.447129 -0.0302647 0.237887 182 
0.447231 -0.0302884 0.238712 176 
0.447384 -0.0303231 0.239544 181 
0.447487 -0.0303471 0.24037 176 
0.447238 -0.0302955 0.241156 173 
0.447645 -0.0303847 0.24202 171 
0.448866 -0.0306483 0.242985 170 
0.449126 -0.0307058 0.243836 171 
0.44959 -0.0308072 0.244714 168 
0.448577 -0.030592 0.245405 174 
0.448939 -0.0306716 0.246271 168 
0.449507 -0.0307952 0.247166 166 
0.450231 -0.0309522 0.248085 170 
0.452299 -0.0313974 0.249189 170 
0.451481 -0.0312241 0.249904 170 
0.452318 -0.0314053 0.250847 172 
0.451863 -0.0313096 0.251611 175 
0.452598 -0.0314692 0.252544 171 
0.453129 -0.0315849 0.253451 179 
0.453245 -0.0316117 0.254299 177 
0.453362 -0.0316387 0.255147 174 
0.453063 -0.0315766 0.255934 173 
0.453025 -0.0315703 0.25676 166 
0.453195 -0.0316088 0.257619 171 
0.453054 -0.0315805 0.25843 169 
0.453904 -0.0317645 0.259398 175 
0.453868 -0.0317588 0.260227 169 
0.453833 -0.0317531 0.261057 172 
0.454216 -0.0318373 0.261955 172 
0.455231 -0.0320568 0.262961 168 
0.454882 -0.0319839 0.263742 169 
0.455006 -0.0320126 0.264602 170 
0.45645 -0.0323241 0.265691 171 
0.456365 -0.0323079 0.266519 166 
0.456651 -0.0323712 0.267412 165 
0.45625 -0.0322871 0.268185 178 
0.45622 -0.0322825 0.269023 173 
0.455926 -0.0322214 0.269814 169 
0.456108 -0.0322625 0.270691 163 
0.455974 -0.0322356 0.271511 176 
0.456422 -0.0323337 0.27244 167 
0.456077 -0.0322616 0.273221 176 
0.455786 -0.0322011 0.274012 166 
0.455548 -0.0321521 0.274812 169 
0.455786 -0.0322051 0.275704 172 
0.45497 -0.0320319 0.27639 166 
0.454787 -0.0319947 0.277199 168 
0.454815 -0.0320027 0.278051 170 
0.454581 -0.0319544 0.27885 169 
0.455771 -0.0322116 0.279941 169 
0.454482 -0.0319372 0.280523 172 
0.454197 -0.031878 0.281311 174 
0.453756 -0.0317852 0.282065 176 
0.453945 -0.0318276 0.282952 174 
0.453924 -0.0318252 0.283796 172 
0.453275 -0.0316878 0.284503 175 
0.452837 -0.0315958 0.285255 172 
0.452348 -0.0314928 0.285994 178 
0.452277 -0.0314796 0.286825 179 
0.451894 -0.0313994 0.287586 177 
0.45172 -0.031364 0.288394 171 
0.451027 -0.0312173 0.289083 172 
0.450441 -0.0310934 0.289794 173 
0.450683 -0.0311474 0.290696 175 
0.450564 -0.0311237 0.291515 176 
0.448846 -0.030757 0.291955 173 
0.448471 -0.0306786 0.29271 171 
0.4482 -0.0306223 0.293489 176 
0.447674 -0.0305113 0.294206 164 
0.447507 -0.0304774 0.295008 164 
0.447647 -0.0305093 0.295887 170 
0.447072 -0.0303879 0.296589 161 
0.446397 -0.030245 0.297264 160 
0.446945 -0.0303646 0.298246 166 
0.446933 -0.030364 0.299088 157 
0.447586 -0.0305062 0.300102 165 
0.447986 -0.0305938 0.301053 156 
0.446748 -0.0303301 0.301579 156 
0.447198 -0.0304286 0.302545 154 
0.447649 -0.0305275 0.303513 148 
0.447743 -0.0305496 0.304388 153 
0.447325 -0.0304617 0.305127 152 
0.447522 -0.030506 0.306031 144 
0.447719 -0.0305504 0.306937 151 
0.447302 -0.0304628 0.307675 145 
0.447809 -0.0305735 0.308668 139 
0.448008 -0.0306184 0.309577 144 
0.448518 -0.0307297 0.310576 147 
0.448152 -0.0306532 0.311329 143 
0.448096 -0.0306431 0.31217 151 
0.448401 -0.0307106 0.313115 138 
0.448759 -0.0307894 0.314077 146 
0.449014 -0.0308463 0.315011 138 
0.448805 -0.0308033 0.315811 138 
0.449424 -0.0309383 0.316855 138 
0.449579 -0.0309734 0.317764 138 
0.449007 -0.0308526 0.318458 136 
0.450358 -0.0311447 0.319728 140 
0.450619 -0.0312027 0.320674 136 
0.451299 -0.0313509 0.32175 137 
0.451615 -0.0314208 0.322717 133 
0.450778 -0.0312431 0.323331 140 
0.450623 -0.0312118 0.324154 139 
0.450626 -0.0312143 0.325026 138 
0.451152 -0.0313293 0.326064 137 
0.451418 -0.0313884 0.327021 136 
0.451737 -0.031459 0.327998 136 
0.451847 -0.0314846 0.32891 135 
0.451588 -0.0314311 0.329704 137 
0.451751 -0.0314682 0.330634 136 
0.452231 -0.0315733 0.33167 141 
0.451868 -0.0314974 0.332431 141 
0.452033 -0.0315348 0.333365 134 
0.451723 -0.0314703 0.334144 136 
0.451783 -0.0314852 0.335045 129 
0.452425 -0.0316252 0.336144 127 
0.452434 -0.031629 0.337031 121 
0.453238 -0.0318039 0.33819 117 
0.452346 -0.0316142 0.338772 105 
0.453098 -0.0317779 0.339918 101 
0.452418 -0.0316339 0.340571 105 
0.452588 -0.0316723 0.341518 108 
0.453236 -0.0318138 0.342635 109 
0.45261 -0.0316812 0.343305 108 
0.453633 -0.0319031 0.344559 110 
0.45274 -0.0317133 0.345134 106 
0.453285 -0.0318324 0.346222 106 
0.452925 -0.0317572 0.346987 112 
0.453098 -0.0317965 0.347944 109 
0.454074 -0.0320082 0.349197 106 
0.454625 -0.0321287 0.350298 108 
0.453836 -0.0319612 0.350907 108 
0.45353 -0.0318976 0.351693 107 
0.453706 -0.0319375 0.352659 107 
0.45399 -0.0320006 0.353666 111 
0.453953 -0.0319948 0.354555 125 
0.455154 -0.0322549 0.355914 125 
0.455442 -0.0323188 0.356931 122 
0.454382 -0.0320931 0.357431 113 
0.454831 -0.0321917 0.358511 112 
0.455228 -0.0322791 0.359574 120 
0.455085 -0.0322505 0.360428 120 
0.454889 -0.0322105 0.361261 111 
0.455017 -0.0322401 0.362223 112 
0.456067 -0.0324679 0.363551 110 
0.454788 -0.0321952 0.363956 106 
0.455567 -0.0323647 0.365182 101 
0.455426 -0.0323366 0.366041 107 
0.453936 -0.0320182 0.366353 106 
0.453473 -0.0319209 0.367078 108 
0.454196 -0.0320783 0.368288 109 
0.453841 -0.0320042 0.369058 103 
0.453702 -0.0319765 0.369917 114 
0.453457 -0.0319257 0.370732 112 
0.453373 -0.0319098 0.371614 108 
0.453396 -0.0319171 0.372542 106 
0.453421 -0.0319244 0.373472 115 
0.453122 -0.0318624 0.374265 109 
0.452717 -0.0317774 0.375012 105 
0.453388 -0.0319238 0.37622 106 
0.451054 -0.0314239 0.376138 115 
0.450493 -0.0313054 0.376813 115 
0.450838 -0.0313817 0.377881 110 
0.450437 -0.0312976 0.378626 117 
0.449082 -0.0310084 0.378951 114 
0.449797 -0.0311643 0.380185 113 
0.448816 -0.0309554 0.38067 113 
0.448261 -0.0308381 0.381342 116 
0.448234 -0.0308345 0.382249 112 
0.44805 -0.0307969 0.383086 111 
0.446551 -0.0304767 0.383329 104 
0.445897 -0.0303381 0.38395 109 
0.445662 -0.0302897 0.384761 128 
0.445323 -0.0302189 0.385524 104 
0.444517 -0.0300475 0.386071 95 
0.4447 -0.030089 0.387073 95 
0.434694 -0.0304469 -0.011602 9 
0.438313 -0.0312495 -0.012455 11 
0.43954 -0.0315229 -0.012139 13 
0.439957 -0.0316171 -0.011428 7 
0.438647 -0.0313296 -0.00989104 8 
0.440231 -0.0316821 -0.00973903 12 
0.439378 -0.0314954 -0.00842503 10 
0.437672 -0.0311202 -0.00671204 11 
0.437483 -0.0310804 -0.00572104 8 
0.434999 -0.0305332 -0.00365905 13 
0.437006 -0.0309792 -0.00369904 8 
0.438426 -0.0312953 -0.00345904 13 
0.327901 -0.00684669 0.048266 8 
0.436148 -0.0307955 -0.00061304 10 
0.60492 -0.0681345 -0.07709 8 
0.437375 -0.0310711 0.000614965 13 
0.437489 -0.0310985 0.00145695 14 
0.440378 -0.0317396 0.00104896 15 
0.444751 -0.0327093 -1.50414e-05 17 
0.44219 -0.0321447 0.00203595 16 
0.439965 -0.0316546 0.00392596 22 
0.441351 -0.0319633 0.00420896 24 
0.443259 -0.0323875 0.00426696 21 
0.440721 -0.031828 0.00627896 24 
0.443958 -0.0325463 0.00576296 22 
0.441821 -0.0320755 0.00758996 19 
0.442808 -0.032296 0.00805896 19 
0.44385 -0.0325288 0.00850796 23 
0.444794 -0.0327397 0.00900196 22 
0.443575 -0.032472 0.01042 23 
0.443079 -0.0323644 0.011525 21 
0.445672 -0.0329402 0.011327 20 
0.446156 -0.0330494 0.012022 20 
0.446381 -0.0331012 0.012827 22 
0.444691 -0.0327294 0.014426 22 
0.448766 -0.0336333 0.013637 18 
0.444728 -0.0327417 0.016198 20 
0.445573 -0.0329307 0.016745 17 
0.445902 -0.0330057 0.017504 20 
0.445147 -0.0328406 0.018703 23 
0.446304 -0.0330987 0.019128 20 
0.448511 -0.0335893 0.019136 24 
0.447851 -0.0334454 0.020295 27 
0.447299 -0.0333251 0.021408 28 
0.447579 -0.0333894 0.02219 29 
0.447757 -0.0334306 0.023012 28 
0.448927 -0.0336917 0.023447 26 
0.450419 -0.0340242 0.023761 23 
0.451497 -0.0342649 0.02424 22 
0.448992 -0.0337124 0.026099 25 
0.449748 -0.0338818 0.026701 29 
0.450033 -0.0339471 0.027484 26 
0.45148 -0.0342693 0.027829 26 
0.451238 -0.034218 0.028813 24 
0.451051 -0.0341785 0.029776 24 
0.449341 -0.033802 0.031302 25 
0.450204 -0.0339951 0.031871 28 
0.450544 -0.0340725 0.0326339 29 
0.452735 -0.0345598 0.032721 30 
0.449546 -0.0338555 0.034771 22 
0.45062 -0.0340955 0.035268 29 
0.447 -0.0332957 0.037454 29 
0.447027 -0.0333037 0.038322 32 
0.447157 -0.0333347 0.039153 36 
0.446875 -0.0332743 0.040129 44 
0.446337 -0.0331571 0.041193 39 
0.446057 -0.0330972 0.042164 43 
0.44542 -0.032958 0.043257 42 
0.444632 -0.0327856 0.044399 41 
0.445275 -0.0329299 0.045047 42 
0.444336 -0.032724 0.046235 40 
0.444621 -0.0327892 0.047004 44 
0.443383 -0.032517 0.0482859 49 
0.443922 -0.0326382 0.048969 46 
0.4437 -0.0325911 0.049905 44 
0.441315 -0.0320648 0.051555 38 
0.44195 -0.0322073 0.052203 47 
0.441532 -0.0321167 0.053196 45 
0.440865 -0.031971 0.054268 52 
0.44055 -0.0319032 0.055223 47 
0.441383 -0.0320898 0.055808 45 
0.438982 -0.0315597 0.057425 51 
0.438622 -0.031482 0.058387 51 
0.439994 -0.0317879 0.058801 46 
0.438546 -0.031469 0.060102 47 
0.438829 -0.0315337 0.060858 52 
0.438373 -0.0314347 0.061843 50 
0.437821 -0.0313142 0.062856 52 
0.437761 -0.0313028 0.063715 53 
0.437064 -0.0311504 0.064766 55 
0.436859 -0.0311068 0.065666 55 
0.436995 -0.031139 0.066463 55 
0.435526 -0.0308154 0.067735 55 
0.436343 -0.0309983 0.068328 57 
0.435509 -0.0308155 0.069406 59 
0.434535 -0.0306015 0.070521 62 
0.433999 -0.0304845 0.071505 58 
0.434232 -0.0305382 0.072266 61 
0.434515 -0.0306027 0.073014 70 
0.434316 -0.0305606 0.073898 66 
0.433974 -0.0304868 0.07482 64 
0.434017 -0.0304982 0.075634 63 
0.433964 -0.0304884 0.076473 66 
0.434344 -0.0305745 0.077193 65 
0.433525 -0.0303948 0.078241 66 
0.435058 -0.0307366 0.078649 67 
0.435248 -0.0307805 0.079422 69 
0.434379 -0.0305897 0.080478 72 
0.434376 -0.0305911 0.081301 69 
0.434518 -0.0306245 0.082086 66 
0.435238 -0.030786 0.082719 68 
0.433988 -0.0305107 0.083865 68 
0.434083 -0.0305337 0.084659 68 
0.433987 -0.0305143 0.085503 71 
0.434179 -0.0305587 0.086272 61 
0.434659 -0.030667 0.08697 64 
0.434948 -0.030733 0.087716 67 
0.435382 -0.0308312 0.088428 75 
0.435335 -0.0308227 0.089258 79 
0.435434 -0.0308464 0.090052 76 
0.435147 -0.0307848 0.090938 78 
0.435872 -0.0309475 0.091582 82 
0.435972 -0.0309714 0.0923758 81 
0.43612 -0.0310062 0.0931582 76 
0.436028 -0.0309876 0.0939967 79 
0.436612 -0.031119 0.0946781 87 
0.436665 -0.0311327 0.0954828 95 
0.436235 -0.0310393 0.0963967 96 
0.436627 -0.0311281 0.0971236 97 
0.437069 -0.0312279 0.0978406 98 
0.437657 -0.0313603 0.0985262 92 
0.437907 -0.0314175 0.0992879 97 
0.437817 -0.0313995 0.100124 96 
0.437971 -0.0314354 0.100907 94 
0.438417 -0.0315362 0.101627 99 
0.438328 -0.0315184 0.102462 99 
0.439117 -0.0316953 0.103112 102 
0.439077 -0.0316884 0.103936 101 
0.439331 -0.0317467 0.1047 104 
0.439782 -0.0318485 0.105424 101 
0.439842 -0.0318636 0.106228 100 
0.440343 -0.0319767 0.106944 102 
0.440306 -0.0319703 0.107768 110 
0.440956 -0.0321166 0.108457 111 
0.441412 -0.0322196 0.109185 115 
0.441129 -0.0321587 0.110057 109 
