0.418278,-0.156325,0.198292,90
0.418257,-0.156317,0.199215,84
0.409596,-0.154642,-0.207093,9
0.404189,-0.151797,-0.203277,8
0.409938,-0.154827,-0.205435,7
0.408494,-0.154069,-0.203749,12
0.412267,-0.156058,-0.204828,13
0.412369,-0.156114,-0.203958,8
0.411333,-0.155571,-0.202494,9
0.412764,-0.156327,-0.20232,12
0.410078,-0.154915,-0.200005,10
0.411169,-0.155492,-0.199654,13
0.411178,-0.155499,-0.198743,13
0.407775,-0.153709,-0.196087,13
0.40811,-0.153888,-0.195352,14
0.418455,-0.159338,-0.199692,8
0.408549,-0.154124,-0.193762,10
0.410286,-0.155041,-0.193729,12
0.409969,-0.154876,-0.192663,12
0.415241,-0.157655,-0.19438,11
0.411635,-0.155758,-0.191675,12
0.412165,-0.15604,-0.191027,18
0.415993,-0.158058,-0.191997,17
0.412046,-0.155982,-0.189152,22
0.412767,-0.156364,-0.188595,18
0.414157,-0.157098,-0.188359,20
0.415077,-0.157585,-0.187891,18
0.415473,-0.157796,-0.187169,16
0.413054,-0.156524,-0.185104,20
0.413684,-0.156858,-0.184498,20
0.41129,-0.1556,-0.182462,21
0.414329,-0.157203,-0.182989,18
0.413061,-0.156537,-0.181491,22
0.413312,-0.156672,-0.180706,20
0.412618,-0.156308,-0.179483,24
0.413058,-0.156542,-0.178786,26
0.414496,-0.157302,-0.178545,24
0.414987,-0.157563,-0.177867,21
0.413483,-0.156773,-0.176282,23
0.414257,-0.157183,-0.175734,20
0.413373,-0.15672,-0.174438,23
0.414575,-0.157355,-0.174078,26
0.41703,-0.158651,-0.174271,21
0.414513,-0.157327,-0.172255,26
0.414578,-0.157364,-0.171388,25
0.414976,-0.157576,-0.170666,24
0.414234,-0.157187,-0.169447,26
0.41449,-0.157324,-0.168664,28
0.414983,-0.157586,-0.167983,28
0.41311,-0.156602,-0.166288,31
0.413036,-0.156565,-0.165368,27
0.414376,-0.157273,-0.165048,26
0.413924,-0.157037,-0.163967,23
0.415889,-0.158075,-0.163903,33
0.413917,-0.157038,-0.162189,30
0.414174,-0.157176,-0.161409,30
0.415237,-0.157738,-0.160961,27
0.415591,-0.157927,-0.160218,31
0.415185,-0.157715,-0.159165,31
0.414828,-0.157529,-0.158133,36
0.414189,-0.157195,-0.156991,32
0.414636,-0.157433,-0.156288,31
0.413388,-0.156777,-0.154907,27
0.413412,-0.156792,-0.154037,31
0.413858,-0.15703,-0.153335,33
0.414306,-0.157268,-0.152631,32
0.412735,-0.156442,-0.15114,37
0.41248,-0.15631,-0.150166,39
0.412459,-0.156301,-0.149284,43
0.412159,-0.156145,-0.148297,43
0.412324,-0.156235,-0.147488,45
0.412584,-0.156374,-0.146715,38
0.411588,-0.155851,-0.14547,43
0.412032,-0.156088,-0.144768,44
0.411921,-0.156031,-0.143858,40
0.413673,-0.156957,-0.143638,44
0.411097,-0.155601,-0.141821,42
0.41168,-0.155911,-0.14117,46
0.412778,-0.156491,-0.140703,37
0.411322,-0.155727,-0.139312,42
0.412278,-0.156233,-0.138792,45
0.413519,-0.156889,-0.138369,47
0.412245,-0.15622,-0.137053,50
0.411674,-0.155921,-0.135989,45
0.412353,-0.156281,-0.135366,55
0.412524,-0.156373,-0.134563,50
0.41414,-0.157227,-0.134259,51
0.413891,-0.157098,-0.13331,48
0.413177,-0.156724,-0.132204,45
0.41321,-0.156743,-0.131354,48
0.413289,-0.156788,-0.130521,50
0.413416,-0.156856,-0.129703,53
0.413077,-0.15668,-0.128732,53
0.413297,-0.156798,-0.127946,59
0.412821,-0.156549,-0.126933,58
0.413181,-0.156741,-0.126193,54
0.413216,-0.156762,-0.125349,56
0.41367,-0.157004,-0.124638,55
0.415155,-0.157788,-0.124255,58
0.414535,-0.157464,-0.1232,56
0.414059,-0.157215,-0.122194,61
0.414422,-0.157409,-0.121452,63
0.41418,-0.157283,-0.120522,58
0.415434,-0.157946,-0.120053,59
0.414863,-0.157648,-0.119023,61
0.414808,-0.157621,-0.118152,60
0.414941,-0.157693,-0.117338,65
0.415448,-0.157963,-0.116636,72
0.416099,-0.158308,-0.115975,68
0.415481,-0.157985,-0.114939,65
0.415194,-0.157835,-0.114002,63
0.416267,-0.158403,-0.113462,68
0.416168,-0.158353,-0.11258,77
0.41701,-0.158799,-0.111968,72
0.417147,-0.158874,-0.111153,67
0.416013,-0.158278,-0.10998,63
0.41728,-0.158948,-0.109483,70
0.417371,-0.158998,-0.108656,74
0.416849,-0.158725,-0.10766,76
0.416893,-0.158751,-0.106822,77
0.417315,-0.158975,-0.106086,81
0.417597,-0.159126,-0.105311,83
0.417642,-0.159152,-0.104472,90
0.418351,-0.159528,-0.103809,84
0.418683,-0.159705,-0.103045,82
0.418113,-0.159407,-0.102046,79
0.418872,-0.159809,-0.101391,87
0.420016,-0.160415,-0.100833,91
0.419826,-0.160317,-0.0999318,97
0.419684,-0.160244,-0.0990445,93
0.419877,-0.160348,-0.0982416,97
0.419831,-0.160326,-0.0973796,95
0.420024,-0.16043,-0.0965767,97
0.420505,-0.160686,-0.0958431,104
0.421036,-0.160968,-0.0951198,104
0.421232,-0.161073,-0.0943152,103
0.421668,-0.161306,-0.093567,101
0.422155,-0.161564,-0.092829,98
0.422112,-0.161544,-0.0919668,109
0.421443,-0.161194,-0.0909622,107
0.421258,-0.161098,-0.0900703,108
0.421937,-0.161458,-0.0893744,110
0.421752,-0.161363,-0.0884833,106
0.422,-0.161496,-0.0876892,106
0.422683,-0.161858,-0.0869894,103
0.423417,-0.162247,-0.0862983,106
0.423183,-0.162126,-0.0853972,106
0.424017,-0.162568,-0.0847239,106
0.423493,-0.162294,-0.0837625,113
0.424767,-0.162968,-0.0831774,112
0.424876,-0.163028,-0.0823475,112
0.425816,-0.163526,-0.0816868,110
0.42524,-0.163224,-0.0807174,115
0.425693,-0.163465,-0.0799557,121
0.425901,-0.163577,-0.0791444,123
0.426061,-0.163664,-0.0783232,121
0.425977,-0.163622,-0.0774546,118
0.426925,-0.164124,-0.0767835,110
0.426693,-0.164004,-0.0758865,114
0.426758,-0.16404,-0.0750461,121
0.427118,-0.164232,-0.0742603,123
0.427627,-0.164503,-0.0735005,125
0.426806,-0.164072,-0.0724995,129
0.427415,-0.164395,-0.0717566,128
0.428025,-0.164719,-0.0710119,125
0.426565,-0.163951,-0.0699054,125
0.426879,-0.164119,-0.0691098,128
0.427391,-0.164391,-0.0683467,129
0.427263,-0.164326,-0.0674749,130
0.427776,-0.164599,-0.0667099,130
0.428391,-0.164925,-0.0659594,145
0.427474,-0.164444,-0.0649604,136
0.42725,-0.164328,-0.0640756,135
0.427667,-0.16455,-0.0632925,135
0.427345,-0.164382,-0.0623939,141
0.427025,-0.164215,-0.0614971,131
0.427197,-0.164308,-0.0606761,138
0.426681,-0.164039,-0.0597528,138
0.426266,-0.163822,-0.0588466,131
0.425608,-0.163477,-0.0579075,135
0.425781,-0.16357,-0.0570895,133
0.42571,-0.163535,-0.0562369,136
0.425348,-0.163346,-0.0553449,137
0.423873,-0.16257,-0.0543038,141
0.424095,-0.162689,-0.0534957,147
0.423303,-0.162274,-0.0525539,146
0.422612,-0.161911,-0.0516287,151
0.422306,-0.161752,-0.0507557,146
0.421286,-0.161215,-0.0497949,146
0.420889,-0.161008,-0.0489152,147
0.421158,-0.161152,-0.048118,146
0.421,-0.161071,-0.0472692,151
0.421081,-0.161116,-0.046449,155
0.420401,-0.160759,-0.045542,153
0.420435,-0.160779,-0.044718,145
0.419996,-0.16055,-0.0438421,148
0.420695,-0.16092,-0.0430911,151
0.420445,-0.160791,-0.0422371,153
0.420197,-0.160662,-0.0413844,156
0.420376,-0.160758,-0.0405764,149
0.42046,-0.160805,-0.0397585,154
0.420593,-0.160877,-0.0389452,158
0.420299,-0.160724,-0.0380908,155
0.420148,-0.160647,-0.0372513,159
0.419668,-0.160395,-0.0363824,162
0.420322,-0.160743,-0.035617,163
0.420268,-0.160716,-0.0347872,166
0.42064,-0.160915,-0.0339942,163
0.420634,-0.160914,-0.0331684,166
0.421484,-0.161365,-0.0324119,161
0.420956,-0.161088,-0.0315437,167
0.420857,-0.161038,-0.0307107,169
0.420948,-0.161088,-0.0298925,170
0.420992,-0.161113,-0.0290706,166
0.420847,-0.161039,-0.0282354,168
0.421035,-0.16114,-0.0274236,165
0.420654,-0.160941,-0.0265736,166
0.420653,-0.160943,-0.0257497,166
0.421269,-0.16127,-0.0249641,166
0.42251,-0.161927,-0.0242133,172
0.42127,-0.161275,-0.0233144,169
0.421414,-0.161353,-0.0224978,167
0.421178,-0.16123,-0.0216603,171
0.421608,-0.16146,-0.0208582,176
0.422518,-0.161942,-0.020078,174
0.421662,-0.161492,-0.0192108,174
0.421714,-0.161522,-0.0183882,175
0.422386,-0.161879,-0.0175921,175
0.421866,-0.161606,-0.0167446,172
0.422015,-0.161687,-0.0159253,170
0.422117,-0.161743,-0.0151037,175
0.422745,-0.162076,-0.0142999,175
0.422704,-0.162057,-0.0134719,172
0.42348,-0.162469,-0.0126689,180
0.423344,-0.162399,-0.011837,177
0.422873,-0.162153,-0.0109968,178
0.423267,-0.162362,-0.0101796,174
0.423613,-0.162547,-0.00935968,177
0.424637,-0.16309,-0.00855188,176
0.424697,-0.163124,-0.00772263,178
0.423455,-0.16247,-0.00687266,174
0.425108,-0.163345,-0.00606747,178
0.423625,-0.162564,-0.00521907,179
0.424554,-0.163057,-0.00439979,174
0.423749,-0.162634,-0.0035638,180
0.42386,-0.162695,-0.00273605,178
0.424213,-0.162883,-0.00190861,178
0.425002,-0.163302,-0.00108018,185
0.42497,-0.163287,-0.000249245,184
0.425084,-0.163349,0.000582017,182
0.424763,-0.163182,0.00141152,180
0.424588,-0.163092,0.00224077,182
0.424414,-0.163002,0.00306931,181
0.423806,-0.162683,0.0038922,176
0.423249,-0.162391,0.00471326,183
0.422886,-0.162201,0.00553506,183
0.422285,-0.161886,0.00635117,182
0.4214,-0.161421,0.0071592,173
0.42128,-0.16136,0.00798031,182
0.420306,-0.160848,0.00878051,180
0.420282,-0.160837,0.00960146,183
0.419597,-0.160477,0.0104038,184
0.419385,-0.160368,0.0112176,184
0.418986,-0.160159,0.0120246,185
0.419011,-0.160174,0.0128446,183
0.419084,-0.160215,0.0136665,188
0.418969,-0.160156,0.0144815,190
0.418948,-0.160147,0.0153001,187
0.418319,-0.159817,0.0160925,190
0.418112,-0.15971,0.0169014,187
0.418609,-0.159974,0.0177427,191
0.417235,-0.159251,0.0184942,198
0.416566,-0.1589,0.0192763,192
0.415993,-0.158599,0.0200607,194
0.415607,-0.158397,0.0208532,191
0.415591,-0.158391,0.0216656,190
0.415298,-0.158239,0.0224615,193
0.413676,-0.157384,0.0231743,191
0.413707,-0.157403,0.0239859,192
0.413693,-0.157397,0.0247949,184
0.41295,-0.157007,0.0255543,190
0.412755,-0.156906,0.0263492,187
0.412879,-0.156973,0.0271665,186
0.412503,-0.156777,0.0279473,190
0.412401,-0.156725,0.0287477,189
0.412254,-0.156649,0.0295442,189
0.412017,-0.156526,0.0303331,187
0.412234,-0.156643,0.0311588,194
0.412407,-0.156736,0.0319817,188
0.411808,-0.156422,0.0327386,193
0.40995,-0.155443,0.0333811,192
0.409449,-0.15518,0.0341396,186
0.409531,-0.155226,0.0349506,193
0.40939,-0.155153,0.0357408,189
0.409742,-0.155341,0.0365787,191
0.409557,-0.155246,0.0373648,190
0.409059,-0.154985,0.0381186,190
0.409368,-0.15515,0.0389542,184
0.409588,-0.155268,0.0397819,189
0.409225,-0.155079,0.040548,189
0.408329,-0.154607,0.041254,187
0.409264,-0.155103,0.0421618,188
0.409217,-0.15508,0.0429617,188
0.4085,-0.154704,0.0436837,186
0.408498,-0.154705,0.0444876,183
0.40783,-0.154353,0.0452114,182
0.40881,-0.154873,0.0461349,185
0.409078,-0.155017,0.046974,182
0.409079,-0.15502,0.0477805,188
0.408767,-0.154857,0.048547,183
0.408947,-0.154954,0.0493771,181
0.409397,-0.155194,0.0502441,183
0.408415,-0.154677,0.0509195,182
0.408954,-0.154964,0.0518002,178
0.408288,-0.154614,0.0525151,183
0.408604,-0.154783,0.0533668,181
0.408877,-0.154929,0.0542139,182
0.407855,-0.154391,0.0548736,179
0.407726,-0.154326,0.0556615,184
0.407999,-0.154472,0.0565095,185
0.408095,-0.154524,0.0573319,186
0.408503,-0.154742,0.0582034,183
0.408824,-0.154914,0.0590633,179
0.409101,-0.155062,0.0599179,181
0.407946,-0.154454,0.0605438,185
0.40858,-0.154791,0.0614567,179
0.409037,-0.155035,0.0623434,181
0.408286,-0.15464,0.0630303,178
0.408967,-0.155002,0.0639571,178
0.408709,-0.154868,0.064726,176
0.408899,-0.15497,0.065572,183
0.408284,-0.154647,0.0662777,182
0.408744,-0.154892,0.0671723,180
0.408711,-0.154877,0.0679807,180
0.409353,-0.155218,0.0689121,176
0.408469,-0.154753,0.0695656,178
0.409426,-0.155261,0.0705588,184
0.409801,-0.155461,0.0714468,174
0.409546,-0.155328,0.0722166,178
0.409922,-0.155529,0.0731076,179
0.410074,-0.155612,0.0739568,180
0.409955,-0.155551,0.0747537,178
0.409565,-0.155347,0.0754967,175
0.41017,-0.155669,0.0764387,179
0.410505,-0.155848,0.0773288,182
0.410705,-0.155956,0.078193,176
0.410316,-0.155752,0.078936,171
0.411381,-0.156317,0.0799831,174
0.411949,-0.15662,0.0809299,169
0.411878,-0.156584,0.0817428,172
0.411169,-0.156212,0.0824177,177
0.411145,-0.156201,0.0832397,174
0.411167,-0.156215,0.0840722,170
0.41247,-0.156906,0.0851909,173
0.412402,-0.156872,0.086007,175
0.412701,-0.157032,0.0869068,172
0.413048,-0.157217,0.0878192,170
0.413073,-0.157233,0.0886592,169
0.413098,-0.157248,0.0895,166
0.413355,-0.157386,0.0903958,169
0.413936,-0.157695,0.0913706,166
0.413917,-0.157687,0.0922041,167
0.414873,-0.158195,0.0932745,165
0.41425,-0.157868,0.0939636,162
0.41479,-0.158155,0.0949372,165
0.415566,-0.158568,0.0959724,158
0.416017,-0.158808,0.0969301,162
0.416001,-0.158802,0.0977719,164
0.416408,-0.159019,0.0987221,165
0.41658,-0.159112,0.0996144,167
0.416801,-0.159231,0.10052,168
0.416834,-0.159251,0.101379,164
0.418001,-0.15987,0.102538,162
0.418178,-0.159966,0.103438,159
0.41845,-0.160112,0.104366,157
0.418581,-0.160183,0.105257,158
0.418807,-0.160305,0.106175,156
0.419321,-0.160578,0.107174,162
0.419597,-0.160727,0.10811,161
0.420932,-0.161435,0.109344,157
0.419912,-0.160898,0.109921,163
0.420383,-0.161149,0.110917,156
0.421678,-0.161836,0.112151,153
0.421573,-0.161782,0.112988,158
0.421178,-0.161576,0.113742,156
0.421752,-0.161881,0.114777,153
0.421309,-0.16165,0.115516,156
0.421642,-0.161828,0.116484,158
0.422364,-0.162212,0.117571,160
0.4227,-0.162392,0.118545,153
0.422452,-0.162263,0.119344,149
0.422155,-0.162108,0.120128,148
0.422541,-0.162314,0.121121,150
0.423124,-0.162625,0.122177,147
0.422828,-0.16247,0.122963,153
0.422972,-0.162549,0.123886,147
0.423313,-0.162731,0.124872,148
0.422871,-0.1625,0.125612,142
0.423163,-0.162657,0.126585,134
0.422869,-0.162503,0.127371,136
0.423309,-0.162739,0.128396,138
0.423212,-0.162689,0.129247,139
0.423409,-0.162796,0.130195,142
0.423557,-0.162876,0.131129,150
0.42351,-0.162853,0.131999,152
0.423217,-0.162701,0.132786,149
0.423023,-0.162601,0.133607,150
0.422536,-0.162345,0.134327,154
0.422392,-0.162271,0.135163,154
0.421614,-0.161862,0.135781,155
0.422399,-0.16228,0.136939,159
0.421378,-0.161742,0.13747,156
0.421724,-0.161927,0.138478,150
0.421582,-0.161854,0.139315,150
0.420614,-0.161344,0.139858,155
0.420425,-0.161247,0.140677,156
0.420625,-0.161355,0.141636,154
0.419661,-0.160847,0.142174,152
0.419716,-0.160879,0.143081,152
0.418756,-0.160374,0.143615,154
0.417946,-0.159947,0.144201,145
0.417282,-0.159598,0.144839,143
0.417097,-0.159503,0.145654,140
0.416675,-0.159282,0.14638,130
0.416348,-0.159111,0.14714,124
0.416977,-0.159446,0.148265,121
0.415081,-0.158446,0.148424,121
0.414474,-0.158127,0.149073,120
0.413587,-0.15766,0.149611,118
0.413831,-0.157791,0.150587,119
0.413934,-0.157848,0.151511,120
0.413425,-0.157581,0.152193,133
0.413058,-0.157389,0.152931,131
0.412318,-0.156999,0.153518,120
0.412421,-0.157056,0.154442,125
0.412056,-0.156866,0.155178,131
0.412394,-0.157047,0.156199,125
0.411051,-0.156338,0.156534,127
0.410782,-0.156198,0.157306,129
0.410653,-0.156132,0.158136,133
0.410618,-0.156116,0.159004,127
0.410397,-0.156001,0.159796,122
0.409759,-0.155666,0.160412,121
0.409956,-0.155773,0.161379,121
0.410293,-0.155953,0.162407,120
0.409934,-0.155766,0.16314,120
0.410365,-0.155996,0.164212,121
0.410053,-0.155833,0.164965,115
0.409834,-0.155719,0.165759,111
0.410312,-0.155975,0.166856,104
0.410233,-0.155935,0.167712,107
0.410854,-0.156266,0.168877,109
0.410729,-0.156202,0.169715,104
0.410371,-0.156015,0.17045,109
0.410573,-0.156124,0.171435,99
0.411197,-0.156456,0.172611,98
0.411307,-0.156517,0.173558,100
0.411323,-0.156528,0.174465,100
0.41181,-0.156788,0.175587,104
0.411452,-0.156601,0.176324,108
0.410953,-0.156339,0.176996,103
0.412006,-0.156898,0.178386,97
0.412166,-0.156985,0.179365,97
0.41261,-0.157223,0.18048,99
0.412488,-0.15716,0.18133,97
0.413124,-0.157499,0.18254,100
0.41343,-0.157663,0.183596,96
0.415028,-0.158511,0.185273,95
0.41414,-0.158044,0.185764,100
0.414209,-0.158083,0.186713,93
0.414375,-0.158173,0.187711,95
0.41435,-0.158162,0.188617,98
0.415623,-0.158838,0.19016,98
0.414972,-0.158496,0.190763,99
0.415816,-0.158945,0.192103,92
0.41613,-0.159114,0.193185,96
0.416495,-0.159309,0.194294,99
0.415794,-0.15894,0.194871,96
0.415723,-0.158905,0.195764,121
0.416621,-0.159383,0.197148,85
0.416648,-0.1594,0.198094,89
0.416967,-0.159571,0.19919,84
0.411289,-0.159422,-0.20867,8
0.408609,-0.157985,-0.206301,10
0.412442,-0.160045,-0.207434,8
0.403638,-0.155323,-0.201814,11
0.411455,-0.15952,-0.205054,11
0.407333,-0.15731,-0.201953,14
0.406878,-0.157069,-0.2008,10
0.40155,-0.154211,-0.197101,11
0.408895,-0.158156,-0.20003,13
0.413923,-0.160856,-0.201723,10
0.410132,-0.158824,-0.19884,12
0.407017,-0.157155,-0.196324,10
0.408932,-0.158185,-0.196397,14
0.408243,-0.157817,-0.195135,10
0.407975,-0.157676,-0.194091,11
0.4078,-0.157584,-0.193096,10
0.407904,-0.157642,-0.192243,14
0.410905,-0.159255,-0.192838,12
0.408716,-0.158083,-0.190838,17
0.411776,-0.159728,-0.191448,16
0.411929,-0.159812,-0.190612,12
0.409031,-0.158259,-0.18828,16
0.413422,-0.160618,-0.18952,16
0.412436,-0.160092,-0.188129,19
0.410845,-0.15924,-0.18645,17
0.409688,-0.158621,-0.184989,21
0.412995,-0.160398,-0.18567,17
0.413959,-0.160918,-0.185221,22
0.414688,-0.161312,-0.184657,20
0.410444,-0.159036,-0.181745,19
0.412055,-0.159903,-0.181602,21
0.411833,-0.159786,-0.180596,21
0.413123,-0.160481,-0.180294,22
0.412854,-0.160339,-0.179266,23
0.41268,-0.160248,-0.178284,18
0.412176,-0.15998,-0.177153,18
0.413325,-0.160599,-0.176777,20
0.413436,-0.160661,-0.175927,21
0.412177,-0.159987,-0.174459,25
0.4138,-0.160861,-0.174291,25
0.41221,-0.160009,-0.172682,28
0.413312,-0.160603,-0.172276,27
0.414135,-0.161048,-0.171743,24
0.414342,-0.161161,-0.170937,25
0.412987,-0.160436,-0.169447,29
0.411642,-0.159716,-0.167969,35
0.412977,-0.160435,-0.167657,31
0.412996,-0.160447,-0.166773,31
0.412356,-0.160106,-0.165608,28
0.413789,-0.160878,-0.165329,30
0.413195,-0.160561,-0.164186,25
0.413546,-0.160752,-0.163445,30
0.413708,-0.160841,-0.162623,32
0.411895,-0.15987,-0.16098,31
0.412572,-0.160236,-0.160376,32
0.41448,-0.161262,-0.160277,29
0.412522,-0.160213,-0.158587,31
0.411608,-0.159725,-0.157332,31
0.410747,-0.159265,-0.156102,33
0.412542,-0.160231,-0.155948,29
0.413787,-0.160902,-0.155565,35
0.411934,-0.159909,-0.153944,34
0.411771,-0.159824,-0.153002,35
0.410819,-0.159314,-0.15175,33
0.411773,-0.159829,-0.151249,37
0.411286,-0.15957,-0.150184,40
0.410662,-0.159237,-0.149069,45
0.411662,-0.159776,-0.148582,42
0.412341,-0.160143,-0.147968,40
0.411621,-0.159759,-0.146821,40
0.412907,-0.160452,-0.146435,39
0.412653,-0.160318,-0.145466,42
0.412261,-0.160109,-0.144447,43
0.41108,-0.159477,-0.143138,45
0.412036,-0.159993,-0.142623,50
0.412764,-0.160386,-0.14202,49
0.412559,-0.160278,-0.141076,46
0.413429,-0.160747,-0.140522,42
0.412384,-0.160188,-0.139276,43
0.412041,-0.160007,-0.138286,46
0.412257,-0.160125,-0.137497,52
0.41238,-0.160193,-0.136675,51
0.412318,-0.160162,-0.135788,47
0.411931,-0.159956,-0.134789,51
0.413546,-0.160826,-0.134486,46
0.412226,-0.160119,-0.133166,50
0.412816,-0.160438,-0.132506,54
0.413315,-0.160708,-0.131812,55
0.41433,-0.161256,-0.131292,54
0.415256,-0.161756,-0.130737,49
0.414022,-0.161095,-0.12946,60
0.415088,-0.16167,-0.12895,56
0.413482,-0.160809,-0.127558,64
0.41361,-0.16088,-0.126739,65
0.414206,-0.161203,-0.126072,60
0.414007,-0.161098,-0.125148,56
0.415592,-0.161952,-0.124795,60
0.415157,-0.16172,-0.123795,54
0.414865,-0.161565,-0.122841,58
0.415513,-0.161916,-0.122185,64
0.415268,-0.161786,-0.121248,62
0.415352,-0.161834,-0.120415,58
0.415108,-0.161705,-0.119481,60
0.4151,-0.161703,-0.118621,61
0.416315,-0.162358,-0.118131,65
0.415554,-0.161951,-0.117044,59
0.416819,-0.162633,-0.116564,61
0.41667,-0.162555,-0.115661,62
0.415721,-0.162047,-0.114524,66
0.416327,-0.162375,-0.113845,62
0.416604,-0.162526,-0.113069,65
0.416598,-0.162525,-0.112211,66
0.417255,-0.16288,-0.111542,69
0.417108,-0.162804,-0.110644,68
0.418528,-0.163569,-0.110186,67
0.417953,-0.163262,-0.109168,59
0.417664,-0.163109,-0.108233,69
0.417661,-0.16311,-0.107377,74
0.418371,-0.163493,-0.106714,74
0.417988,-0.16329,-0.105756,80
0.419176,-0.16393,-0.105219,78
0.419366,-0.164034,-0.104413,80
0.418887,-0.163779,-0.103431,79
0.419125,-0.163909,-0.102639,79
0.419029,-0.16386,-0.101759,83
0.41965,-0.164196,-0.101065,82
0.419316,-0.164019,-0.100125,90
0.420562,-0.16469,-0.0995857,90
0.419988,-0.164384,-0.0985869,89
0.420469,-0.164645,-0.0978522,92
0.420855,-0.164854,-0.0970927,95
0.421676,-0.165298,-0.0964378,93
0.421053,-0.164965,-0.0954317,104
0.422069,-0.165513,-0.0948204,105
0.421494,-0.165206,-0.0938285,97
0.421932,-0.165444,-0.0930774,102
0.422372,-0.165683,-0.0923251,98
0.423493,-0.166288,-0.0917283,104
0.42345,-0.166267,-0.0908617,101
0.423748,-0.166429,-0.0900728,102
0.423317,-0.166199,-0.0891199,104
0.423908,-0.166519,-0.0883958,108
0.423672,-0.166395,-0.0874882,108
0.424362,-0.166768,-0.0867833,113
0.423543,-0.16633,-0.0857512,112
0.423892,-0.16652,-0.084972,115
0.425269,-0.167262,-0.0844084,112
0.425132,-0.167191,-0.0835233,110
0.425339,-0.167304,-0.0827102,115
0.425693,-0.167496,-0.0819269,119
0.426098,-0.167716,-0.0811527,122
0.426651,-0.168016,-0.080407,115
0.426614,-0.167998,-0.0795424,123
0.426775,-0.168087,-0.0787172,120
0.427036,-0.168229,-0.0779109,122
0.427247,-0.168345,-0.0770946,118
0.428302,-0.168914,-0.0764376,120
0.42797,-0.168738,-0.0755167,114
0.428532,-0.169042,-0.0747631,125
0.428399,-0.168973,-0.0738804,124
0.427919,-0.168717,-0.0729359,127
0.428085,-0.168808,-0.0721093,126
0.428798,-0.169194,-0.071379,126
0.428369,-0.168965,-0.0704467,122
0.428189,-0.168871,-0.0695597,128
0.42801,-0.168777,-0.0686739,123
0.428426,-0.169003,-0.0678893,125
0.428298,-0.168936,-0.0670129,131
0.428319,-0.16895,-0.0661619,133
0.42834,-0.168963,-0.0653112,138
0.428263,-0.168924,-0.0644451,138
0.427889,-0.168725,-0.063533,130
0.428012,-0.168793,-0.0626997,138
0.42764,-0.168595,-0.0617907,143
0.427664,-0.168611,-0.0609434,138
0.427541,-0.168546,-0.0600743,130
0.426974,-0.168244,-0.0591411,129
0.426558,-0.168022,-0.0582323,126
0.425555,-0.167485,-0.0572421,131
0.425436,-0.167423,-0.0563804,132
0.426148,-0.167809,-0.0556345,137
0.424517,-0.166934,-0.054567,140
0.42377,-0.166534,-0.053625,147
0.423654,-0.166474,-0.0527698,152
0.423345,-0.16631,-0.0518903,153
0.421453,-0.165295,-0.0508105,151
0.421675,-0.165416,-0.0500041,152
0.420846,-0.164973,-0.0490675,151
0.420545,-0.164813,-0.0481986,156
0.420767,-0.164935,-0.0473936,157
0.421038,-0.165083,-0.0465936,154
0.4205,-0.164795,-0.0456998,153
0.420439,-0.164764,-0.0448622,158
0.420046,-0.164555,-0.0439885,148
0.420603,-0.164857,-0.0432197,154
0.420591,-0.164853,-0.0423883,156
0.421485,-0.165336,-0.0416516,152
0.420616,-0.16487,-0.0407313,155
0.42132,-0.165251,-0.0399722,155
0.420406,-0.164761,-0.0390519,160
0.421396,-0.165296,-0.0383182,156
0.42053,-0.164833,-0.0374065,160
0.420237,-0.164677,-0.0365511,155
0.42118,-0.165187,-0.0358079,156
0.419985,-0.164546,-0.034874,160
0.420215,-0.164672,-0.0340668,161
0.420542,-0.164849,-0.0332669,159
0.420346,-0.164746,-0.0324235,164
0.420199,-0.164669,-0.0315849,158
0.420384,-0.164771,-0.0307726,163
0.420191,-0.164669,-0.0299314,171
0.420377,-0.164772,-0.0291187,166
0.420517,-0.164849,-0.0283022,165
0.420515,-0.16485,-0.0274755,167
0.420561,-0.164877,-0.0266521,171
0.420654,-0.164929,-0.0258318,172
0.421034,-0.165136,-0.0250289,171
0.42113,-0.165189,-0.0242075,168
0.421321,-0.165294,-0.0233914,170
0.421799,-0.165553,-0.0225907,173
0.421705,-0.165505,-0.0217573,172
0.421183,-0.165226,-0.0209023,172
0.421186,-0.16523,-0.0200756,175
0.421714,-0.165516,-0.0192739,171
0.421861,-0.165597,-0.0184528,177
0.422057,-0.165705,-0.0176333,180
0.421966,-0.165658,-0.0168013,177
0.422211,-0.165792,-0.0159829,176
0.422217,-0.165797,-0.0151546,181
0.422224,-0.165803,-0.0143265,179
0.421896,-0.165629,-0.0134875,176
0.422239,-0.165815,-0.0126704,178
0.422487,-0.165951,-0.0118492,177
0.422832,-0.166138,-0.0110296,177
0.423515,-0.166508,-0.0102168,173
0.423621,-0.166568,-0.0093884,173
0.423921,-0.166731,-0.00856347,178
0.423017,-0.166247,-0.00771573,177
0.4238,-0.16667,-0.00689852,175
0.424199,-0.166887,-0.00607277,179
0.424357,-0.166974,-0.00524258,176
0.423598,-0.166568,-0.004403,180
0.423757,-0.166655,-0.00357344,174
0.423579,-0.166562,-0.00274142,173
0.423305,-0.166417,-0.00190985,177
0.423465,-0.166505,-0.00107991,176
0.423626,-0.166594,-0.000249293,179
0.423595,-0.166579,0.000581421,178
0.423517,-0.166539,0.00141177,175
0.423005,-0.166266,0.00223866,174
0.423168,-0.166356,0.00306976,175
0.42338,-0.166472,0.00390214,176
0.423497,-0.166537,0.00473414,177
0.423517,-0.16655,0.00556517,180
0.423009,-0.166278,0.00638692,176
0.422646,-0.166085,0.00720948,175
0.42262,-0.166074,0.00803798,179
0.421161,-0.165291,0.00883188,179
0.422187,-0.165845,0.00968483,177
0.421208,-0.16532,0.0104854,181
0.420756,-0.165079,0.011298,182
0.420591,-0.164992,0.012118,186
0.420331,-0.164855,0.0129342,187
0.419081,-0.164184,0.013713,188
0.419201,-0.164251,0.0145399,193
0.420078,-0.164725,0.0153983,189
0.418361,-0.163803,0.0161489,187
0.417405,-0.16329,0.0169267,190
0.417479,-0.163333,0.0177493,189
0.417508,-0.16335,0.01857,191
0.41749,-0.163343,0.0193886,195
0.4171,-0.163134,0.0201873,192
0.415642,-0.162352,0.0209251,193
0.415534,-0.162296,0.0217348,194
0.414871,-0.161941,0.0225111,196
0.41458,-0.161787,0.0233077,193
0.414796,-0.161905,0.0241357,198
0.414552,-0.161776,0.0249343,190
0.41417,-0.161572,0.0257227,191
0.413928,-0.161444,0.0265194,188
0.414421,-0.161712,0.0273686,194
0.413996,-0.161485,0.0281515,190
0.412383,-0.160619,0.0288417,191
0.411691,-0.160248,0.0295978,191
0.411862,-0.160343,0.0304211,194
0.411308,-0.160046,0.0311851,191
0.411208,-0.159995,0.0319856,188
0.411335,-0.160065,0.0328056,190
0.411237,-0.160014,0.0336063,192
0.411138,-0.159963,0.0344067,193
0.409732,-0.159209,0.0350846,193
0.410853,-0.159814,0.0359985,190
0.409091,-0.158868,0.0366355,188
0.408951,-0.158794,0.0374273,187
0.408901,-0.158769,0.0382279,192
0.408538,-0.158576,0.038996,191
0.408668,-0.158648,0.0398151,192
0.40862,-0.158624,0.0406157,189
0.408527,-0.158576,0.0414114,190
0.408212,-0.158409,0.0421819,185
0.408477,-0.158554,0.043018,189
0.408341,-0.158483,0.0438086,188
0.406739,-0.157622,0.0444243,187
0.407715,-0.158149,0.0453458,182
0.407982,-0.158295,0.0461843,181
0.408026,-0.158321,0.0469964,182
0.408339,-0.158492,0.0478431,185
0.407894,-0.158254,0.0485932,184
0.407985,-0.158305,0.0494123,182
0.407898,-0.15826,0.0502083,179
0.408079,-0.15836,0.0510406,184
0.408082,-0.158363,0.0518495,181
0.40813,-0.158391,0.052665,182
0.407465,-0.158035,0.0533795,179
0.408094,-0.158376,0.0542784,180
0.408143,-0.158405,0.0550954,184
0.408372,-0.15853,0.0559396,185
0.407842,-0.158247,0.0566706,182
0.408027,-0.158349,0.057509,183
0.408302,-0.158499,0.0583626,184
0.408399,-0.158553,0.0591897,186
0.40787,-0.15827,0.0599179,181
0.408102,-0.158397,0.0607669,180
0.408873,-0.158814,0.0617055,182
0.409738,-0.159282,0.0626634,179
0.408533,-0.158636,0.0632778,184
0.408498,-0.158619,0.0640864,181
0.408734,-0.158748,0.0649417,181
0.408207,-0.158466,0.0656656,183
0.408622,-0.158692,0.0665538,178
0.408679,-0.158725,0.0673802,182
0.408692,-0.158734,0.0681992,180
0.408705,-0.158743,0.0690188,178
0.408404,-0.158583,0.0697808,176
0.409003,-0.158907,0.0707101,178
0.408612,-0.158699,0.0714553,175
0.408493,-0.158637,0.072251,176
0.409003,-0.158914,0.0731686,178
0.409019,-0.158925,0.0739921,173
0.409668,-0.159276,0.0749412,175
0.409504,-0.15919,0.0757311,175
0.409657,-0.159275,0.0765847,175
0.410992,-0.159996,0.077681,180
0.41133,-0.16018,0.0785776,173
0.410712,-0.159849,0.0792765,177
0.410413,-0.15969,0.0800406,175
0.409571,-0.159239,0.0806882,182
0.410955,-0.159986,0.0818114,176
0.410657,-0.159828,0.0825757,175
0.411226,-0.160136,0.0835294,175
0.411157,-0.160101,0.0843447,176
0.411729,-0.160411,0.0853035,171
0.411981,-0.16055,0.0861932,169
0.412097,-0.160614,0.0870532,173
0.412351,-0.160753,0.0879462,166
0.41233,-0.160744,0.0887767,168
0.412816,-0.161008,0.0897267,168
0.412981,-0.161099,0.0906031,169
0.413609,-0.161439,0.0915915,164
0.413544,-0.161406,0.0924159,165
0.414035,-0.161673,0.0933762,160
0.414064,-0.161691,0.0942253,162
0.414325,-0.161834,0.0951328,163
0.414681,-0.162027,0.0960656,161
0.414897,-0.162146,0.0969654,165
0.416288,-0.162897,0.0981651,167
0.416084,-0.16279,0.0989627,162
0.416634,-0.163088,0.0999548,169
0.416431,-0.162981,0.100753,163
0.417361,-0.163484,0.10185,162
0.418107,-0.163888,0.102902,166
0.417524,-0.163577,0.103603,160
0.417891,-0.163777,0.104558,157
0.418164,-0.163926,0.105489,157
0.418725,-0.16423,0.106501,162
0.419048,-0.164407,0.107451,160
0.419325,-0.164558,0.10839,153
0.419699,-0.164761,0.109357,158
0.420411,-0.165147,0.110423,159
0.420836,-0.165379,0.11141,156
0.420925,-0.165429,0.112304,159
0.421255,-0.165609,0.113268,162
0.421297,-0.165633,0.11415,158
0.420999,-0.165475,0.114933,158
0.423036,-0.166575,0.116408,151
0.421811,-0.165917,0.116918,157
0.421708,-0.165864,0.117761,153
0.421752,-0.16589,0.118648,162
0.422283,-0.166178,0.119685,156
0.421938,-0.165995,0.120456,154
0.422911,-0.166521,0.121634,143
0.423104,-0.166627,0.122573,151
0.423249,-0.166708,0.123499,151
0.4231,-0.16663,0.124334,152
0.422951,-0.166552,0.125168,149
0.422999,-0.16658,0.126066,143
0.423342,-0.166767,0.12706,137
0.423538,-0.166875,0.128008,140
0.423145,-0.166665,0.128765,136
0.423047,-0.166615,0.129618,139
0.423294,-0.16675,0.130586,139
0.422608,-0.166383,0.131244,145
0.422855,-0.166518,0.132213,150
0.422661,-0.166416,0.133035,152
0.422761,-0.166472,0.133957,157
0.422323,-0.166238,0.134695,155
0.422277,-0.166216,0.135568,155
0.421645,-0.165877,0.136237,153
0.421209,-0.165645,0.136974,148
0.421409,-0.165755,0.137932,146
0.421023,-0.165549,0.138685,157
0.420736,-0.165396,0.139471,155
0.420498,-0.16527,0.140275,152
0.420114,-0.165066,0.141026,152
0.420217,-0.165124,0.141953,151
0.419109,-0.164529,0.142438,151
0.418439,-0.16417,0.143081,143
0.418012,-0.163942,0.143811,147
0.417971,-0.163922,0.144683,147
0.41769,-0.163773,0.145466,143
0.417697,-0.163779,0.146357,139
0.417177,-0.163501,0.147049,137
0.416945,-0.163379,0.147849,123
0.416954,-0.163385,0.148741,115
0.417202,-0.163522,0.149726,116
0.415919,-0.162832,0.15012,117
0.415119,-0.162403,0.150696,120
0.413991,-0.161797,0.151141,118
0.414426,-0.162034,0.152199,109
0.412878,-0.161202,0.152472,108
0.412465,-0.160982,0.153192,112
0.41351,-0.161547,0.154497,125
0.412438,-0.160972,0.154952,124
0.412214,-0.160853,0.155747,131
0.412271,-0.160886,0.156657,129
0.411579,-0.160515,0.15726,124
0.410797,-0.160096,0.157824,124
0.410668,-0.160029,0.158656,127
0.410074,-0.159711,0.159295,123
0.410272,-0.15982,0.160263,127
0.409819,-0.159578,0.160959,121
0.409367,-0.159337,0.161654,124
0.410355,-0.159872,0.162962,112
0.410415,-0.159906,0.163877,110
0.409591,-0.159464,0.164412,107
0.410209,-0.159799,0.165569,105
0.40999,-0.159683,0.166365,104
0.41075,-0.160096,0.167591,107
0.410952,-0.160207,0.168574,107
0.409893,-0.159638,0.169001,107
0.410328,-0.159875,0.170089,106
0.410297,-0.159861,0.170971,104
0.411861,-0.160706,0.172571,103
0.410797,-0.160135,0.172991,102
0.411142,-0.160323,0.174048,100
0.410315,-0.15988,0.174572,101
0.411129,-0.160321,0.175846,97
0.411335,-0.160434,0.176844,94
0.411825,-0.160701,0.177976,100
0.411231,-0.160383,0.178605,106
0.41191,-0.160751,0.179829,104
0.412071,-0.16084,0.180813,99
0.411854,-0.160726,0.18162,95
0.411922,-0.160765,0.182562,95
0.412558,-0.16111,0.183778,97
0.412722,-0.161201,0.18477,100
0.413601,-0.161677,0.186109,93
0.413432,-0.161588,0.186945,94
0.413693,-0.161732,0.18799,95
0.412857,-0.161283,0.1885,93
0.41441,-0.162123,0.190184,93
0.414338,-0.162086,0.191071,103
0.414362,-0.162102,0.192007,101
0.414627,-0.162247,0.193065,99
0.415569,-0.162758,0.194464,99
0.41545,-0.162696,0.195334,89
0.415331,-0.162634,0.196204,126
0.415647,-0.162807,0.197296,94
0.415626,-0.162798,0.198218,95
0.415507,-0.162736,0.199091,89
0.298535,-0.101681,-0.14842,7
0.313529,-0.109882,-0.155791,10
0.406572,-0.160764,-0.20496,13
0.409664,-0.162457,-0.205698,14
0.40719,-0.161106,-0.203456,10
0.405993,-0.160454,-0.201904,10
0.407113,-0.161069,-0.201582,12
0.407214,-0.161127,-0.20072,16
0.404685,-0.159746,-0.198483,10
0.405521,-0.160206,-0.198011,10
0.40673,-0.160869,-0.19773,8
0.409208,-0.162227,-0.198099,12
0.407956,-0.161544,-0.19654,16
0.410637,-0.163013,-0.197,15
0.410222,-0.162788,-0.195872,12
0.412171,-0.163857,-0.195944,16
0.406054,-0.160513,-0.191941,15
0.406618,-0.160824,-0.19132,11
0.409512,-0.162409,-0.191862,18
0.408542,-0.161881,-0.19047,16
0.407208,-0.161154,-0.188903,19
0.409592,-0.16246,-0.189175,20
0.411108,-0.163291,-0.18901,22
0.410601,-0.163017,-0.187853,25
0.409115,-0.162206,-0.186224,22
0.409128,-0.162215,-0.185326,21
0.409795,-0.162583,-0.184744,20
0.410229,-0.162823,-0.184048,20
0.41043,-0.162935,-0.18324,20
0.410069,-0.16274,-0.182165,23
0.411021,-0.163263,-0.181712,22
0.412356,-0.163995,-0.181435,22
0.409878,-0.162642,-0.179374,24
0.411064,-0.163293,-0.179026,27
0.409675,-0.162536,-0.177483,24
0.411095,-0.163314,-0.177239,23
0.412524,-0.164099,-0.176993,24
0.410704,-0.163105,-0.175264,25
0.411894,-0.163759,-0.174906,29
0.414375,-0.165119,-0.175125,24
0.410193,-0.162833,-0.172347,26
0.410677,-0.1631,-0.17167,28
0.410508,-0.16301,-0.170701,22
0.410246,-0.162868,-0.169693,28
0.412138,-0.163906,-0.169633,32
0.412109,-0.163892,-0.168726,26
0.410441,-0.162982,-0.167108,29
0.411254,-0.163429,-0.16657,28
0.410526,-0.163033,-0.165368,29
0.410872,-0.163225,-0.164628,30
0.41164,-0.163647,-0.164067,29
0.411099,-0.163354,-0.162949,32
0.411634,-0.163649,-0.162288,34
0.411935,-0.163816,-0.161527,32
0.410741,-0.163165,-0.160143,32
0.411089,-0.163357,-0.159404,33
0.410971,-0.163295,-0.158471,33
0.411273,-0.163462,-0.157712,31
0.411575,-0.16363,-0.156953,31
0.410712,-0.16316,-0.155722,30
0.410968,-0.163302,-0.154945,31
0.410898,-0.163266,-0.154037,29
0.412463,-0.164125,-0.153781,31
0.410574,-0.163093,-0.152153,39
0.411622,-0.163669,-0.151688,39
0.412723,-0.164274,-0.15124,38
0.412841,-0.164341,-0.150406,39
0.411977,-0.16387,-0.149193,41
0.412986,-0.164425,-0.148704,43
0.412683,-0.164261,-0.14771,40
0.413272,-0.164586,-0.147056,44
0.413486,-0.164705,-0.14626,39
0.411828,-0.1638,-0.144761,45
0.412789,-0.164328,-0.144246,39
0.412255,-0.164039,-0.143174,40
0.411398,-0.163572,-0.141986,45
0.412125,-0.163972,-0.141382,45
0.412387,-0.164117,-0.140607,50
0.413023,-0.164468,-0.139966,50
0.41324,-0.164589,-0.139172,49
0.414398,-0.165224,-0.138714,47
0.413815,-0.164908,-0.137635,47
0.413611,-0.164798,-0.136691,52
0.413126,-0.164535,-0.135652,49
0.41297,-0.164452,-0.134729,50
0.413516,-0.164753,-0.134051,48
0.414158,-0.165107,-0.133403,48
0.413299,-0.164639,-0.132242,50
0.412584,-0.16425,-0.131134,51
0.413879,-0.164961,-0.130706,52
0.414241,-0.165161,-0.129961,52
0.415216,-0.165697,-0.129419,49
0.414544,-0.165331,-0.128329,52
0.414437,-0.165275,-0.127429,55
0.414659,-0.165399,-0.126636,58
0.414225,-0.165163,-0.125631,57
0.414636,-0.165391,-0.124901,60
0.415331,-0.165773,-0.124259,56
0.415934,-0.166105,-0.123586,54
0.414697,-0.165431,-0.122332,63
0.416102,-0.166202,-0.121909,61
0.416755,-0.166562,-0.121248,63
0.415988,-0.166144,-0.120147,60
0.416262,-0.166296,-0.119368,63
0.41668,-0.166527,-0.118633,68
0.416766,-0.166577,-0.117796,65
0.41709,-0.166756,-0.11703,61
0.418226,-0.16738,-0.116505,59
0.417265,-0.166857,-0.115357,62
0.417258,-0.166855,-0.114494,62
0.417775,-0.16714,-0.113783,63
0.417246,-0.166853,-0.112769,66
0.417478,-0.166982,-0.111975,65
0.417425,-0.166955,-0.1111,63
0.417896,-0.167215,-0.110374,64
0.418463,-0.167528,-0.109672,68
0.418507,-0.167554,-0.108824,73
0.418647,-0.167633,-0.108003,70
0.419073,-0.167869,-0.10726,72
0.418402,-0.167503,-0.106218,74
0.418734,-0.167687,-0.105449,78
0.419977,-0.16837,-0.104922,73
0.420264,-0.168529,-0.104137,72
0.419638,-0.168189,-0.103113,72
0.419973,-0.168375,-0.102342,77
0.420213,-0.168508,-0.101545,89
0.419877,-0.168326,-0.1006,91
0.42055,-0.168697,-0.0999133,86
0.42142,-0.169176,-0.0992729,83
0.421614,-0.169284,-0.0984616,86
0.422197,-0.169606,-0.0977457,86
0.422054,-0.16953,-0.0968503,89
0.422202,-0.169613,-0.0960266,94
0.422885,-0.169989,-0.0953311,93
0.422743,-0.169913,-0.0944369,89
0.42338,-0.170264,-0.0937274,94
0.422848,-0.169976,-0.092743,100
0.423633,-0.170407,-0.0920656,105
0.423736,-0.170466,-0.0912292,108
0.423254,-0.170204,-0.0902602,109
0.423358,-0.170263,-0.0894253,111
0.42356,-0.170376,-0.0886122,102
0.424251,-0.170757,-0.0879066,105
0.424503,-0.170897,-0.0871027,104
0.425002,-0.171172,-0.0863514,112
0.424863,-0.171099,-0.0854621,110
0.426053,-0.171753,-0.0848551,109
0.426112,-0.171787,-0.0840065,110
0.42627,-0.171876,-0.0831786,113
0.427022,-0.17229,-0.0824724,111
0.427033,-0.172299,-0.0816129,118
0.427392,-0.172497,-0.0808236,122
0.427901,-0.172778,-0.0800631,116
0.428163,-0.172924,-0.0792522,120
0.428275,-0.172988,-0.0784116,119
0.428688,-0.173216,-0.0776286,122
0.429052,-0.173417,-0.076835,119
0.429017,-0.1734,-0.0759652,120
0.428682,-0.173219,-0.0750403,123
0.428848,-0.173312,-0.0742092,120
0.429014,-0.173406,-0.0733778,123
0.429281,-0.173554,-0.0725642,127
0.429248,-0.173538,-0.0716968,124
0.428767,-0.173277,-0.0707512,124
0.428636,-0.173207,-0.0698687,121
0.428505,-0.173138,-0.0689873,120
0.429173,-0.173506,-0.0682415,127
0.428894,-0.173355,-0.0673354,128
0.429015,-0.173424,-0.0664967,133
0.428936,-0.173383,-0.0656254,133
0.428958,-0.173397,-0.064771,135
0.428981,-0.173412,-0.0639168,138
0.428356,-0.173072,-0.0629621,134
0.429227,-0.173551,-0.0622403,135
0.428802,-0.17332,-0.0613187,137
0.427982,-0.172873,-0.06034,133
0.427215,-0.172455,-0.0593731,133
0.426648,-0.172147,-0.058439,137
0.426478,-0.172056,-0.0575641,136
0.425915,-0.17175,-0.0566351,130
0.425844,-0.171713,-0.055777,133
0.425382,-0.171462,-0.0548661,141
0.424874,-0.171186,-0.0539512,147
0.423735,-0.170564,-0.0529553,151
0.423474,-0.170423,-0.0520789,151
0.422537,-0.169912,-0.0511173,150
0.421942,-0.169588,-0.0502031,149
0.421877,-0.169555,-0.0493573,150
0.422005,-0.169627,-0.0485354,158
0.421413,-0.169305,-0.0476273,151
0.421878,-0.169562,-0.046846,151
0.421527,-0.169372,-0.045969,151
0.421657,-0.169445,-0.0451481,149
0.420735,-0.168942,-0.04421,150
0.421248,-0.169225,-0.0434324,154
0.421283,-0.169247,-0.0426019,152
0.420412,-0.168771,-0.0416765,152
0.420878,-0.169029,-0.0408923,155
0.420295,-0.168712,-0.0400009,153
0.41981,-0.168448,-0.0391218,153
0.420847,-0.169018,-0.0383915,155
0.420505,-0.168833,-0.0375271,159
0.420782,-0.168987,-0.0367214,156
0.420536,-0.168854,-0.0358677,158
0.420386,-0.168774,-0.0350236,160
0.420141,-0.168642,-0.0341723,153
0.420611,-0.168902,-0.0333819,157
0.420605,-0.168901,-0.0325509,157
0.420886,-0.169057,-0.0317429,159
0.420691,-0.168952,-0.0308971,157
0.420259,-0.168717,-0.0300345,164
0.420588,-0.1689,-0.0292295,158
0.420157,-0.168666,-0.0283693,160
0.420393,-0.168797,-0.0275569,156
0.420201,-0.168694,-0.0267152,162
0.420771,-0.169009,-0.0259236,163
0.420961,-0.169115,-0.025106,169
0.420961,-0.169117,-0.0242763,164
0.420771,-0.169015,-0.0234357,166
0.420867,-0.16907,-0.022612,165
0.421012,-0.169151,-0.0217907,165
0.42245,-0.169942,-0.0210358,163
0.421686,-0.169525,-0.0201656,169
0.422168,-0.169792,-0.019358,169
0.421119,-0.169219,-0.0184788,173
0.421124,-0.169223,-0.0176499,171
0.421224,-0.16928,-0.0168249,171
0.421468,-0.169417,-0.0160053,170
0.422337,-0.169895,-0.0152078,169
0.422104,-0.169769,-0.0143682,168
0.422063,-0.169749,-0.013536,169
0.422551,-0.170019,-0.0127203,174
0.422656,-0.170078,-0.0118916,177
0.422665,-0.170085,-0.01106,175
0.422242,-0.169855,-0.010218,177
0.422204,-0.169837,-0.00938626,175
0.422791,-0.170161,-0.00856734,173
0.423092,-0.170328,-0.00774081,178
0.422911,-0.170231,-0.0069054,179
0.423068,-0.170319,-0.00607543,177
0.423612,-0.170619,-0.00524934,180
0.42474,-0.17124,-0.00442656,178
0.423881,-0.170771,-0.00358422,175
0.423703,-0.170676,-0.00274914,173
0.42367,-0.17066,-0.00191529,179
0.423879,-0.170777,-0.00108186,178
0.423461,-0.170549,-0.000248149,172
0.424204,-0.170959,0.000587405,173
0.424173,-0.170944,0.00142208,171
0.423804,-0.170744,0.00225417,176
0.42455,-0.171155,0.00309524,174
0.423649,-0.170663,0.00392048,177
0.423524,-0.170597,0.00475255,176
0.423399,-0.170531,0.00558414,179
0.422986,-0.170306,0.0064101,181
0.422815,-0.170215,0.00723919,177
0.423127,-0.170388,0.00807828,179
0.422909,-0.17027,0.00890592,184
0.422691,-0.170153,0.00973273,180
0.422379,-0.169984,0.010556,182
0.422259,-0.16992,0.0113839,180
0.421804,-0.169673,0.0122004,183
0.420446,-0.16893,0.0129837,182
0.419854,-0.168608,0.0137896,186
0.419785,-0.168573,0.0146135,188
0.420335,-0.168876,0.0154625,185
0.419366,-0.168347,0.0162485,188
0.419016,-0.168157,0.0170584,188
0.419091,-0.168201,0.0178872,187
0.41912,-0.168219,0.0187141,192
0.418019,-0.167617,0.0194829,189
0.416737,-0.166916,0.0202374,191
0.416674,-0.166883,0.0210548,192
0.416331,-0.166698,0.0218558,185
0.41613,-0.166589,0.022664,191
0.415836,-0.16643,0.0234657,189
0.415961,-0.166501,0.0242933,194
0.4159,-0.16647,0.0251092,192
0.41459,-0.165753,0.0258393,191
0.414024,-0.165445,0.0266167,189
0.413643,-0.165238,0.0274053,188
0.413356,-0.165083,0.0281995,193
0.412841,-0.164802,0.0289751,190
0.412784,-0.164774,0.029785,188
0.413003,-0.164896,0.0306172,195
0.411669,-0.164166,0.0313211,191
0.410798,-0.16369,0.032059,190
0.411197,-0.163912,0.0329048,188
0.410645,-0.163611,0.0336671,194
0.410366,-0.16346,0.0344523,192
0.410721,-0.163657,0.0352962,191
0.410171,-0.163357,0.0360549,194
0.41012,-0.163331,0.0368604,191
0.409889,-0.163207,0.0376478,187
0.409794,-0.163156,0.0384484,189
0.409249,-0.16286,0.0392018,188
0.40875,-0.162588,0.0399582,188
0.409556,-0.163032,0.0408545,190
0.409373,-0.162934,0.0416448,185
0.4091,-0.162786,0.0424245,187
0.409008,-0.162738,0.0432241,184
0.409231,-0.162863,0.0440605,189
0.409005,-0.162741,0.0448445,183
0.409455,-0.162989,0.0457099,183
0.408421,-0.162424,0.046394,183
0.40775,-0.162058,0.0471197,182
0.407617,-0.161987,0.0479116,184
0.408065,-0.162235,0.0487788,176
0.409009,-0.162755,0.0497138,180
0.408786,-0.162635,0.0504964,182
0.408161,-0.162294,0.0512233,181
0.408657,-0.162569,0.0521035,181
0.409246,-0.162894,0.052999,180
0.409025,-0.162775,0.0537816,177
0.407953,-0.162188,0.0544402,180
0.408271,-0.162365,0.0552992,185
0.409446,-0.163012,0.0562878,182
0.407835,-0.16213,0.0568597,179
0.407752,-0.162087,0.0576598,178
0.408028,-0.16224,0.0585157,180
0.407946,-0.162197,0.0593167,183
0.408133,-0.162302,0.0601608,186
0.40886,-0.162703,0.0610937,187
0.408285,-0.162389,0.061816,183
0.407936,-0.1622,0.0625737,184
0.408349,-0.162429,0.063459,183
0.409803,-0.163229,0.0645241,187
0.409724,-0.163187,0.0653307,183
0.408068,-0.162281,0.0658613,179
0.408304,-0.162413,0.0667206,177
0.409353,-0.16299,0.0677269,183
0.409637,-0.163148,0.0685995,181
0.408928,-0.162761,0.0692911,184
0.409348,-0.162994,0.07019,180
0.409589,-0.163128,0.0710574,179
0.409378,-0.163014,0.0718402,176
0.409484,-0.163075,0.0726836,179
0.409455,-0.163061,0.0735015,176
0.409788,-0.163246,0.0743911,176
0.409805,-0.163257,0.0752197,175
0.409415,-0.163045,0.0759669,178
0.410477,-0.16363,0.0770079,179
0.410359,-0.163568,0.0778116,179
0.410287,-0.16353,0.0786248,174
0.410352,-0.163568,0.0794669,177
0.410737,-0.163781,0.0803774,178
0.411397,-0.164146,0.0813491,176
0.410596,-0.163708,0.0820081,177
0.410937,-0.163898,0.0829136,175
0.412151,-0.164566,0.0840135,174
0.411302,-0.164102,0.0846597,173
0.41252,-0.164773,0.0857675,175
0.412544,-0.164788,0.08661,171
0.4122,-0.164601,0.0873687,172
0.41264,-0.164845,0.0883079,175
0.41322,-0.165166,0.0892822,173
0.413061,-0.16508,0.0900853,170
0.412995,-0.165046,0.0909103,166
0.413671,-0.16542,0.0919138,164
0.414071,-0.165641,0.0928538,167
0.413494,-0.165327,0.0935574,165
0.414174,-0.165702,0.0945689,160
0.414764,-0.166028,0.0955614,163
0.414747,-0.166021,0.0964048,162
0.415621,-0.166503,0.0974744,160
0.415935,-0.166677,0.098405,161
0.41559,-0.16649,0.0991681,165
0.41614,-0.166794,0.100163,163
0.416503,-0.166996,0.101111,159
0.416678,-0.167094,0.102012,162
0.416854,-0.167193,0.102915,162
0.416936,-0.16724,0.103793,160
0.416924,-0.167236,0.104648,167
0.418148,-0.16791,0.10584,162
0.418854,-0.168299,0.106895,169
0.418603,-0.168164,0.107689,168
0.418785,-0.168266,0.108603,166
0.419735,-0.16879,0.109736,164
0.419678,-0.168761,0.110587,159
0.420103,-0.168996,0.111576,158
0.420288,-0.1691,0.112498,156
0.42057,-0.169257,0.113451,154
0.42066,-0.169309,0.114348,152
0.420701,-0.169334,0.115233,153
0.421131,-0.169572,0.116234,153
0.421369,-0.169705,0.11718,150
0.421802,-0.169945,0.118186,151
0.421602,-0.169837,0.119003,151
0.422281,-0.170212,0.120088,153
0.422522,-0.170347,0.121042,153
0.422372,-0.170267,0.121877,146
0.422369,-0.170267,0.122757,146
0.423299,-0.170781,0.123932,153
0.422708,-0.170458,0.124629,151
0.42305,-0.170648,0.125622,142
0.422706,-0.170461,0.126397,149
0.42369,-0.171004,0.127601,144
0.423641,-0.170979,0.128473,147
0.423148,-0.170711,0.1292,146
0.422804,-0.170525,0.129975,142
0.422658,-0.170447,0.130814,140
0.422218,-0.170207,0.131555,147
0.422662,-0.170453,0.132594,155
0.422517,-0.170376,0.133435,153
0.422274,-0.170245,0.134242,152
0.422032,-0.170114,0.135049,150
0.422035,-0.170118,0.135941,143
0.421696,-0.169934,0.136714,143
0.421162,-0.169643,0.137418,149
0.421216,-0.169675,0.138328,148
0.421074,-0.1696,0.13917,146
0.420298,-0.169176,0.139784,149
0.420499,-0.169288,0.140748,149
0.420018,-0.169027,0.141466,158
0.419295,-0.168632,0.142094,157
0.418769,-0.168345,0.142792,157
0.418582,-0.168245,0.143614,155
0.418154,-0.168012,0.144346,158
0.41821,-0.168045,0.145258,154
0.418169,-0.168025,0.146134,149
0.417791,-0.16782,0.146883,138
0.416645,-0.167193,0.14734,130
0.416846,-0.167305,0.148307,121
0.417624,-0.167735,0.149498,116
0.415666,-0.166662,0.149634,118
0.415008,-0.166303,0.150268,114
0.415065,-0.166336,0.15118,118
0.41384,-0.165666,0.151588,120
0.413944,-0.165725,0.152518,117
0.412914,-0.165162,0.152997,119
0.412595,-0.164989,0.153756,126
0.412135,-0.164738,0.154459,129
0.412615,-0.165005,0.155542,128
0.412485,-0.164935,0.156378,127
0.411838,-0.164582,0.157003,128
0.411427,-0.164359,0.157723,130
0.411579,-0.164445,0.158675,128
0.411075,-0.16417,0.159356,129
0.410667,-0.163948,0.160074,129
0.410352,-0.163777,0.160832,131
0.410458,-0.163838,0.161766,131
0.410424,-0.163821,0.162643,126
0.410017,-0.1636,0.16336,121
0.410123,-0.163661,0.164298,126
0.410277,-0.163748,0.165257,111
0.409824,-0.163501,0.165954,114
0.409745,-0.16346,0.166813,111
0.41046,-0.163855,0.168022,111
0.410616,-0.163943,0.168988,107
0.409417,-0.163287,0.169352,102
0.409852,-0.163528,0.170443,98
0.409727,-0.163462,0.171285,97
0.410024,-0.163627,0.172317,96
0.410134,-0.16369,0.173267,104
0.40987,-0.163547,0.174048,102
0.410919,-0.164126,0.175431,100
0.411078,-0.164216,0.176409,102
0.410579,-0.163944,0.177083,105
0.411586,-0.1645,0.178459,97
0.411181,-0.164279,0.179177,101
0.411862,-0.164655,0.180407,92
0.411739,-0.164591,0.18126,94
0.41157,-0.1645,0.182091,95
0.411449,-0.164436,0.182946,101
0.412038,-0.164762,0.184142,100
0.411964,-0.164724,0.185021,100
0.412604,-0.165077,0.186247,96
0.412864,-0.165223,0.187293,101
0.412601,-0.16508,0.188084,102
0.412433,-0.164991,0.188921,99
0.412694,-0.165137,0.189971,100
0.413244,-0.165441,0.191166,98
0.412933,-0.165272,0.191936,92
0.413772,-0.165736,0.193281,90
0.413893,-0.165805,0.19427,89
0.414448,-0.166112,0.19548,90
0.414813,-0.166315,0.196596,122
0.415033,-0.166438,0.197642,86
0.416324,-0.16715,0.199239,88
0.414409,-0.166101,0.19919,81
0.40496,-0.16376,-0.206614,9
0.404046,-0.163253,-0.2052,10
0.404651,-0.163592,-0.204611,11
0.40716,-0.164992,-0.205044,15
0.409134,-0.166095,-0.20518,15
0.405319,-0.163971,-0.202223,12
0.410328,-0.166764,-0.203965,14
0.407655,-0.165278,-0.201628,11
0.4102,-0.166698,-0.202047,9
0.409123,-0.1661,-0.20056,7
0.411876,-0.167636,-0.201074,10
0.408389,-0.165696,-0.198341,9
0.411748,-0.16757,-0.199158,13
0.406638,-0.164725,-0.19561,13
0.41091,-0.167108,-0.196883,12
0.637381,-0.29329,-0.311595,8
0.406808,-0.164827,-0.192967,17
0.408166,-0.165586,-0.192744,21
0.405906,-0.164329,-0.190699,17
0.408841,-0.165967,-0.191261,17
0.409368,-0.166262,-0.190612,18
0.409472,-0.166323,-0.189753,16
0.408176,-0.165603,-0.188204,16
0.408328,-0.16569,-0.187373,18
0.409274,-0.16622,-0.186928,20
0.410412,-0.166856,-0.186573,21
0.408692,-0.1659,-0.184834,17
0.409827,-0.166535,-0.184475,16
0.414249,-0.169002,-0.185684,21
0.410322,-0.166816,-0.1829,19
0.408839,-0.165991,-0.181292,24
0.407924,-0.165484,-0.17996,23
0.410129,-0.166715,-0.180096,20
0.409302,-0.166256,-0.178808,21
0.408851,-0.166007,-0.177699,20
0.408587,-0.165863,-0.176679,21
0.41193,-0.167728,-0.177318,26
0.409877,-0.166586,-0.175477,28
0.408914,-0.166052,-0.174141,23
