ply
format ascii 1.0
comment Created by CloudCompare v2.11 alpha (Anoia)
comment Created 2025/12/9 20:01
obj_info Generated by CloudCompare!
element vertex 1468
property float x
property float y
property float z
property float scalar_Scalar_field
end_header
0.334449 -0.550076 0.308939 157 
0.333249 -0.549812 0.30952 155 
0.33328 -0.549821 0.310364 156 
0.333771 -0.549932 0.311311 152 
0.333291 -0.549827 0.312044 155 
0.333784 -0.549938 0.312994 158 
0.33433 -0.550062 0.313958 161 
0.334106 -0.550014 0.314749 160 
0.334294 -0.550058 0.315635 162 
0.334277 -0.550056 0.316475 165 
0.335395 -0.550306 0.317579 164 
0.335173 -0.550258 0.318374 162 
0.334486 -0.550108 0.319058 166 
0.333803 -0.549958 0.319741 173 
0.334148 -0.550037 0.32067 168 
0.334185 -0.550047 0.321525 165 
0.335411 -0.550321 0.322673 172 
0.335346 -0.550309 0.323507 173 
0.335489 -0.550342 0.324393 173 
0.334391 -0.550101 0.324969 173 
0.33407 -0.550031 0.325738 170 
0.334471 -0.550122 0.32669 172 
0.334512 -0.550133 0.327552 168 
0.333883 -0.549996 0.328241 167 
0.333719 -0.549961 0.32905 173 
0.333761 -0.549973 0.329912 170 
0.33334 -0.549881 0.330653 170 
0.332562 -0.54971 0.331298 170 
0.331838 -0.549552 0.331954 168 
0.331218 -0.549416 0.332636 165 
0.331159 -0.549405 0.33347 167 
0.33105 -0.549383 0.33429 165 
0.330383 -0.549237 0.334956 168 
0.330579 -0.549282 0.335861 166 
0.330319 -0.549227 0.336639 163 
0.330009 -0.54916 0.337402 172 
0.330105 -0.549183 0.338281 170 
0.329543 -0.54906 0.338971 164 
0.330096 -0.549185 0.339983 170 
0.329029 -0.54895 0.340525 168 
0.329632 -0.549086 0.341554 161 
0.328214 -0.548773 0.341989 153 
0.327307 -0.548573 0.342571 147 
0.326903 -0.548486 0.343301 144 
0.327251 -0.548565 0.344256 147 
0.327199 -0.548555 0.345092 148 
0.327448 -0.548613 0.34602 147 
0.327347 -0.548592 0.346842 146 
0.327095 -0.548538 0.347617 145 
0.326643 -0.54844 0.348331 144 
0.326693 -0.548453 0.3492 151 
0.327094 -0.548544 0.350181 143 
0.327196 -0.548569 0.351069 143 
0.326695 -0.548459 0.351766 144 
0.326445 -0.548406 0.352542 141 
0.326547 -0.548431 0.353432 132 
0.3267 -0.548467 0.354339 143 
0.327054 -0.548547 0.355314 141 
0.327713 -0.548695 0.356391 141 
0.327817 -0.548721 0.357287 140 
0.327872 -0.548735 0.358169 137 
0.327573 -0.54867 0.358932 137 
0.327881 -0.548741 0.3599 126 
0.328089 -0.548789 0.360836 122 
0.328146 -0.548803 0.361722 117 
0.328 -0.548773 0.362539 114 
0.328666 -0.548923 0.363637 111 
0.328419 -0.54887 0.364421 114 
0.328731 -0.548941 0.365401 111 
0.328739 -0.548945 0.366275 106 
0.328442 -0.548881 0.367042 111 
0.328909 -0.548987 0.368081 114 
0.330812 -0.549412 0.369636 114 
0.328774 -0.548961 0.369782 116 
0.329346 -0.54909 0.370864 113 
0.331256 -0.549516 0.372437 114 
0.330649 -0.549384 0.373097 113 
0.331124 -0.549491 0.374153 115 
0.330415 -0.549336 0.374774 114 
0.331097 -0.549489 0.375911 117 
0.330337 -0.549323 0.376511 120 
0.331382 -0.549557 0.377789 117 
0.331085 -0.549493 0.378563 121 
0.331358 -0.549556 0.379554 125 
0.331217 -0.549526 0.380389 114 
0.331802 -0.549658 0.381503 112 
0.332962 -0.549918 0.382844 116 
0.332509 -0.54982 0.383562 116 
0.332473 -0.549814 0.384442 113 
0.333326 -0.550005 0.385672 107 
0.333552 -0.550058 0.38666 106 
0.333938 -0.550145 0.387712 112 
0.333536 -0.550058 0.388452 108 
0.333712 -0.550099 0.389423 104 
0.335789 -0.550563 0.391163 103 
0.335015 -0.550393 0.391756 104 
0.334824 -0.550353 0.392585 102 
0.334739 -0.550336 0.393456 99 
0.336298 -0.550685 0.395006 104 
0.335788 -0.550573 0.395707 100 
0.335227 -0.550451 0.396384 101 
0.336952 -0.550836 0.398017 96 
0.336655 -0.550772 0.398808 93 
0.336785 -0.550803 0.399779 95 
0.337345 -0.55093 0.400933 98 
0.337584 -0.550985 0.401954 99 
0.337341 -0.550933 0.40277 94 
0.33909 -0.551324 0.404445 94 
0.3389 -0.551284 0.405288 86 
0.339415 -0.551401 0.406438 87 
0.339117 -0.551337 0.407236 91 
0.340122 -0.551562 0.408606 86 
0.339879 -0.55151 0.40943 87 
0.341108 -0.551786 0.410907 93 
0.340591 -0.551673 0.411612 99 
0.341497 -0.551876 0.412953 96 
0.342242 -0.552044 0.414227 94 
0.342108 -0.552017 0.415107 94 
0.342747 -0.552161 0.416338 97 
0.341677 -0.551925 0.416793 118 
0.3416 -0.55191 0.417699 93 
0.342073 -0.552018 0.418861 93 
0.342051 -0.552015 0.419796 97 
0.321571 -0.543112 0.0145646 13 
0.320781 -0.542947 0.0158526 10 
0.31411 -0.541535 0.0199706 9 
0.312008 -0.541091 0.0218656 10 
0.31686 -0.542122 0.0204306 10 
0.319285 -0.542638 0.0201696 17 
0.320191 -0.542832 0.0206366 15 
0.232388 -0.524221 0.0627976 11 
0.318189 -0.542412 0.0233686 14 
0.318695 -0.542521 0.0240226 11 
0.359919 -0.551263 0.00573758 10 
0.314047 -0.54154 0.0279536 7 
0.316435 -0.542048 0.0277336 9 
0.317329 -0.54224 0.0282076 17 
0.320995 -0.543019 0.0274196 13 
0.323915 -0.54364 0.0269846 10 
0.318946 -0.542589 0.0301276 12 
0.317539 -0.542293 0.0316456 11 
0.320856 -0.542998 0.0310426 12 
0.320872 -0.543003 0.0319226 13 
0.318079 -0.542413 0.0340486 15 
0.322 -0.543247 0.0331986 11 
0.318456 -0.542497 0.0356426 14 
0.323785 -0.543629 0.0341916 13 
0.325163 -0.543923 0.0344816 16 
0.323568 -0.543587 0.0360646 19 
0.320447 -0.542928 0.0382966 15 
0.319824 -0.542797 0.0394436 11 
0.320583 -0.54296 0.0399986 20 
0.323238 -0.543525 0.0397496 17 
0.320523 -0.542952 0.0417806 14 
0.322277 -0.543326 0.0419196 18 
0.320908 -0.543037 0.0433726 18 
0.322914 -0.543465 0.0434136 19 
0.321344 -0.543134 0.0449436 17 
0.320969 -0.543056 0.0459736 19 
0.320743 -0.54301 0.0469406 15 
0.317923 -0.542414 0.0489636 20 
0.321576 -0.543191 0.0483476 20 
0.323287 -0.543556 0.0485296 18 
0.317942 -0.542424 0.0515516 20 
0.319134 -0.542679 0.0519386 17 
0.319304 -0.542717 0.0527366 21 
0.31743 -0.542322 0.0543426 23 
0.317696 -0.54238 0.0550986 25 
0.316464 -0.542121 0.0564406 26 
0.315912 -0.542005 0.0575126 27 
0.31879 -0.542618 0.0572536 28 
0.316973 -0.542235 0.0588126 28 
0.316758 -0.542191 0.0597506 26 
0.317701 -0.542393 0.0602466 28 
0.315131 -0.54185 0.0620756 27 
0.317463 -0.542346 0.0620466 26 
0.314613 -0.541744 0.0639676 30 
0.31445 -0.541711 0.0648756 27 
0.314811 -0.54179 0.0655876 28 
0.313936 -0.541606 0.0667566 35 
0.312736 -0.541353 0.0680396 26 
0.313851 -0.541592 0.0684736 31 
0.31176 -0.54115 0.0700726 30 
0.313815 -0.541588 0.0701696 25 
0.312759 -0.541366 0.0713886 28 
0.310496 -0.540887 0.0730316 26 
0.311647 -0.541134 0.0734566 31 
0.311912 -0.541192 0.0741976 35 
0.313967 -0.54163 0.0743116 32 
0.312443 -0.541308 0.0756786 38 
0.311166 -0.541039 0.0769546 34 
0.312883 -0.541405 0.0771936 34 
0.312915 -0.541414 0.0780156 40 
0.312807 -0.541393 0.0788846 34 
0.312465 -0.541323 0.0798326 38 
0.313767 -0.541601 0.0802246 39 
0.313236 -0.54149 0.0812346 36 
0.312519 -0.54134 0.0823026 40 
0.313539 -0.541558 0.0827946 35 
0.314281 -0.541718 0.0833806 38 
0.314694 -0.541807 0.0840766 44 
0.313456 -0.541546 0.0853076 36 
0.313209 -0.541496 0.0862146 43 
0.315891 -0.542067 0.0861836 40 
0.314741 -0.541825 0.0873796 43 
0.315441 -0.541975 0.0879876 43 
0.31562 -0.542015 0.0887596 44 
0.316131 -0.542126 0.0894286 41 
0.316597 -0.542227 0.0901136 44 
0.315353 -0.541964 0.0913256 45 
0.315912 -0.542085 0.0919806 41 
0.316711 -0.542257 0.0925646 44 
0.315799 -0.542065 0.0936676 50 
0.317266 -0.542378 0.0940536 45 
0.316924 -0.542307 0.0949826 44 
0.317775 -0.54249 0.0955566 50 
0.319592 -0.542878 0.0958506 43 
0.316568 -0.542238 0.0975626 52 
0.318279 -0.542603 0.0978906 51 
0.318752 -0.542705 0.0985806 51 
0.318027 -0.542553 0.0996146 52 
0.317925 -0.542534 0.100468 49 
0.317872 -0.542524 0.101307 52 
0.319112 -0.54279 0.101783 56 
0.318819 -0.542729 0.10269 50 
0.320258 -0.543037 0.103117 52 
0.318954 -0.542762 0.1043 54 
0.32025 -0.543039 0.104771 57 
0.319139 -0.542805 0.105895 63 
0.320243 -0.543041 0.106422 62 
0.319517 -0.542889 0.107438 59 
0.32043 -0.543085 0.108019 58 
0.321008 -0.543209 0.108691 64 
0.321248 -0.543262 0.109452 62 
0.321101 -0.543233 0.110313 53 
0.322362 -0.543503 0.110813 53 
0.322897 -0.543618 0.111502 59 
0.321923 -0.543413 0.112572 63 
0.322799 -0.543601 0.113176 65 
0.323141 -0.543676 0.113915 59 
0.322702 -0.543585 0.114846 64 
0.323142 -0.54368 0.115561 66 
0.323828 -0.543828 0.116218 62 
0.32432 -0.543934 0.116924 67 
0.324567 -0.543989 0.117689 68 
0.324619 -0.544001 0.1185 66 
0.323984 -0.543868 0.119472 73 
0.324969 -0.54408 0.120065 76 
0.325169 -0.544124 0.120842 75 
0.325469 -0.54419 0.121597 83 
0.326115 -0.544329 0.122274 82 
0.327657 -0.544659 0.122751 76 
0.326521 -0.544419 0.123831 82 
0.327568 -0.544644 0.124423 86 
0.327674 -0.544668 0.125225 84 
0.328128 -0.544766 0.125952 84 
0.328135 -0.54477 0.126776 77 
0.328392 -0.544826 0.127546 88 
0.330052 -0.545181 0.12802 92 
0.329558 -0.545078 0.128951 83 
0.329968 -0.545167 0.129692 80 
0.330581 -0.545299 0.130393 76 
0.330087 -0.545196 0.131321 85 
0.331407 -0.545479 0.131881 85 
0.331266 -0.545451 0.132737 86 
0.332239 -0.545659 0.133372 88 
0.333012 -0.545826 0.13405 91 
0.332617 -0.545744 0.134956 86 
0.332375 -0.545694 0.135831 91 
0.332794 -0.545785 0.136579 95 
0.333215 -0.545876 0.137328 94 
0.333789 -0.546 0.138049 92 
0.333803 -0.546005 0.138876 94 
0.334892 -0.546239 0.139506 90 
0.33501 -0.546266 0.140315 103 
0.3359 -0.546457 0.140987 107 
0.335401 -0.546353 0.141906 106 
0.335984 -0.546479 0.142635 109 
0.33631 -0.54655 0.143409 114 
0.337362 -0.546776 0.144061 106 
0.336914 -0.546682 0.144969 107 
0.337503 -0.546809 0.145702 114 
0.337263 -0.54676 0.146574 113 
0.338217 -0.546965 0.14725 112 
0.338862 -0.547104 0.147979 120 
0.338831 -0.5471 0.148817 122 
0.339531 -0.54725 0.14954 120 
0.340707 -0.547503 0.150192 121 
0.339942 -0.547342 0.151145 116 
0.339808 -0.547315 0.152 124 
0.340408 -0.547445 0.152744 129 
0.34038 -0.547441 0.153582 127 
0.340457 -0.547459 0.154405 129 
0.342274 -0.547848 0.154978 123 
0.341666 -0.54772 0.155901 129 
0.341639 -0.547716 0.15674 124 
0.341772 -0.547746 0.157556 122 
0.342064 -0.54781 0.158352 123 
0.34278 -0.547965 0.159091 123 
0.342968 -0.548007 0.159902 121 
0.342573 -0.547925 0.16079 122 
0.34308 -0.548034 0.16156 123 
0.343057 -0.548031 0.162398 120 
0.344259 -0.548289 0.163084 119 
0.344398 -0.548321 0.163905 122 
0.343365 -0.548103 0.164867 124 
0.342973 -0.548021 0.165748 127 
0.34391 -0.548223 0.166473 138 
0.343678 -0.548175 0.167335 132 
0.343659 -0.548173 0.168172 132 
0.343588 -0.54816 0.169015 132 
0.344636 -0.548385 0.169735 136 
0.343714 -0.54819 0.17067 144 
0.343379 -0.548121 0.171539 143 
0.343417 -0.548131 0.172368 141 
0.34319 -0.548085 0.173224 149 
0.343494 -0.548151 0.174026 144 
0.343268 -0.548105 0.17488 148 
0.34299 -0.548048 0.175739 149 
0.342132 -0.547867 0.17665 153 
0.341751 -0.547788 0.177514 149 
0.343114 -0.54808 0.17822 150 
0.341677 -0.547776 0.179177 153 
0.341457 -0.547731 0.180024 159 
0.341343 -0.547709 0.18086 158 
0.34144 -0.547731 0.181679 162 
0.341012 -0.547642 0.18254 165 
0.340428 -0.54752 0.183412 163 
0.339326 -0.547287 0.184321 167 
0.339269 -0.547277 0.185147 167 
0.33864 -0.547145 0.186015 169 
0.338376 -0.54709 0.186854 171 
0.338476 -0.547114 0.187667 170 
0.338007 -0.547015 0.188518 176 
0.33847 -0.547116 0.189306 171 
0.337692 -0.546952 0.190175 172 
0.337381 -0.546888 0.191012 172 
0.337431 -0.546901 0.191826 170 
0.336711 -0.546749 0.192685 174 
0.336147 -0.546631 0.193532 169 
0.336096 -0.546622 0.194349 172 
0.335637 -0.546526 0.195187 176 
0.334925 -0.546376 0.196036 172 
0.334673 -0.546324 0.196859 175 
0.334778 -0.546349 0.197666 177 
0.334528 -0.546297 0.198488 171 
0.334126 -0.546214 0.199316 176 
0.333574 -0.546098 0.200148 175 
0.333276 -0.546036 0.200968 175 
0.332274 -0.545825 0.201813 176 
0.332734 -0.545925 0.202603 173 
0.332137 -0.545799 0.203429 173 
0.331443 -0.545653 0.204256 171 
0.331201 -0.545604 0.205068 173 
0.332314 -0.545843 0.205841 171 
0.332575 -0.5459 0.206639 173 
0.33113 -0.545594 0.20748 175 
0.331491 -0.545673 0.208275 175 
0.331703 -0.54572 0.209075 172 
0.331264 -0.545628 0.209887 173 
0.331778 -0.545739 0.210682 173 
0.331891 -0.545765 0.211485 179 
0.331654 -0.545717 0.212293 174 
0.331818 -0.545754 0.213095 174 
0.331482 -0.545684 0.213902 177 
0.331849 -0.545764 0.214703 172 
0.331413 -0.545673 0.21551 176 
0.33133 -0.545657 0.216314 173 
0.331647 -0.545727 0.217117 174 
0.332217 -0.54585 0.217921 168 
0.332437 -0.545898 0.218727 167 
0.332506 -0.545915 0.219533 167 
0.33308 -0.546039 0.220342 171 
0.333352 -0.546099 0.221151 168 
0.332365 -0.545891 0.221948 167 
0.332285 -0.545875 0.222753 167 
0.332609 -0.545946 0.223563 170 
0.333996 -0.546244 0.224391 163 
0.333108 -0.546056 0.225184 163 
0.333738 -0.546193 0.226004 162 
0.333307 -0.546103 0.226802 157 
0.333383 -0.546121 0.227612 158 
0.333813 -0.546214 0.228431 162 
0.333687 -0.546189 0.229236 162 
0.334729 -0.546413 0.230075 159 
0.334451 -0.546356 0.230877 158 
0.333921 -0.546245 0.231669 159 
0.334 -0.546263 0.232481 154 
0.334435 -0.546358 0.233307 162 
0.333704 -0.546204 0.234089 159 
0.334088 -0.546288 0.234913 163 
0.333359 -0.546134 0.235692 157 
0.334608 -0.546402 0.236556 163 
0.333675 -0.546205 0.237324 162 
0.333505 -0.546171 0.238126 160 
0.334706 -0.546429 0.238995 157 
0.333977 -0.546275 0.239769 158 
0.333302 -0.546133 0.240543 157 
0.333185 -0.54611 0.241346 155 
0.334437 -0.546379 0.242227 156 
0.332701 -0.546011 0.242935 150 
0.332788 -0.546031 0.243749 154 
0.332321 -0.545933 0.244529 154 
0.332006 -0.545868 0.245316 157 
0.332094 -0.545889 0.24613 150 
0.331329 -0.545727 0.246885 152 
0.331017 -0.545663 0.24767 155 
0.331156 -0.545694 0.248486 159 
0.331246 -0.545715 0.2493 156 
0.330038 -0.545459 0.250015 153 
0.330877 -0.54564 0.250886 157 
0.330169 -0.545491 0.251636 156 
0.330261 -0.545513 0.252449 158 
0.329258 -0.545301 0.253171 161 
0.329003 -0.545248 0.253953 158 
0.329096 -0.54527 0.254766 164 
0.328298 -0.545101 0.255498 165 
0.32849 -0.545144 0.256319 166 
0.328485 -0.545145 0.257123 163 
0.328184 -0.545083 0.257898 161 
0.327884 -0.545021 0.258673 155 
0.327339 -0.544906 0.259422 152 
0.326893 -0.544813 0.260179 162 
0.328272 -0.545109 0.261124 159 
0.326448 -0.544722 0.261737 162 
0.327183 -0.54488 0.262617 157 
0.325077 -0.544433 0.263191 156 
0.325858 -0.544601 0.264078 160 
0.326692 -0.544781 0.264973 158 
0.326104 -0.544658 0.265709 158 
0.32586 -0.544607 0.266483 156 
0.325569 -0.544547 0.267251 157 
0.325767 -0.544591 0.268077 158 
0.325819 -0.544604 0.268886 159 
0.325823 -0.544607 0.269689 155 
0.326072 -0.544662 0.270524 157 
0.326027 -0.544654 0.271322 165 
0.325934 -0.544636 0.272115 162 
0.325989 -0.54465 0.272926 160 
0.32624 -0.544705 0.273765 158 
0.326247 -0.544708 0.274572 161 
0.32596 -0.544649 0.275339 162 
0.326164 -0.544694 0.276173 162 
0.326074 -0.544677 0.276967 164 
0.325936 -0.54465 0.277754 165 
0.32624 -0.544716 0.278605 162 
0.327778 -0.545046 0.279639 158 
0.326506 -0.544777 0.280261 163 
0.327207 -0.544928 0.281176 163 
0.327515 -0.544996 0.282034 163 
0.327181 -0.544927 0.282794 161 
0.32754 -0.545005 0.283661 163 
0.327504 -0.544999 0.284468 162 
0.328162 -0.545141 0.285387 159 
0.328027 -0.545115 0.286179 162 
0.328639 -0.545247 0.287095 165 
0.328306 -0.545178 0.287856 163 
0.329019 -0.545332 0.288792 157 
0.328687 -0.545263 0.289553 160 
0.329203 -0.545375 0.290459 154 
0.329621 -0.545466 0.291351 154 
0.330291 -0.545611 0.292289 155 
0.330662 -0.545692 0.293177 156 
0.329577 -0.545462 0.293805 162 
0.330249 -0.545608 0.294749 156 
0.331025 -0.545775 0.295715 152 
0.330241 -0.54561 0.296394 153 
0.331523 -0.545885 0.297459 159 
0.331748 -0.545935 0.298329 156 
0.33167 -0.54592 0.299142 156 
0.332251 -0.546046 0.300082 159 
0.331717 -0.545935 0.300808 155 
0.332452 -0.546093 0.301782 158 
0.333191 -0.546253 0.302761 162 
0.332555 -0.546119 0.303466 159 
0.332836 -0.546181 0.304355 156 
0.332456 -0.546102 0.30511 153 
0.333197 -0.546262 0.306097 158 
0.333736 -0.546379 0.307045 158 
0.333356 -0.5463 0.307801 158 
0.334256 -0.546494 0.308829 159 
0.333825 -0.546404 0.309575 158 
0.33478 -0.54661 0.310621 153 
0.334915 -0.546641 0.311491 157 
0.335566 -0.546782 0.312476 156 
0.335599 -0.546791 0.313327 159 
0.33558 -0.546789 0.314167 153 
0.335718 -0.54682 0.315042 162 
0.336167 -0.546918 0.31599 160 
0.33615 -0.546916 0.316833 161 
0.336601 -0.547014 0.317785 164 
0.336377 -0.546969 0.318581 172 
0.336726 -0.547045 0.319513 171 
0.336243 -0.546944 0.320247 168 
0.335865 -0.546865 0.321006 165 
0.33554 -0.546798 0.321776 173 
0.336046 -0.546907 0.322749 169 
0.335462 -0.546785 0.323456 164 
0.334622 -0.546607 0.324097 171 
0.335801 -0.546861 0.325242 164 
0.335685 -0.546838 0.326065 169 
0.334432 -0.546572 0.326598 173 
0.333854 -0.546451 0.327301 170 
0.33405 -0.546495 0.328201 170 
0.334504 -0.546594 0.329171 168 
0.33434 -0.546561 0.32998 174 
0.333249 -0.546329 0.330544 167 
0.333035 -0.546286 0.331339 171 
0.332719 -0.54622 0.332105 167 
0.333019 -0.546286 0.333038 167 
0.332652 -0.54621 0.333791 167 
0.332491 -0.546177 0.334599 170 
0.332126 -0.546101 0.335351 157 
0.332069 -0.546091 0.336188 161 
0.330685 -0.545797 0.336653 160 
0.330883 -0.545842 0.33756 162 
0.330674 -0.545799 0.338353 162 
0.330161 -0.545691 0.339059 163 
0.330208 -0.545703 0.339924 159 
0.330051 -0.545672 0.340731 155 
0.32858 -0.545359 0.341154 159 
0.328375 -0.545317 0.341945 158 
0.32812 -0.545265 0.34272 153 
0.328067 -0.545255 0.343556 149 
0.328165 -0.545278 0.344437 144 
0.32776 -0.545194 0.345168 145 
0.327507 -0.545142 0.345943 144 
0.328716 -0.545402 0.347166 142 
0.327354 -0.545113 0.347602 147 
0.327605 -0.545169 0.348534 144 
0.327605 -0.54517 0.349389 147 
0.327052 -0.545054 0.35007 140 
0.327405 -0.545132 0.351037 140 
0.328163 -0.545296 0.352135 136 
0.327912 -0.545244 0.352913 139 
0.327863 -0.545236 0.353757 135 
0.327664 -0.545195 0.354552 135 
0.328476 -0.545371 0.355677 135 
0.328226 -0.545319 0.356457 139 
0.328331 -0.545344 0.357354 136 
0.328995 -0.545487 0.358439 131 
0.328644 -0.545414 0.359187 128 
0.328548 -0.545396 0.36002 124 
0.328147 -0.545312 0.36075 127 
0.328508 -0.545391 0.361739 121 
0.328718 -0.545438 0.362679 113 
0.328877 -0.545474 0.363602 104 
0.329853 -0.545685 0.364811 101 
0.330117 -0.545743 0.365775 103 
0.329716 -0.54566 0.366508 110 
0.329469 -0.545609 0.367294 108 
0.329682 -0.545657 0.368244 110 
0.33005 -0.545737 0.369251 108 
0.32965 -0.545654 0.369984 109 
0.330326 -0.5458 0.371105 112 
0.331212 -0.545992 0.372305 110 
0.33143 -0.546041 0.373266 115 
0.330565 -0.545857 0.373831 112 
0.330525 -0.545851 0.374698 109 
0.33157 -0.546077 0.375969 111 
0.332516 -0.546281 0.377208 118 
0.332322 -0.546242 0.378023 118 
0.332076 -0.546191 0.378818 122 
0.332403 -0.546263 0.379831 118 
0.332573 -0.546302 0.380786 111 
0.332693 -0.546329 0.381723 114 
0.332813 -0.546357 0.382662 111 
0.333665 -0.546541 0.383887 108 
0.333525 -0.546513 0.384728 112 
0.333647 -0.546542 0.385672 109 
0.333979 -0.546615 0.386701 106 
0.334523 -0.546733 0.387816 109 
0.334384 -0.546705 0.388661 113 
0.334508 -0.546734 0.389613 106 
0.335108 -0.546865 0.390758 99 
0.335604 -0.546973 0.391864 102 
0.336156 -0.547093 0.392995 96 
0.336923 -0.547259 0.394218 97 
0.334925 -0.546834 0.394307 92 
0.336646 -0.547204 0.395927 94 
0.336083 -0.547086 0.396605 97 
0.337816 -0.547459 0.398241 95 
0.336982 -0.547282 0.398808 90 
0.337595 -0.547416 0.399982 89 
0.338318 -0.547573 0.401207 88 
0.337698 -0.547442 0.401863 90 
0.339287 -0.547784 0.403463 89 
0.33888 -0.547699 0.404212 92 
0.339557 -0.547846 0.405429 88 
0.339367 -0.547808 0.406273 84 
0.339557 -0.547851 0.407283 87 
0.339693 -0.547882 0.408272 93 
0.34032 -0.548018 0.409478 94 
0.341005 -0.548167 0.410713 93 
0.341857 -0.548352 0.412027 93 
0.341722 -0.548325 0.412904 98 
0.342634 -0.548522 0.414251 98 
0.341839 -0.548354 0.414833 95 
0.342146 -0.548422 0.415912 93 
0.342786 -0.548561 0.417145 116 
0.343372 -0.548689 0.418358 92 
0.342575 -0.548521 0.418937 90 
0.343107 -0.548637 0.420128 91 
0.319689 -0.539303 0.0156076 11 
0.320447 -0.53946 0.0161426 12 
0.157563 -0.50627 0.0949186 8 
0.32404 -0.540196 0.0162236 11 
0.322032 -0.539789 0.0180886 12 
0.322446 -0.539875 0.0187936 12 
0.316608 -0.538688 0.0224546 11 
0.321817 -0.539751 0.0208926 12 
0.325162 -0.540435 0.0202256 10 
0.293431 -0.53397 0.0359146 8 
1.65357 -0.811167 -0.598858 8 
0.324386 -0.540283 0.0232966 14 
0.321682 -0.539734 0.0254406 14 
0.320202 -0.539435 0.0270116 9 
0.320019 -0.539399 0.0279856 11 
0.321276 -0.539658 0.0283046 11 
0.326691 -0.540763 0.0267506 16 
0.326296 -0.540685 0.0278296 10 
0.320279 -0.53946 0.0314196 12 
0.323892 -0.540199 0.0306976 17 
0.320213 -0.539451 0.0332196 12 
0.322018 -0.539821 0.0333086 18 
0.320891 -0.539593 0.0346896 17 
0.320957 -0.539609 0.0355446 18 
0.32187 -0.539797 0.0360316 18 
0.322786 -0.539986 0.0365196 12 
0.324309 -0.540298 0.0367496 17 
0.32569 -0.540582 0.0370466 18 
0.323841 -0.540207 0.0387236 16 
0.323458 -0.540131 0.0397716 16 
0.324029 -0.540249 0.0404136 17 
0.322397 -0.539919 0.0419826 21 
0.323015 -0.540047 0.0426046 20 
0.324387 -0.540329 0.0429136 21 
0.323554 -0.540161 0.0441406 21 
0.321384 -0.53972 0.0459126 18 
0.322547 -0.539959 0.0463116 20 
0.325373 -0.540538 0.0460366 20 
0.322788 -0.540013 0.0479646 17 
0.318815 -0.539204 0.0504406 18 
0.320505 -0.539551 0.0506286 19 
0.319692 -0.539387 0.0518216 18 
0.321883 -0.539836 0.0518186 18 
0.321461 -0.539752 0.0528546 19 
0.320794 -0.539618 0.0539846 19 
0.318468 -0.539146 0.0557596 24 
0.318639 -0.539182 0.0565536 23 
0.31881 -0.539219 0.0573476 22 
0.320007 -0.539465 0.0577466 24 
0.318909 -0.539243 0.0590286 27 
0.319422 -0.53935 0.0596916 25 
0.317698 -0.539 0.0612016 25 
0.316904 -0.53884 0.0623546 26 
0.315204 -0.538495 0.0638426 27 
0.31691 -0.538845 0.0640566 29 
0.314782 -0.538413 0.0656936 28 
0.314049 -0.538266 0.0668086 31 
0.314696 -0.538399 0.0674156 35 
0.31368 -0.538194 0.0686286 31 
0.312153 -0.537885 0.0700216 22 
0.314593 -0.538384 0.0699816 29 
0.313438 -0.538151 0.0712366 29 
0.316179 -0.538712 0.0711006 26 
0.314351 -0.538341 0.0725896 29 
0.314571 -0.538388 0.0733516 39 
0.314081 -0.538289 0.0743616 37 
0.314207 -0.538317 0.0751546 33 
0.314191 -0.538316 0.0759966 32 
0.315457 -0.538576 0.0763976 33 
0.313123 -0.538102 0.0780316 36 
0.315522 -0.538593 0.0780506 36 
0.31366 -0.538215 0.0795146 42 
0.314212 -0.53833 0.0801616 38 
0.313679 -0.538223 0.0811716 40 
0.315322 -0.53856 0.0814576 40 
0.315451 -0.538588 0.0822486 36 
0.316534 -0.538811 0.0827276 39 
0.316139 -0.538733 0.0836906 44 
0.315508 -0.538606 0.0847276 39 
0.315924 -0.538693 0.0854246 44 
0.314868 -0.538479 0.0865926 46 
0.317236 -0.538964 0.0866706 49 
0.31627 -0.538769 0.0878076 51 
0.317549 -0.539032 0.0882366 44 
0.317585 -0.539041 0.0890576 45 
0.316333 -0.538788 0.0902756 46 
0.316705 -0.538865 0.0909896 42 
0.315934 -0.53871 0.0920536 47 
0.316543 -0.538836 0.0926946 39 
0.317536 -0.539041 0.0932226 45 
0.318006 -0.539139 0.0939096 45 
0.318958 -0.539335 0.0944556 51 
0.318709 -0.539286 0.0953586 51 
0.31899 -0.539345 0.0961046 52 
0.320237 -0.539602 0.0965706 53 
0.320471 -0.539652 0.0973326 52 
0.319546 -0.539465 0.0984286 53 
0.320118 -0.539583 0.0990926 51 
0.320984 -0.539762 0.0996766 49 
0.31919 -0.539398 0.10101 52 
0.319666 -0.539497 0.101703 53 
0.321792 -0.539933 0.101939 58 
0.319367 -0.539439 0.103435 59 
0.320086 -0.539588 0.104063 51 
0.320468 -0.539668 0.104784 56 
0.320513 -0.539679 0.105597 53 
0.322354 -0.540057 0.105929 54 
0.321378 -0.53986 0.107015 60 
0.320649 -0.539713 0.108032 58 
0.321761 -0.539942 0.108564 60 
0.323222 -0.540242 0.109009 64 
0.32239 -0.540074 0.11005 63 
0.321902 -0.539976 0.111 57 
0.323266 -0.540257 0.111477 55 
0.322339 -0.540069 0.112535 57 
0.324 -0.540411 0.112944 58 
0.324392 -0.540493 0.113672 57 
0.323658 -0.540344 0.114678 67 
0.324885 -0.540597 0.115203 64 
0.325133 -0.54065 0.115969 65 
0.325578 -0.540743 0.116687 61 
0.325235 -0.540674 0.117595 70 
0.325484 -0.540727 0.11836 73 
0.325783 -0.54079 0.119115 73 
0.325737 -0.540783 0.119951 79 
0.326532 -0.540947 0.120592 76 
0.326536 -0.54095 0.121416 78 
0.326689 -0.540983 0.122206 80 
0.326991 -0.541047 0.122963 78 
0.32869 -0.541396 0.12341 78 
0.328996 -0.54146 0.12417 88 
0.328852 -0.541432 0.125029 87 
0.328708 -0.541405 0.125887 92 
0.329366 -0.541541 0.126572 90 
0.329323 -0.541534 0.127407 90 
0.330335 -0.541743 0.12802 91 
0.330495 -0.541778 0.128815 90 
0.330352 -0.54175 0.129672 91 
0.331572 -0.542002 0.130248 89 
0.331481 -0.541985 0.131096 90 
0.331845 -0.542061 0.13185 86 
0.332363 -0.542169 0.132576 92 
0.332526 -0.542204 0.133372 88 
0.332689 -0.54224 0.134169 90 
0.33372 -0.542452 0.134798 90 
0.332714 -0.542248 0.135821 87 
0.333898 -0.542493 0.136424 94 
0.334218 -0.54256 0.137194 94 
0.335104 -0.542743 0.137859 103 
0.335529 -0.542832 0.138612 99 
0.335595 -0.542847 0.139432 99 
0.336126 -0.542957 0.140167 97 
0.33609 -0.542952 0.141005 105 
0.336622 -0.543063 0.141743 107 
0.337156 -0.543174 0.142482 109 
0.337744 -0.543296 0.143213 110 
0.337191 -0.543185 0.14414 110 
0.337936 -0.543339 0.144847 113 
0.339049 -0.543569 0.145494 116 
0.339277 -0.543617 0.146291 115 
0.339506 -0.543666 0.147089 117 
0.339631 -0.543693 0.147903 114 
0.339914 -0.543753 0.148693 115 
0.339883 -0.543749 0.149532 118 
0.340798 -0.543938 0.150225 115 
0.340715 -0.543923 0.151073 113 
0.34174 -0.544134 0.151753 119 
0.341763 -0.544141 0.152586 119 
0.341734 -0.544137 0.153427 122 
0.342288 -0.544252 0.154183 123 
0.342102 -0.544216 0.155046 130 
0.342657 -0.544332 0.155803 131 
0.342577 -0.544317 0.156651 125 
0.343401 -0.544488 0.157374 122 
0.343482 -0.544506 0.158201 125 
0.344043 -0.544623 0.158963 121 
0.344072 -0.544631 0.159797 122 
0.343621 -0.544541 0.160693 123 
0.343864 -0.544592 0.161498 120 
0.344162 -0.544655 0.162298 116 
0.343181 -0.544456 0.163256 118 
0.344224 -0.544672 0.163964 116 
0.344417 -0.544713 0.164777 121 
0.34461 -0.544754 0.165591 125 
0.344323 -0.544698 0.166461 125 
0.344197 -0.544674 0.167311 137 
0.344552 -0.544748 0.168106 137 
0.343948 -0.544627 0.169009 141 
0.343771 -0.544592 0.169863 143 
0.344607 -0.544765 0.170607 141 
0.343525 -0.544546 0.171555 142 
0.343616 -0.544566 0.172379 149 
0.343602 -0.544565 0.173213 153 
0.343747 -0.544597 0.174031 154 
0.343414 -0.544531 0.174896 152 
0.34303 -0.544454 0.175764 148 
0.342753 -0.544399 0.17662 149 
0.342371 -0.544323 0.177485 155 
0.341886 -0.544226 0.178358 158 
0.341507 -0.54415 0.179219 157 
0.341445 -0.544139 0.180051 160 
0.340178 -0.543882 0.180984 160 
0.340745 -0.544 0.181761 160 
0.340318 -0.543914 0.18262 163 
0.339476 -0.543744 0.18351 169 
0.339261 -0.543702 0.184349 168 
0.339204 -0.543692 0.185174 167 
0.338783 -0.543608 0.186026 170 
0.338623 -0.543577 0.186857 165 
0.338101 -0.543472 0.187713 171 
0.337684 -0.543388 0.18856 169 
0.337681 -0.543389 0.189377 171 
0.336855 -0.543222 0.190247 176 
0.33711 -0.543276 0.191047 172 
0.336493 -0.543152 0.1919 169 
0.335621 -0.542975 0.192765 176 
0.335826 -0.543019 0.193566 178 
0.335163 -0.542885 0.194415 170 
0.335063 -0.542867 0.195232 176 
0.335014 -0.542858 0.196046 176 
0.33405 -0.542663 0.196904 174 
0.334104 -0.542676 0.19771 174 
0.334058 -0.542668 0.198522 176 
0.333353 -0.542526 0.199361 175 
0.33351 -0.54256 0.200162 174 
0.333313 -0.542521 0.200978 179 
0.332059 -0.542266 0.201831 176 
0.331715 -0.542198 0.202648 174 
0.332174 -0.542294 0.203437 175 
0.330829 -0.54202 0.204284 175 
0.331137 -0.542085 0.205078 173 
0.331898 -0.542243 0.20586 170 
0.330656 -0.54199 0.206696 173 
0.331316 -0.542127 0.207482 173 
0.330628 -0.541988 0.2083 172 
0.330689 -0.542002 0.209101 175 
0.331351 -0.54214 0.209891 178 
0.330913 -0.542052 0.210701 176 
0.331326 -0.542139 0.211497 174 
0.33119 -0.542112 0.212302 171 
0.331805 -0.54224 0.213098 170 
0.331519 -0.542184 0.213904 177 
0.331685 -0.542219 0.214706 172 
0.331751 -0.542235 0.21551 171 
0.332471 -0.542384 0.216311 172 
0.33274 -0.542441 0.217116 169 
0.33301 -0.542498 0.217922 173 
0.333028 -0.542504 0.218728 175 
0.333603 -0.542624 0.219537 173 
0.333269 -0.542557 0.220342 166 
0.332784 -0.542459 0.221144 169 
0.332704 -0.542445 0.221949 170 
0.333129 -0.542534 0.22276 170 
0.333302 -0.542571 0.223569 177 
0.333173 -0.542547 0.224373 171 
0.333398 -0.542595 0.225184 174 
0.333624 -0.542643 0.225996 167 
0.333295 -0.542577 0.226796 165 
0.334587 -0.542844 0.227633 164 
0.334511 -0.54283 0.228441 165 
0.333826 -0.542692 0.229232 170 
0.333498 -0.542626 0.23003 169 
0.334998 -0.542935 0.230885 162 
0.334975 -0.542933 0.231694 165 
0.334902 -0.54292 0.232502 158 
0.334982 -0.542938 0.233316 162 
0.334859 -0.542914 0.234122 160 
0.335042 -0.542954 0.23494 158 
0.336249 -0.543203 0.235803 164 
0.335615 -0.543075 0.236588 158 
0.335545 -0.543063 0.237397 161 
0.335527 -0.543061 0.238209 159 
0.336277 -0.543216 0.239059 157 
0.335543 -0.543068 0.239835 155 
0.33522 -0.543003 0.24063 158 
0.335153 -0.542992 0.241439 159 
0.335649 -0.543095 0.24228 158 
0.33548 -0.543062 0.243083 156 
0.335517 -0.543072 0.243899 155 
0.335657 -0.543102 0.244721 159 
0.335695 -0.543112 0.245538 161 
0.334509 -0.542871 0.246272 152 
0.334243 -0.542818 0.247066 150 
0.334333 -0.542839 0.247884 156 
0.334424 -0.542859 0.248703 159 
0.332944 -0.542557 0.249405 151 
0.333947 -0.542765 0.250292 153 
0.333077 -0.542588 0.251036 160 
0.334387 -0.542859 0.251952 154 
0.332808 -0.542537 0.252635 162 
0.332044 -0.542382 0.253381 155 
0.331535 -0.54228 0.254147 156 
0.331328 -0.542239 0.254937 157 
0.331925 -0.542363 0.255799 161 
0.330566 -0.542086 0.256484 154 
0.329514 -0.541872 0.257193 159 
0.329758 -0.541925 0.258022 161 
0.329755 -0.541926 0.258827 164 
0.329602 -0.541896 0.259619 164 
0.32955 -0.541887 0.26042 159 
0.329648 -0.541909 0.261236 168 
0.329149 -0.541809 0.261991 167 
0.329098 -0.5418 0.262792 164 
0.328106 -0.541599 0.263491 163 
0.327563 -0.541489 0.264235 166 
0.327711 -0.541521 0.265056 162 
0.327762 -0.541534 0.265867 162 
0.327665 -0.541516 0.26666 167 
0.32742 -0.541467 0.267437 161 
0.326832 -0.541348 0.268171 160 
0.326835 -0.541351 0.268976 166 
0.327134 -0.541414 0.269817 164 
0.326843 -0.541356 0.270586 158 
0.328032 -0.541602 0.271543 162 
0.327 -0.541392 0.272217 161 
0.327055 -0.541405 0.27303 165 
0.32721 -0.541439 0.273857 166 
0.328404 -0.541686 0.274826 168 
0.328759 -0.541761 0.275685 166 
0.327775 -0.541561 0.276358 165 
0.326747 -0.541351 0.277022 161 
0.327892 -0.541588 0.277994 163 
0.328447 -0.541704 0.278885 166 
0.328507 -0.541718 0.279705 163 
0.328171 -0.541651 0.280467 166 
0.328182 -0.541655 0.28128 163 
0.328442 -0.54171 0.282132 163 
0.32975 -0.541981 0.283147 164 
0.328467 -0.541719 0.283762 161 
0.328729 -0.541775 0.284618 164 
0.328843 -0.5418 0.285451 166 
0.32841 -0.541713 0.286196 162 
0.329422 -0.541923 0.287177 163 
0.329088 -0.541856 0.287939 163 
0.329054 -0.541851 0.28875 161 
0.329071 -0.541856 0.28957 162 
0.329488 -0.541944 0.290459 161 
0.329256 -0.541898 0.291238 161 
0.330376 -0.54213 0.292254 158 
0.331453 -0.542353 0.293267 158 
0.331726 -0.542411 0.29414 163 
0.331747 -0.542417 0.294969 157 
0.33096 -0.542257 0.29565 155 
0.331789 -0.54243 0.296629 156 
0.33166 -0.542405 0.297431 153 
0.33224 -0.542526 0.298367 158 
0.33272 -0.542626 0.299287 161 
0.332948 -0.542675 0.300161 155 
0.332769 -0.54264 0.300957 157 
0.332896 -0.542668 0.301812 153 
0.333841 -0.542864 0.302832 157 
0.334893 -0.543082 0.303878 155 
0.335487 -0.543206 0.304834 159 
0.334743 -0.543055 0.30552 159 
0.334514 -0.54301 0.306309 160 
0.335315 -0.543177 0.307314 156 
0.33488 -0.543089 0.308061 158 
0.334962 -0.543108 0.308917 162 
0.335044 -0.543127 0.309774 153 
0.335178 -0.543156 0.310643 159 
0.33614 -0.543356 0.311695 156 
0.335551 -0.543237 0.312408 157 
0.335739 -0.543277 0.313292 156 
0.336343 -0.543403 0.314271 158 
0.336377 -0.543412 0.315124 161 
0.33662 -0.543464 0.316026 167 
0.336655 -0.543473 0.316881 167 
0.336899 -0.543525 0.317785 167 
0.336831 -0.543513 0.318618 175 
0.337233 -0.543598 0.319562 172 
0.336488 -0.543447 0.320235 175 
0.335643 -0.543275 0.320881 167 
0.336356 -0.543423 0.321902 166 
0.336603 -0.543476 0.322813 163 
0.336381 -0.543433 0.323609 170 
0.336369 -0.543432 0.324458 170 
0.336409 -0.543442 0.32532 167 
0.335462 -0.543249 0.325934 166 
0.336074 -0.543377 0.326941 171 
0.336533 -0.543473 0.327912 172 
0.335223 -0.543206 0.328428 166 
0.335109 -0.543185 0.329251 174 
0.334789 -0.543121 0.330021 171 
0.334315 -0.543026 0.330749 170 
0.334048 -0.542973 0.33153 168 
0.333473 -0.542857 0.332229 169 
0.333259 -0.542815 0.333024 162 
0.332021 -0.542562 0.33354 160 
0.333451 -0.542858 0.334782 166 
0.332571 -0.542679 0.335393 171 
0.332976 -0.542764 0.336359 162 
0.331586 -0.54248 0.336825 168 
0.33158 -0.542481 0.337675 166 
0.331524 -0.542472 0.338512 164 
0.331111 -0.542389 0.339248 165 
0.330444 -0.542254 0.339909 165 
0.330389 -0.542244 0.340746 156 
0.330335 -0.542235 0.341584 160 
0.329367 -0.542038 0.342153 150 
0.329364 -0.54204 0.343005 152 
0.328653 -0.541895 0.343646 148 
0.32936 -0.542042 0.34471 149 
0.328346 -0.541836 0.345259 146 
0.327438 -0.541651 0.345836 145 
0.328495 -0.541871 0.347011 144 
0.328545 -0.541883 0.347881 149 
0.328242 -0.541823 0.348643 146 
0.328444 -0.541866 0.349562 141 
0.32885 -0.541952 0.350546 134 
0.328496 -0.541881 0.351292 135 
0.329207 -0.542029 0.352377 134 
0.329159 -0.542021 0.353222 137 
0.3284 -0.541867 0.353838 138 
0.329367 -0.542068 0.355012 139 
0.329319 -0.54206 0.355859 137 
0.33019 -0.542241 0.357008 138 
0.329124 -0.542024 0.357522 135 
0.329586 -0.542121 0.35854 127 
0.329489 -0.542103 0.359374 126 
0.329852 -0.542179 0.360362 118 
0.329042 -0.542015 0.360957 126 
0.328946 -0.541997 0.361791 115 
0.329513 -0.542116 0.362853 112 
0.330748 -0.542372 0.364148 102 
0.330551 -0.542333 0.364953 102 
0.330559 -0.542337 0.365829 108 
0.330464 -0.542319 0.36667 104 
0.330833 -0.542397 0.367674 114 
0.331099 -0.542454 0.368645 106 
0.330646 -0.542363 0.369361 102 
0.330913 -0.54242 0.370334 109 
0.331542 -0.542551 0.371439 109 
0.33176 -0.542598 0.372399 111 
0.33229 -0.542709 0.373474 122 
0.332458 -0.542746 0.37442 115 
0.332522 -0.542761 0.375328 115 
0.331653 -0.542584 0.375892 113 
0.333017 -0.542867 0.377285 116 
0.333344 -0.542936 0.378296 119 
0.333253 -0.54292 0.379152 118 
0.333373 -0.542946 0.380088 119 
0.333283 -0.54293 0.380945 118 
0.333874 -0.543054 0.382064 121 
0.333471 -0.542973 0.382803 121 
0.333697 -0.543021 0.383785 118 
0.334134 -0.543113 0.384851 112 
0.334203 -0.54313 0.385775 109 
0.334906 -0.543276 0.38695 118 
0.336088 -0.543522 0.388319 114 
0.335683 -0.54344 0.389061 111 
0.335385 -0.543381 0.389846 105 
0.33514 -0.543333 0.390651 101 
0.335583 -0.543426 0.391735 99 
0.336081 -0.543531 0.392844 102 
0.336209 -0.543559 0.393804 97 
0.33639 -0.543598 0.394787 100 
0.337802 -0.543891 0.39628 106 
0.336861 -0.543699 0.396804 102 
0.337419 -0.543816 0.39795 95 
0.338571 -0.544056 0.399348 94 
0.337788 -0.543897 0.399937 91 
0.339431 -0.544237 0.40155 92 
0.339727 -0.5443 0.402598 98 
0.339862 -0.54433 0.403579 95 
0.340595 -0.544483 0.404819 85 
0.340731 -0.544513 0.405805 90 
0.340323 -0.544431 0.406556 95 
0.341991 -0.544777 0.408212 92 
0.341198 -0.544616 0.408798 98 
0.341501 -0.54468 0.409863 96 
0.341805 -0.544745 0.410931 92 
0.341835 -0.544753 0.41188 98 
0.342967 -0.544989 0.413322 91 
0.342722 -0.54494 0.414152 100 
0.343086 -0.545017 0.415256 95 
0.343339 -0.545072 0.416313 104 
0.342929 -0.544989 0.41707 121 
0.343905 -0.545192 0.418459 99 
0.343328 -0.545076 0.419141 101 
0.343751 -0.545165 0.420282 97 
0.321276 -0.536211 0.0149546 9 
0.316825 -0.535342 0.0180056 13 
0.319551 -0.535878 0.0175886 9 
0.322011 -0.536361 0.0173106 10 
0.324549 -0.536859 0.0170046 13 
0.319191 -0.535813 0.0204516 14 
0.315669 -0.535126 0.0230076 12 
0.321557 -0.53628 0.0211286 12 
0.323733 -0.536708 0.0210086 9 
0.324911 -0.536941 0.0213616 11 
0.320398 -0.53606 0.0243556 16 
0.32091 -0.536162 0.0250126 13 
0.313487 -0.534712 0.0293126 14 
0.328443 -0.53764 0.0233546 12 
0.325178 -0.537003 0.0257476 9 
0.320918 -0.536172 0.0285746 15 
0.320089 -0.536012 0.0298376 18 
0.324612 -0.536899 0.0286966 18 
0.324374 -0.536854 0.0296986 14 
0.321778 -0.536348 0.0317456 18 
0.325062 -0.536993 0.0311816 17 
0.324724 -0.536929 0.0322246 16 
0.323128 -0.536619 0.0338156 15 
0.322293 -0.536457 0.0350666 21 
0.324823 -0.536954 0.0348556 15 
0.323932 -0.536782 0.0361296 23 
0.324857 -0.536965 0.0366196 16 
0.323064 -0.536616 0.0382746 16 
0.326769 -0.537343 0.0375826 22 
0.323903 -0.536785 0.0396866 19 
0.32337 -0.536682 0.0407946 16 
0.325908 -0.537181 0.0406126 19 
0.322559 -0.536527 0.0428956 16 
0.32788 -0.537571 0.0415666 16 
0.323548 -0.536725 0.0442436 20 
0.321873 -0.536399 0.0458106 19 
0.321894 -0.536405 0.0466776 21 
0.325015 -0.537018 0.0462826 20 
0.322334 -0.536496 0.0482466 20 
0.322306 -0.536492 0.0491316 25 
0.32104 -0.536246 0.0505106 23 
0.321854 -0.536408 0.0510556 18 
0.322373 -0.536511 0.0517206 18 
0.322445 -0.536527 0.0525616 15 
0.318631 -0.535783 0.0549266 17 
0.32091 -0.536231 0.0548996 21 
0.319706 -0.535997 0.0562316 23 
0.321155 -0.536283 0.0565336 23 
0.319267 -0.535915 0.0581226 27 
0.318707 -0.535807 0.0591956 26 
0.319269 -0.535919 0.0598396 29 
0.317498 -0.535574 0.0613666 26 
0.318057 -0.535686 0.0620096 27 
0.318035 -0.535684 0.0628716 27 
0.317917 -0.535662 0.0637686 30 
0.316449 -0.535377 0.0651636 27 
0.316477 -0.535384 0.0660016 31 
0.31665 -0.53542 0.0667866 28 
0.31615 -0.535324 0.0678146 29 
0.316707 -0.535435 0.0684596 28 
0.313684 -0.534845 0.0703906 32 
0.314758 -0.535057 0.0708466 28 
0.315742 -0.535252 0.0713386 34 
0.314771 -0.535064 0.0725226 31 
0.317916 -0.535682 0.0722586 33 
0.316407 -0.535388 0.0736296 36 
0.314959 -0.535106 0.0749736 38 
0.315848 -0.535282 0.0755046 40 
0.317269 -0.535563 0.0758556 35 
0.315531 -0.535224 0.0772886 40 
0.316231 -0.535363 0.0778886 39 
0.315311 -0.535185 0.0790356 42 
0.316011 -0.535324 0.0796366 42 
0.31614 -0.535351 0.0804296 41 
0.316269 -0.535378 0.0812216 42 
0.315731 -0.535275 0.0822336 43 
0.316147 -0.535358 0.0829306 42 
0.317473 -0.53562 0.0833326 43 
0.318085 -0.535742 0.0839706 44 
0.317591 -0.535647 0.0849646 40 
0.317243 -0.535581 0.0859096 41 
0.319059 -0.535939 0.0861676 38 
0.317795 -0.535693 0.0874006 46 
0.317544 -0.535646 0.0883116 43 
0.31715 -0.53557 0.0892656 42 
0.31911 -0.535956 0.0894906 42 
0.318184 -0.535777 0.0906076 45 
0.318222 -0.535786 0.0914276 43 
0.317733 -0.535692 0.0924056 45 
0.318876 -0.535918 0.0928906 47 
0.319543 -0.536051 0.0935216 42 
0.318907 -0.535928 0.0945416 46 
0.319091 -0.535966 0.0953156 47 
0.320582 -0.53626 0.0957086 51 
0.319124 -0.535976 0.0969636 49 
0.319792 -0.536109 0.0975986 48 
0.320704 -0.53629 0.0981646 50 
0.3206 -0.536271 0.0990236 55 
0.320642 -0.536281 0.0998406 55 
0.320636 -0.536282 0.100671 55 
0.322333 -0.536617 0.101026 54 
0.322083 -0.53657 0.101925 52 
0.321542 -0.536466 0.102903 57 
0.323934 -0.536936 0.103078 59 
0.321533 -0.536467 0.10456 54 
0.321578 -0.536478 0.105375 55 
0.324511 -0.537055 0.105418 58 
0.321717 -0.536509 0.106989 60 
0.322738 -0.536711 0.107546 64 
0.323959 -0.536953 0.108053 64 
0.323124 -0.536791 0.109098 58 
0.323759 -0.536917 0.109761 60 
0.32273 -0.536717 0.11085 58 
0.323658 -0.536901 0.11144 57 
0.324345 -0.537038 0.112093 60 
0.324295 -0.53703 0.112931 59 
0.324295 -0.537032 0.113757 62 
0.324443 -0.537063 0.114546 63 
0.325577 -0.537287 0.115095 68 
0.324986 -0.537173 0.116064 69 
0.326124 -0.537398 0.116616 71 
0.327367 -0.537644 0.117147 71 
0.326624 -0.5375 0.118151 64 
0.327222 -0.53762 0.118837 71 
0.327225 -0.537622 0.119663 72 
0.327428 -0.537664 0.120444 80 
0.32788 -0.537754 0.121167 83 
0.327934 -0.537767 0.121982 84 
0.328538 -0.537887 0.122673 83 
0.329546 -0.538087 0.123276 85 
0.328449 -0.537874 0.124346 83 
0.329658 -0.538113 0.124909 80 
0.330268 -0.538234 0.125604 83 
0.330123 -0.538208 0.126464 91 
0.330382 -0.53826 0.127237 85 
0.331198 -0.538422 0.127893 83 
0.331763 -0.538535 0.128604 88 
0.331315 -0.538449 0.129526 90 
0.332643 -0.538712 0.130082 93 
0.332551 -0.538696 0.130931 87 
0.332917 -0.538769 0.131687 92 
0.332673 -0.538723 0.132566 95 
0.333908 -0.538967 0.133151 90 
0.33397 -0.538982 0.13397 90 
0.334956 -0.539177 0.13461 91 
0.334199 -0.53903 0.135587 96 
0.335238 -0.539236 0.13622 100 
0.3352 -0.539231 0.137059 99 
0.335008 -0.539195 0.137926 99 
0.336155 -0.539422 0.138546 105 
0.337984 -0.539783 0.139046 95 
0.336961 -0.539584 0.140065 97 
0.33708 -0.539609 0.140877 105 
0.33694 -0.539584 0.141734 109 
0.337891 -0.539772 0.142401 111 
0.338065 -0.539808 0.143204 111 
0.339544 -0.540101 0.143786 109 
0.339772 -0.540147 0.144583 111 
0.340263 -0.540246 0.145338 112 
0.3396 -0.540117 0.146283 108 
0.339935 -0.540185 0.147063 116 
0.340217 -0.540242 0.147853 112 
0.340291 -0.540259 0.148676 114 
0.340891 -0.540379 0.149417 117 
0.341546 -0.540509 0.150151 122 
0.340988 -0.540401 0.151073 112 
0.342226 -0.540646 0.151721 118 
0.342144 -0.540632 0.152571 118 
0.342857 -0.540774 0.153302 120 
0.342299 -0.540666 0.154221 127 
0.34312 -0.54083 0.15494 129 
0.343199 -0.540847 0.155766 132 
0.343651 -0.540938 0.15654 132 
0.344319 -0.541071 0.157286 126 
0.343973 -0.541005 0.158172 130 
0.343096 -0.540835 0.159126 124 
0.34387 -0.540989 0.15986 121 
0.344006 -0.541017 0.160679 124 
0.343716 -0.540962 0.161553 122 
0.344333 -0.541085 0.162311 122 
0.344098 -0.541041 0.163177 118 
0.344183 -0.54106 0.164003 123 
0.34491 -0.541204 0.164751 122 
0.344622 -0.54115 0.165622 127 
0.344709 -0.541169 0.166448 128 
0.344423 -0.541114 0.167317 129 
0.344725 -0.541176 0.168118 136 
0.34428 -0.54109 0.169003 143 
0.344049 -0.541047 0.169863 142 
0.344192 -0.541077 0.170681 146 
0.343325 -0.540908 0.171606 148 
0.34315 -0.540876 0.172455 148 
0.343454 -0.540937 0.173256 149 
0.34291 -0.540832 0.174142 146 
0.342631 -0.54078 0.174999 150 
0.342566 -0.540769 0.175835 154 
0.342289 -0.540716 0.17669 153 
0.341698 -0.540602 0.177572 152 
0.341687 -0.540602 0.1784 159 
0.340731 -0.540416 0.179311 157 
0.341246 -0.540519 0.180092 155 
0.340398 -0.540354 0.180989 161 
0.339971 -0.540272 0.181847 164 
0.340801 -0.540437 0.182604 166 
0.339435 -0.540171 0.183535 169 
0.338753 -0.540038 0.184408 166 
0.339007 -0.54009 0.185209 165 
0.338638 -0.54002 0.186056 164 
0.338167 -0.539929 0.186909 164 
0.338163 -0.53993 0.187727 167 
0.337746 -0.53985 0.188573 168 
0.337692 -0.539841 0.189394 167 
0.336813 -0.53967 0.190267 170 
0.335837 -0.53948 0.191142 167 
0.336606 -0.539633 0.191909 169 
0.335325 -0.539383 0.192797 172 
0.335427 -0.539405 0.193603 170 
0.335224 -0.539367 0.194426 181 
0.334869 -0.539299 0.195256 178 
0.334311 -0.539192 0.196094 170 
0.334212 -0.539174 0.196908 170 
0.333253 -0.538987 0.197762 167 
0.333662 -0.539069 0.198551 172 
0.332706 -0.538883 0.1994 171 
0.332409 -0.538827 0.200218 170 
0.332364 -0.53882 0.201025 174 
0.331366 -0.538626 0.201866 176 
0.331172 -0.538589 0.202676 171 
0.33083 -0.538524 0.20349 171 
0.330788 -0.538517 0.204294 172 
0.330546 -0.538472 0.205103 169 
0.330506 -0.538466 0.205905 171 
0.330865 -0.538538 0.206697 175 
0.330875 -0.538542 0.207499 177 
0.330936 -0.538556 0.208299 172 
0.330149 -0.538403 0.209117 171 
0.330011 -0.538378 0.209919 165 
0.330522 -0.53848 0.210711 170 
0.330685 -0.538514 0.21151 168 
0.330599 -0.538499 0.212312 168 
0.330863 -0.538552 0.213111 166 
0.331277 -0.538636 0.213909 169 
0.331393 -0.53866 0.21471 168 
0.331359 -0.538656 0.215513 168 
0.33238 -0.538858 0.216312 165 
0.331844 -0.538755 0.217117 169 
0.33131 -0.538651 0.21792 165 
0.33198 -0.538785 0.218724 166 
0.332553 -0.5389 0.21953 164 
0.333076 -0.539004 0.220339 166 
0.333198 -0.53903 0.221145 170 
0.332966 -0.538986 0.221949 164 
0.33329 -0.539052 0.222759 168 
0.333717 -0.539138 0.223571 164 
0.333537 -0.539104 0.224375 167 
0.334422 -0.53928 0.225198 169 
0.333786 -0.539157 0.225994 169 
0.334928 -0.539384 0.226826 165 
0.334089 -0.53922 0.227615 172 
0.334419 -0.539287 0.228432 170 
0.334802 -0.539364 0.229251 167 
0.335083 -0.539422 0.230069 160 
0.335315 -0.539469 0.230886 166 
0.335547 -0.539517 0.231704 169 
0.336241 -0.539655 0.23254 170 
0.336527 -0.539713 0.233363 170 
0.336198 -0.53965 0.234163 167 
0.336126 -0.539638 0.234973 162 
0.335952 -0.539606 0.235779 163 
0.335779 -0.539573 0.236584 162 
0.336221 -0.539662 0.237416 162 
0.336717 -0.539762 0.238253 165 
0.337833 -0.539983 0.239123 165 
0.337042 -0.539829 0.239899 157 
0.338109 -0.540041 0.240771 155 
0.338197 -0.540061 0.241593 158 
0.337097 -0.539846 0.242348 162 
0.337288 -0.539885 0.243175 158 
0.337583 -0.539945 0.244009 150 
0.336797 -0.539793 0.244776 154 
0.337247 -0.539883 0.245621 153 
0.337235 -0.539883 0.246437 152 
0.336451 -0.53973 0.2472 150 
0.335875 -0.539619 0.247975 152 
0.33607 -0.539659 0.248803 151 
0.335803 -0.539608 0.249599 157 
0.335743 -0.539598 0.250409 164 
0.335018 -0.539457 0.251167 154 
0.334754 -0.539407 0.25196 153 
0.336333 -0.53972 0.252903 160 
0.334485 -0.539358 0.253564 157 
0.334784 -0.539419 0.254403 164 
0.334217 -0.539309 0.255168 158 
0.333703 -0.53921 0.255935 168 
0.333141 -0.539101 0.256696 162 
0.332985 -0.539072 0.257493 164 
0.333183 -0.539113 0.258323 171 
0.332522 -0.538985 0.259071 167 
0.332166 -0.538916 0.259847 161 
0.332114 -0.538908 0.260653 164 
0.332364 -0.538959 0.26149 168 
0.332363 -0.538961 0.262301 168 
0.332009 -0.538893 0.263076 167 
0.331707 -0.538835 0.263854 168 
0.330903 -0.538679 0.264577 163 
0.331206 -0.53874 0.265421 162 
0.330055 -0.538515 0.2661 167 
0.329209 -0.538351 0.266811 169 
0.329062 -0.538324 0.267601 166 
0.329264 -0.538365 0.268433 169 
0.329417 -0.538397 0.26926 174 
0.327832 -0.538087 0.269872 162 
0.328779 -0.538275 0.270797 164 
0.328982 -0.538317 0.271632 170 
0.328441 -0.538212 0.272371 170 
0.327754 -0.538079 0.273089 164 
0.3292 -0.538366 0.274089 167 
0.329108 -0.538349 0.274887 164 
0.328469 -0.538225 0.27561 163 
0.328875 -0.538307 0.276476 158 
0.328883 -0.538311 0.277288 160 
0.328694 -0.538275 0.278072 163 
0.328952 -0.538328 0.278921 166 
0.328415 -0.538224 0.279654 169 
0.328526 -0.538248 0.280482 164 
0.329434 -0.538428 0.28143 167 
0.328997 -0.538344 0.282178 162 
0.32876 -0.538299 0.282955 164 
0.329822 -0.538511 0.283934 169 
0.329585 -0.538466 0.284713 168 
0.32995 -0.53854 0.285587 158 
0.329564 -0.538465 0.286341 162 
0.329679 -0.53849 0.287177 161 
0.330146 -0.538584 0.288071 164 
0.329661 -0.53849 0.288809 159 
0.330682 -0.538693 0.2898 164 
0.330348 -0.538629 0.290563 161 
0.330115 -0.538585 0.291342 161 
0.331291 -0.538819 0.292369 155 
0.330756 -0.538715 0.293097 159 
0.330775 -0.538721 0.293923 151 
0.331958 -0.538956 0.29496 158 
0.33274 -0.539112 0.295929 156 
0.332864 -0.539138 0.296779 157 
0.33309 -0.539185 0.29765 159 
0.333113 -0.539191 0.298483 160 
0.333647 -0.539299 0.299414 158 
0.333161 -0.539205 0.300151 157 
0.333492 -0.539272 0.301046 156 
0.333977 -0.539369 0.301973 157 
0.335185 -0.539609 0.303047 159 
0.333927 -0.539363 0.30363 155 
0.335187 -0.539614 0.304719 153 
0.33537 -0.539652 0.305594 158 
0.335553 -0.53969 0.306469 154 
0.335324 -0.539647 0.30726 158 
0.335612 -0.539705 0.308159 158 
0.335849 -0.539754 0.309049 164 
0.335983 -0.539782 0.309918 155 
0.33617 -0.539821 0.3108 156 
0.336513 -0.539891 0.311717 160 
0.336806 -0.53995 0.312625 161 
0.336683 -0.539928 0.313442 158 
0.337394 -0.54007 0.314447 163 
0.339316 -0.540451 0.315728 162 
0.338248 -0.540242 0.316336 165 
0.337655 -0.540128 0.317049 168 
0.339319 -0.540458 0.318284 169 
0.339356 -0.540467 0.319146 166 
0.339394 -0.540476 0.320008 166 
0.338012 -0.540206 0.320533 167 
0.339102 -0.540423 0.321647 161 
0.337251 -0.54006 0.322053 164 
0.337499 -0.540111 0.322966 163 
0.337225 -0.540058 0.323751 168 
0.337213 -0.540058 0.3246 163 
0.337149 -0.540047 0.325437 161 
0.336876 -0.539995 0.326222 165 
0.336917 -0.540006 0.327087 170 
0.335708 -0.539769 0.327632 173 
0.336219 -0.539872 0.328616 170 
0.336678 -0.539964 0.329589 172 
0.335887 -0.53981 0.330238 169 
0.334995 -0.539636 0.330858 167 
0.334314 -0.539504 0.33153 168 
