0.467019,0.0843891,0.0519786,147
0.466609,0.0843605,0.0528081,145
0.467035,0.0843861,0.0537337,141
0.466566,0.0843537,0.0545554,139
0.467113,0.0843872,0.0554977,143
0.467302,0.0843975,0.0563988,140
0.466835,0.0843652,0.0572196,139
0.467744,0.0844221,0.0582121,134
0.467696,0.084417,0.0590861,145
0.46789,0.0844276,0.0599916,142
0.468084,0.0844381,0.0608982,139
0.4687,0.084476,0.0618622,138
0.468957,0.0844907,0.0627803,144
0.469094,0.0844975,0.0636832,141
0.46893,0.0844849,0.0645453,145
0.469431,0.0845153,0.0655007,148
0.469873,0.0845419,0.0664501,151
0.470074,0.084553,0.0673666,148
0.470641,0.0845876,0.0683379,152
0.471271,0.0846264,0.0693211,154
0.471965,0.0846693,0.0703166,149
0.470706,0.0845858,0.071018,151
0.470607,0.0845774,0.0718938,146
0.47057,0.084573,0.0727792,148
0.471021,0.0846001,0.073742,143
0.471412,0.0846234,0.0746974,146
0.471194,0.0846073,0.0755562,148
0.471527,0.0846268,0.0765045,147
0.471554,0.0846265,0.0774042,149
0.472747,0.0847017,0.0784995,151
0.473392,0.0847414,0.079507,146
0.472745,0.0846975,0.0802962,150
0.472776,0.0846974,0.0812008,153
0.473856,0.0847652,0.0822894,147
0.474136,0.0847813,0.0832412,148
0.475224,0.0848496,0.0843389,147
0.474389,0.0847936,0.0850939,150
0.47461,0.0848058,0.086039,142
0.475143,0.0848382,0.0870428,149
0.475304,0.0848465,0.08798,153
0.475217,0.0848389,0.0888715,151
0.476003,0.0848876,0.0899293,150
0.475792,0.0848719,0.090799,153
0.476457,0.0849128,0.0918384,151
0.476748,0.0849296,0.0928076,156
0.476915,0.0849383,0.0937538,150
0.477523,0.0849755,0.0947893,152
0.478196,0.0850169,0.0958408,154
0.477547,0.0849729,0.0966262,154
0.478348,0.0850226,0.0977078,153
0.478331,0.0850193,0.0986231,156
0.477998,0.0849958,0.0994729,149
0.479946,0.0851195,0.100804,156
0.478598,0.0850304,0.10144,156
0.479344,0.0850764,0.102522,158
0.479584,0.0850899,0.103498,158
0.47938,0.0850746,0.104378,161
0.479368,0.0850717,0.1053,156
0.479419,0.0850729,0.106237,158
0.479218,0.0850578,0.107118,156
0.479016,0.0850428,0.107999,162
0.479388,0.0850646,0.10901,151
0.478744,0.085021,0.109789,152
0.479052,0.0850388,0.110788,154
0.478981,0.0850321,0.1117,152
0.478403,0.0849927,0.112492,150
0.477763,0.0849493,0.113268,147
0.478137,0.0849713,0.114286,150
0.478512,0.0849934,0.115306,157
0.477873,0.0849501,0.11608,154
0.477553,0.0849274,0.116931,159
0.476981,0.0848884,0.11772,158
0.476789,0.0848739,0.118601,156
0.47666,0.0848635,0.119498,154
0.475966,0.0848166,0.120252,160
0.475714,0.0847983,0.121117,157
0.475274,0.0847678,0.121933,155
0.474085,0.0846891,0.122554,158
0.474023,0.084683,0.123465,155
0.473525,0.0846488,0.124262,158
0.473838,0.0846668,0.125273,158
0.473404,0.0846368,0.126086,156
0.472288,0.0845627,0.126715,156
0.472291,0.0845608,0.127643,153
0.471984,0.084539,0.128488,154
0.471369,0.0844973,0.129247,148
0.470202,0.08442,0.129851,152
0.470145,0.0844142,0.130761,151
0.469782,0.0843887,0.131586,149
0.468745,0.0843199,0.132219,148
0.468874,0.0843261,0.133181,150
0.468086,0.0842732,0.133882,144
0.468032,0.0842676,0.134792,137
0.467491,0.0842307,0.13556,139
0.467073,0.0842017,0.136364,138
0.467142,0.0842041,0.13731,145
0.466786,0.0841791,0.138131,142
0.466007,0.0841268,0.138824,139
0.466199,0.0841371,0.139808,137
0.465543,0.0840927,0.140536,137
0.464949,0.0840524,0.141282,142
0.465081,0.0840588,0.142248,137
0.465153,0.0840614,0.143197,131
0.465771,0.084099,0.144317,128
0.466452,0.0841408,0.145459,122
0.464708,0.0840265,0.145842,127
0.465691,0.0840876,0.147082,132
0.464435,0.0840047,0.147614,129
0.46451,0.0840074,0.148568,125
0.464042,0.0839752,0.149349,119
0.464541,0.0840052,0.150441,116
0.464316,0.0839886,0.1513,113
0.464695,0.0840109,0.152358,114
0.466535,0.0841271,0.1539,112
0.466005,0.0840909,0.154663,107
0.46572,0.0840704,0.155506,106
0.467082,0.0841558,0.156903,96
0.467531,0.0841826,0.157998,97
0.466511,0.0841149,0.158595,92
0.466166,0.0840906,0.159419,89
0.465396,0.084039,0.160097,87
0.466027,0.0840774,0.161258,95
0.465623,0.0840493,0.162061,98
0.466561,0.0841075,0.163334,88
0.467505,0.0841659,0.164614,86
0.466181,0.0840787,0.165095,89
0.466267,0.0840821,0.166073,93
0.466353,0.0840855,0.167053,92
0.467054,0.0841283,0.168255,91
0.468003,0.0841872,0.169552,89
0.46902,0.0842503,0.170878,84
0.46812,0.0841904,0.171505,88
0.468519,0.0842138,0.17261,91
0.468363,0.0842016,0.17351,93
0.469882,0.084297,0.175035,91
0.468484,0.0842051,0.175474,89
0.469197,0.0842487,0.176704,87
0.468918,0.0842286,0.177562,86
0.469758,0.0842803,0.178846,85
0.469666,0.0842722,0.179777,77
0.470011,0.0842922,0.180876,81
0.471171,0.0843644,0.182294,81
0.471395,0.0843766,0.183353,76
0.474849,0.084596,0.185678,83
0.47178,0.0843969,0.185452,79
0.473144,0.0844821,0.186967,78
0.472611,0.0844458,0.187734,76
0.472396,0.0844298,0.188628,79
0.473575,0.0845032,0.190081,79
0.47317,0.084475,0.190901,79
0.472702,0.0844428,0.191694,74
0.474651,0.0845655,0.193472,79
0.475269,0.0846029,0.194713,76
0.474607,0.0845582,0.195431,72
0.476382,0.0846697,0.197156,73
0.476426,0.0846703,0.198168,71
0.476728,0.0846874,0.19929,72
0.476644,0.0846798,0.200252,74
0.477725,0.0847468,0.201707,71
0.476864,0.0846894,0.202343,74
0.478794,0.0848108,0.204166,69
0.477866,0.084749,0.204774,67
0.480135,0.0848922,0.206755,75
0.480382,0.0849057,0.207873,71
0.480893,0.0849361,0.209107,69
0.481472,0.084971,0.210373,71
0.481392,0.0849635,0.211354,73
0.482173,0.0850112,0.212716,72
0.480574,0.0849065,0.213026,74
0.481221,0.0849457,0.214332,77
0.482668,0.085036,0.215999,107
0.481992,0.0849904,0.216719,80
0.481915,0.0849832,0.217707,78
0.481971,0.0849845,0.218757,77
0.206162,0.069425,-0.101698,7
0.274666,0.0744926,-0.133098,9
0.27627,0.07461,-0.133252,7
0.598095,0.0984246,-0.284016,7
0.566982,0.0961192,-0.268095,8
0.478897,0.0895984,-0.225663,10
0.470245,0.0889559,-0.220616,9
0.205146,0.0693427,-0.0980927,10
0.476329,0.0894015,-0.221419,7
0.260807,0.0734568,-0.122108,10
0.479521,0.089633,-0.220853,8
0.2365,0.0716569,-0.110163,7
0.209028,0.0696247,-0.097565,7
0.465909,0.0886194,-0.211672,7
1.26306,0.147573,-0.569825,8
0.474818,0.0892738,-0.213678,9
0.47501,0.0892857,-0.212761,10
0.297872,0.0761868,-0.133785,9
0.473854,0.0891956,-0.21025,9
0.472005,0.0890567,-0.208442,8
0.109492,0.0622646,-0.0533643,8
0.477987,0.0894944,-0.209054,9
0.479752,0.0896226,-0.208813,11
0.474886,0.0892607,-0.205716,9
0.479426,0.0895939,-0.206663,8
0.475857,0.0893279,-0.20414,8
0.468253,0.0887638,-0.199925,10
0.469322,0.0888405,-0.199397,12
0.466713,0.0886455,-0.197324,14
0.474332,0.0892063,-0.19953,10
0.468218,0.0887523,-0.196003,11
0.469724,0.0888614,-0.195651,18
0.47621,0.0893383,-0.197341,16
0.473147,0.0891098,-0.195098,12
0.477126,0.0894014,-0.195736,17
0.475331,0.0892667,-0.19402,10
0.473807,0.0891519,-0.192421,17
0.472736,0.0890706,-0.191011,19
0.474143,0.0891723,-0.190594,10
0.479368,0.0895558,-0.191688,14
0.471567,0.0889776,-0.187619,16
0.475002,0.0892291,-0.187996,12
0.48188,0.0897346,-0.189704,14
0.47426,0.0891698,-0.185751,13
0.483217,0.0898288,-0.188238,12
0.471754,0.0889804,-0.182837,14
0.478661,0.089488,-0.18451,16
0.475905,0.0892824,-0.18248,16
0.474388,0.0891683,-0.18093,18
0.476509,0.0893226,-0.180757,19
0.476267,0.0893025,-0.179692,21
0.479245,0.08952,-0.179827,18
0.476681,0.0893287,-0.177899,20
0.480379,0.0895992,-0.178288,18
0.478837,0.0894833,-0.176744,20
0.477628,0.0893919,-0.175328,20
0.481143,0.089649,-0.175629,20
0.478823,0.0894756,-0.173815,17
0.481568,0.0896759,-0.173826,19
0.485006,0.0899272,-0.174073,20
0.488022,0.0901474,-0.174158,23
0.481036,0.08963,-0.170708,24
0.48506,0.0899245,-0.171143,22
0.487139,0.0900756,-0.170886,22
0.482859,0.0897578,-0.168419,19
0.484128,0.0898492,-0.167881,23
0.486333,0.0900095,-0.167659,20
0.482333,0.0897125,-0.165317,24
0.483076,0.089765,-0.164596,24
0.483952,0.0898273,-0.163918,25
0.48358,0.0897978,-0.162821,24
0.482165,0.0896912,-0.161378,23
0.483366,0.0897776,-0.160807,23
0.487889,0.0901086,-0.161322,27
0.485126,0.0899029,-0.159442,26
0.487806,0.0900981,-0.159339,21
0.486103,0.0899705,-0.157814,27
0.487591,0.0900779,-0.157318,27
0.491309,0.0903495,-0.157528,33
0.487446,0.0900628,-0.155324,28
0.487408,0.0900577,-0.154339,28
0.488904,0.0901657,-0.153835,24
0.4872,0.090038,-0.152332,27
0.485246,0.0898919,-0.150759,29
0.489328,0.0901903,-0.151045,29
0.489493,0.0902003,-0.150122,31
0.485604,0.0899117,-0.147973,26
0.487489,0.0900484,-0.147576,30
0.486065,0.0899414,-0.146184,34
0.493062,0.0904542,-0.147297,26
0.489925,0.0902211,-0.145395,27
0.486168,0.0899424,-0.143326,29
0.487129,0.090011,-0.142644,32
0.488694,0.0901239,-0.142134,27
0.491074,0.0902969,-0.141852,33
0.487173,0.0900077,-0.139772,34
0.491485,0.0903228,-0.140031,33
0.491726,0.0903383,-0.13913,39
0.490755,0.0902647,-0.137892,34
0.489723,0.0901866,-0.13664,37
0.491642,0.0903255,-0.136205,37
0.492087,0.0903561,-0.135361,40
0.490851,0.090263,-0.13406,35
0.491834,0.0903331,-0.133362,34
0.488931,0.0901175,-0.131622,34
0.492325,0.0903648,-0.131565,35
0.489819,0.0901784,-0.129941,39
0.491337,0.0902878,-0.12938,37
0.491988,0.0903335,-0.128588,37
0.489223,0.0901281,-0.126915,40
0.488937,0.0901049,-0.125887,35
0.490117,0.0901895,-0.125232,41
0.490366,0.0902056,-0.124339,37
0.491419,0.0902809,-0.123647,32
0.490131,0.090184,-0.122371,39
0.49246,0.0903531,-0.12199,40
0.492377,0.0903448,-0.121013,38
0.490217,0.0901839,-0.119533,42
0.49047,0.0902003,-0.118642,47
0.493546,0.0904242,-0.118423,42
0.492655,0.0903566,-0.117255,46
0.489898,0.0901519,-0.115654,42
0.495337,0.0905493,-0.11597,41
0.490676,0.0902047,-0.113936,42
0.490933,0.0902214,-0.113046,48
0.491995,0.0902973,-0.112338,46
0.492321,0.0903191,-0.11146,54
0.492179,0.0903065,-0.110478,51
0.492104,0.0902989,-0.109512,53
0.491294,0.0902372,-0.108386,53
0.492226,0.0903035,-0.107641,55
0.492153,0.090296,-0.106677,52
0.494506,0.0904666,-0.106232,56
0.493691,0.0904047,-0.105108,52
0.49174,0.0902593,-0.10375,53
0.491337,0.0902276,-0.102722,54
0.493145,0.0903581,-0.10215,47
0.493077,0.090351,-0.101189,51
0.491937,0.0902652,-0.100013,50
0.492273,0.0902877,-0.0991374,59
0.490273,0.0901388,-0.0977983,57
0.489414,0.0900736,-0.096691,63
0.493219,0.0903507,-0.0964927,61
0.492753,0.0903143,-0.0954596,62
0.493563,0.0903717,-0.0946717,60
0.492897,0.0903207,-0.0936029,61
0.493238,0.0903436,-0.0927253,62
0.492508,0.0902879,-0.0916488,68
0.493051,0.0903256,-0.0908085,66
0.49079,0.0901576,-0.0894593,66
0.491865,0.0902343,-0.0887162,61
0.491875,0.090233,-0.087781,69
0.491953,0.0902365,-0.086858,73
0.491898,0.0902304,-0.0859122,73
0.491643,0.0902096,-0.084933,69
0.491457,0.0901938,-0.0839666,65
0.491138,0.0901684,-0.0829794,66
0.491819,0.0902162,-0.0821592,66
0.49097,0.0901518,-0.0810864,69
0.491518,0.0901899,-0.0802435,74
0.492603,0.0902673,-0.0794846,73
0.490889,0.0901396,-0.0782799,77
0.491373,0.0901729,-0.0774252,77
0.490729,0.0901236,-0.0763951,77
0.492013,0.0902156,-0.0756615,67
0.490904,0.0901322,-0.0745635,71
0.490263,0.0900832,-0.0735397,77
0.491879,0.0901995,-0.0728497,82
0.489914,0.0900534,-0.0716354,85
0.491064,0.0901355,-0.0708742,81
0.490559,0.0900964,-0.0698756,90
0.49085,0.0901157,-0.0689901,90
0.49048,0.0900865,-0.068013,94
0.489979,0.0900477,-0.0670201,97
0.490074,0.0900525,-0.0661089,85
0.49176,0.0901739,-0.0654071,84
0.491192,0.0901303,-0.064407,84
0.490429,0.0900723,-0.0633844,83
0.490527,0.0900774,-0.0624734,88
0.492619,0.0902284,-0.0618099,88
0.489669,0.0900104,-0.0605227,88
0.489836,0.0900205,-0.0596218,87
0.489937,0.0900258,-0.058713,98
0.489643,0.0900023,-0.0577581,94
0.490736,0.0900802,-0.0569636,99
0.489323,0.0899746,-0.0558826,99
0.489822,0.0900091,-0.0550193,100
0.489007,0.0899473,-0.0540111,106
0.489178,0.0899578,-0.053112,108
0.489482,0.089978,-0.0522266,106
0.488474,0.0899021,-0.0512045,103
0.487732,0.0898457,-0.0502135,109
0.48784,0.0898516,-0.0493104,111
0.486972,0.089786,-0.0483116,107
0.485201,0.0896544,-0.0472297,114
0.484473,0.0895991,-0.0462528,111
0.48394,0.0895581,-0.0452969,116
0.482898,0.0894798,-0.0442971,116
0.483073,0.0894906,-0.0434093,118
0.481336,0.0893615,-0.0423554,118
0.480245,0.0892796,-0.0413629,114
0.481372,0.08936,-0.0405586,118
0.479713,0.0892367,-0.0395247,120
0.478694,0.0891602,-0.0385478,121
0.478432,0.089139,-0.0376334,121
0.477546,0.0890722,-0.0366731,123
0.477974,0.0891015,-0.035813,122
0.477278,0.0890486,-0.0348709,120
0.476274,0.0889732,-0.03391,124
0.476579,0.0889934,-0.033042,130
0.475517,0.0889138,-0.0320828,131
0.474338,0.0888256,-0.0311202,132
0.474581,0.0888414,-0.0302508,133
0.473531,0.0887626,-0.0293024,134
0.473836,0.0887829,-0.0284376,135
0.472791,0.0887046,-0.0274951,134
0.472423,0.0886757,-0.0265939,132
0.471873,0.0886335,-0.0256845,128
0.471083,0.0885738,-0.024765,124
0.471449,0.0885986,-0.0239056,126
0.471451,0.0885967,-0.0230277,125
0.470968,0.0885594,-0.0221278,127
0.470789,0.0885444,-0.0212431,127
0.471706,0.0886094,-0.0204051,128
0.470678,0.0885323,-0.0194859,125
0.469534,0.0884468,-0.0185663,133
0.470751,0.0885337,-0.0177367,127
0.470334,0.0885013,-0.0168463,128
0.470403,0.0885043,-0.0159735,126
0.469686,0.0884501,-0.0150764,127
0.469817,0.0884576,-0.0142064,128
0.469949,0.0884652,-0.013336,126
0.470141,0.0884773,-0.0124668,134
0.470395,0.0884939,-0.0115983,135
0.469985,0.0884619,-0.0107148,133
0.469998,0.088461,-0.00984106,134
0.4708,0.0885175,-0.00898129,135
0.470512,0.0884945,-0.00810134,130
0.471621,0.0885734,-0.00724202,136
0.470848,0.088515,-0.00635579,132
0.471108,0.088532,-0.00548308,131
0.470581,0.0884916,-0.00460279,136
0.470478,0.0884821,-0.00372727,137
0.471957,0.088588,-0.00285956,133
0.470701,0.0884944,-0.00197861,136
0.471025,0.0885161,-0.00110387,135
0.471108,0.0885201,-0.000228143,132
0.470888,0.0885021,0.000647076,136
0.470912,0.0885019,0.00152261,133
0.47033,0.0884575,0.00239435,134
0.471569,0.0885459,0.00327906,136
0.470927,0.088497,0.00414929,141
0.471014,0.0885014,0.00502594,139
0.470921,0.0884926,0.00590044,141
0.472105,0.088577,0.00679474,143
0.472134,0.0885771,0.00767317,138
0.471677,0.0885418,0.00854229,135
0.472378,0.0885909,0.00943448,141
0.471556,0.088529,0.010294,141
0.471771,0.0885427,0.0111765,138
0.471561,0.0885254,0.0120485,142
0.47196,0.0885525,0.0129373,140
0.472056,0.0885575,0.0138183,137
0.472335,0.0885759,0.0147058,137
0.472861,0.0886122,0.0156028,145
0.472103,0.088555,0.0164555,140
0.47263,0.0885914,0.0173543,139
0.472607,0.0885877,0.0182333,142
0.471914,0.0885352,0.0190843,139
0.472993,0.0886118,0.0200101,143
0.473402,0.0886396,0.0209096,141
0.472892,0.0886005,0.0217673,143
0.472996,0.0886061,0.0226533,141
0.472917,0.0885983,0.0235306,141
0.472594,0.0885728,0.0243948,143
0.472945,0.0885964,0.0252949,145
0.47342,0.088629,0.0262035,143
0.472915,0.0885902,0.0270566,142
0.472472,0.088556,0.0279118,145
0.472215,0.0885352,0.028777,144
0.472385,0.0885457,0.0296689,148
0.472068,0.0885206,0.0305295,152
0.471569,0.0884823,0.0313767,151
0.471316,0.0884618,0.0322393,156
0.471428,0.088468,0.0331274,164
0.471054,0.0884388,0.0339803,167
0.471046,0.0884362,0.0348597,162
0.470857,0.0884205,0.0357252,169
0.468612,0.0882552,0.0364278,166
0.468486,0.088244,0.0372937,161
0.46794,0.0882023,0.0381245,156
0.467636,0.0881782,0.038974,149
0.467813,0.088189,0.0398641,151
0.46745,0.0881607,0.0407075,145
0.467148,0.0881368,0.0415553,146
0.467327,0.0881478,0.0424464,147
0.467266,0.0881414,0.043316,147
0.467446,0.0881525,0.0442087,147
0.467687,0.088168,0.0451083,154
0.46673,0.0880964,0.0458897,142
0.467031,0.0881164,0.0467955,149
0.467513,0.0881495,0.0477214,143
0.467397,0.088139,0.0485864,139
0.468062,0.0881854,0.049535,141
0.467527,0.0881445,0.0503555,142
0.467953,0.0881735,0.0512809,140
0.468141,0.0881851,0.0521812,143
0.468449,0.0882055,0.0530965,145
0.468578,0.0882129,0.0539923,139
0.468225,0.0881853,0.0548319,138
0.468476,0.0882015,0.0557431,137
0.468426,0.0881959,0.0566188,136
0.468739,0.0882166,0.0575396,137
0.468932,0.0882287,0.0584469,145
0.468583,0.0882013,0.0592859,144
0.468596,0.0882003,0.060171,139
0.468671,0.0882037,0.0610645,140
0.469472,0.0882599,0.0620556,146
0.469306,0.0882458,0.0629192,139
0.47005,0.0882979,0.0639075,144
0.471042,0.0883679,0.0649333,146
0.470999,0.0883628,0.0658175,147
0.470896,0.0883533,0.0666932,147
0.470977,0.0883571,0.0675955,149
0.471181,0.0883699,0.0685166,148
0.471202,0.0883694,0.0694117,150
0.471713,0.0884045,0.070381,148
0.472288,0.0884442,0.0713624,149
0.470659,0.0883239,0.0720065,145
0.4716,0.0883902,0.0730459,150
0.471686,0.0883945,0.0739544,148
0.47208,0.088421,0.0749127,151
0.472537,0.0884521,0.0758832,149
0.472441,0.0884432,0.0767654,151
0.473024,0.0884834,0.0777599,147
0.472252,0.0884254,0.0785304,154
0.473206,0.0884925,0.0795905,152
0.473545,0.0885151,0.0805496,154
0.474134,0.0885558,0.0815535,154
0.473918,0.0885381,0.0824194,151
0.474323,0.0885654,0.0833947,148
0.474419,0.0885703,0.0843167,143
0.4752,0.0886249,0.0853635,146
0.476172,0.0886934,0.0864487,148
0.475833,0.0886667,0.087296,144
0.475745,0.0886583,0.0881893,153
0.476284,0.0886953,0.0892008,153
0.476072,0.0886779,0.090072,153
0.476362,0.0886968,0.0910394,147
0.47659,0.0887113,0.0919965,144
0.477449,0.0887715,0.0930785,147
0.477932,0.0888045,0.0940901,152
0.47747,0.0887689,0.0949151,147
0.477766,0.0887883,0.0958917,152
0.478063,0.0888077,0.0968703,154
0.478741,0.0888548,0.0979289,157
0.479422,0.0889021,0.0989914,147
0.478644,0.0888435,0.0997511,149
0.478818,0.0888541,0.10071,150
0.479884,0.0889293,0.10186,150
0.479169,0.0888754,0.102632,151
0.478711,0.08884,0.103457,151
0.479333,0.088883,0.104517,162
0.479958,0.0889262,0.105582,155
0.480074,0.0889325,0.106535,153
0.478344,0.0888051,0.107075,159
0.478842,0.0888391,0.108114,150
0.478641,0.0888225,0.108996,151
0.479779,0.0889027,0.110186,149
0.479197,0.0888585,0.110981,156
0.479253,0.0888604,0.111924,152
0.478418,0.0887979,0.112657,154
0.479686,0.0888876,0.113889,160
0.478279,0.0887836,0.114484,156
0.478147,0.0887719,0.115383,157
0.478142,0.0887695,0.116313,153
0.477567,0.0887258,0.117103,154
0.477121,0.0886913,0.117923,155
0.476234,0.088625,0.118632,151
0.476105,0.0886136,0.11953,157
0.475537,0.0885704,0.120316,153
0.475096,0.0885364,0.121133,157
0.474719,0.088507,0.121965,158
0.474343,0.0884777,0.122797,154
0.47378,0.0884349,0.12358,151
0.473344,0.0884012,0.124394,158
0.472847,0.0883632,0.125191,155
0.472289,0.0883207,0.12597,157
0.473226,0.0883864,0.12715,156
0.473167,0.08838,0.128065,153
0.473108,0.0883737,0.12898,145
0.470938,0.0882146,0.129315,146
0.47051,0.0881816,0.130124,143
0.470948,0.0882111,0.131175,145
0.469596,0.0881113,0.131724,145
0.468926,0.0880608,0.132462,146
0.468871,0.0880547,0.133374,140
0.468694,0.0880398,0.13425,143
0.467478,0.0879497,0.134827,138
0.467485,0.0879482,0.135755,143
0.466519,0.0878762,0.136399,137
0.466284,0.0878572,0.137256,136
0.466719,0.0878865,0.138311,132
0.465756,0.0878148,0.138951,129
0.466374,0.0878574,0.140064,132
0.46602,0.0878297,0.140885,132
0.466213,0.0878416,0.141872,128
0.464709,0.0877308,0.142341,126
0.465144,0.0877601,0.143402,121
0.467165,0.087904,0.14496,121
0.465413,0.0877753,0.145345,123
0.466644,0.0878621,0.146664,117
0.46611,0.0878214,0.147429,113
0.465091,0.0877458,0.148038,114
0.465228,0.0877535,0.149015,116
0.464334,0.0876869,0.14966,110
0.465564,0.0877736,0.150992,105
0.464488,0.0876938,0.151577,109
0.465842,0.0877894,0.152956,107
0.465799,0.0877842,0.15388,107
0.465757,0.087779,0.154805,108
0.466631,0.08784,0.156037,100
0.466223,0.0878084,0.156842,94
0.466672,0.0878387,0.157935,92
0.466081,0.0877939,0.158678,91
0.466898,0.0878507,0.159901,88
0.466185,0.0877971,0.160601,89
0.466575,0.0878231,0.161682,85
0.466537,0.0878182,0.162615,85
0.467236,0.0878665,0.163808,83
0.467691,0.0878972,0.164918,85
0.466854,0.0878347,0.165573,84
0.467002,0.0878432,0.166576,88
0.466659,0.0878163,0.167405,85
0.469467,0.0880167,0.16937,91
0.468502,0.0879449,0.169978,83
0.467911,0.0879001,0.170719,82
0.468434,0.0879357,0.171868,88
0.469208,0.0879893,0.173113,88
0.469362,0.0879982,0.174131,88
0.469704,0.0880207,0.175221,83
0.469485,0.0880028,0.176103,86
0.469517,0.0880028,0.17708,83
0.469486,0.0879985,0.178033,81
0.470519,0.0880707,0.179393,85
0.470991,0.0881026,0.180544,81
0.470335,0.0880531,0.181262,82
0.4715,0.0881348,0.182684,84
0.471032,0.0880989,0.183475,71
0.472012,0.0881674,0.184833,74
0.472618,0.0882088,0.186048,77
0.473036,0.0882367,0.187192,79
0.474475,0.0883381,0.188745,78
0.473558,0.0882698,0.189363,78
0.475836,0.0884317,0.191262,68
0.474978,0.0883677,0.191905,67
0.479159,0.0886665,0.19459,64
0.476347,0.0884618,0.194441,67
0.476003,0.0884347,0.195293,65
0.477598,0.0885473,0.196943,62
0.477253,0.0885202,0.197798,66
0.478598,0.0886148,0.199356,65
0.477083,0.0885035,0.199723,63
0.477583,0.0885372,0.200933,65
0.477824,0.0885523,0.202036,63
0.478523,0.0886003,0.203336,65
0.479552,0.0886721,0.20478,67
0.478815,0.0886168,0.205472,60
0.481628,0.0888169,0.207693,69
0.482342,0.088866,0.209017,67
0.481333,0.0887911,0.209595,64
0.481319,0.0887878,0.210605,67
0.480776,0.0887465,0.211383,67
0.481888,0.0888242,0.212891,69
0.482474,0.088864,0.214171,68
0.48193,0.0888226,0.214952,72
0.482118,0.0888338,0.216058,98
0.481376,0.0887781,0.216749,76
0.481963,0.088818,0.218037,78
0.48282,0.0888773,0.219452,73
0.189963,0.0697607,-0.0944841,7
0.520932,0.0968684,-0.25013,9
0.594917,0.102926,-0.284159,8
0.626946,0.105547,-0.298047,7
0.585764,0.102171,-0.277305,9
0.142995,0.0659121,-0.0716035,7
0.20906,0.0713183,-0.10055,8
0.596835,0.103069,-0.278704,8
0.150598,0.066532,-0.0739098,7
2.54097,0.262259,-1.17462,9
0.489694,0.0942881,-0.225834,7
0.228971,0.0729426,-0.107075,8
0.379935,0.0852982,-0.174117,8
0.483563,0.0937791,-0.219952,11
0.49152,0.0944282,-0.2225,9
0.469831,0.0926505,-0.21177,11
0.479632,0.0934505,-0.215134,12
0.495398,0.0947385,-0.221101,8
0.476361,0.0931782,-0.211669,10
0.496437,0.0948188,-0.219468,9
0.476555,0.0931895,-0.209746,10
0.475907,0.0931343,-0.208462,11
0.482398,0.0936631,-0.210267,12
0.47851,0.0933427,-0.207582,9
0.760707,0.116427,-0.327683,10
0.490498,0.0943188,-0.210682,12
0.475853,0.0931185,-0.203447,10
0.485874,0.093936,-0.206679,8
0.480815,0.0935199,-0.20354,10
0.469186,0.0925665,-0.19768,9
0.470955,0.0927089,-0.197436,11
0.472991,0.0928732,-0.197296,13
0.474402,0.0929864,-0.196892,12
0.473514,0.0929115,-0.195541,18
0.473394,0.0928995,-0.194508,13
0.477062,0.0931971,-0.195011,14
0.471696,0.0927563,-0.191858,11
0.475209,0.0930412,-0.192289,16
0.475731,0.0930816,-0.191514,9
0.475034,0.0930225,-0.190253,14
0.476071,0.093105,-0.18968,15
0.479841,0.0934109,-0.190178,13
0.479981,0.0934201,-0.189243,11
0.477521,0.0932168,-0.187297,16
0.480197,0.0934332,-0.187349,17
0.486834,0.0939733,-0.188915,14
0.478591,0.0932975,-0.184758,15
0.479709,0.0933866,-0.184201,16
0.484127,0.0937454,-0.18489,18
0.477981,0.0932411,-0.181582,15
0.484284,0.0937537,-0.182964,18
0.485561,0.0938558,-0.182449,16
0.47958,0.093365,-0.179239,17
0.478946,0.093311,-0.178025,24
0.477861,0.0932202,-0.176649,21
0.491075,0.094297,-0.180492,18
0.481142,0.0934837,-0.17589,15
0.486447,0.0939146,-0.176823,14
0.482421,0.0935837,-0.17439,19
0.483888,0.0937012,-0.173932,24
0.484832,0.0937761,-0.173284,24
0.485847,0.0938567,-0.172657,20
0.493438,0.0944741,-0.174334,19
0.484358,0.0937307,-0.170169,27
0.489861,0.0941777,-0.171095,26
0.48988,0.094177,-0.170111,22
0.48455,0.0937397,-0.167295,24
0.48477,0.0937554,-0.166392,24
0.488123,0.0940268,-0.166548,24
0.487074,0.093939,-0.165211,28
0.48623,0.0938679,-0.163948,25
0.486519,0.0938893,-0.163065,24
0.485215,0.0937807,-0.161656,22
0.486833,0.0939105,-0.161212,23
0.487058,0.0939266,-0.160308,21
0.491931,0.0943219,-0.160913,27
0.486111,0.093845,-0.158049,24
0.489816,0.0941449,-0.158263,25
0.486563,0.0938774,-0.156246,28
0.486259,0.0938504,-0.155177,31
0.487818,0.0939754,-0.154695,29
0.495236,0.0945781,-0.156041,35
0.486876,0.0938942,-0.152455,30
0.489043,0.0940687,-0.152154,24
0.4915,0.0942667,-0.151933,24
0.491937,0.0943002,-0.151088,34
0.494011,0.0944671,-0.150737,27
0.493701,0.0944396,-0.149662,30
0.49387,0.0944511,-0.148732,27
0.492337,0.0943239,-0.147297,35
0.493527,0.0944187,-0.146671,27
0.496994,0.094699,-0.146709,33
0.492575,0.0943367,-0.144439,31
0.493972,0.0944483,-0.143868,30
0.492443,0.0943215,-0.142453,28
0.492548,0.0943279,-0.14151,35
0.493809,0.0944284,-0.140894,32
0.492623,0.0943296,-0.139587,33
0.493409,0.0943915,-0.138835,33
0.493789,0.0944202,-0.137968,37
0.493081,0.0943603,-0.136801,30
0.496127,0.0946063,-0.136664,34
0.490798,0.09417,-0.134242,37
0.493341,0.0943749,-0.133963,29
0.494268,0.0944482,-0.133243,37
0.492613,0.0943113,-0.131834,35
0.496271,0.094607,-0.131833,37
0.49481,0.0944857,-0.130478,37
0.494582,0.094465,-0.12945,40
0.494969,0.0944944,-0.128582,36
0.496867,0.0946466,-0.1281,40
0.497879,0.0947269,-0.127387,38
0.491856,0.0942343,-0.124897,39
0.49285,0.0943131,-0.124186,37
0.495074,0.0944919,-0.123777,38
0.493085,0.0943279,-0.122323,40
0.49497,0.0944791,-0.121823,36
0.495295,0.0945034,-0.120938,40
0.494258,0.0944168,-0.119726,44
0.494447,0.09443,-0.118811,40
0.49389,0.0943825,-0.117719,42
0.493876,0.0943792,-0.116757,48
0.494815,0.0944534,-0.116017,51
0.495212,0.0944835,-0.11515,46
0.495132,0.0944749,-0.114172,49
0.49683,0.0946108,-0.113599,48
0.495725,0.0945188,-0.112389,51
0.495648,0.0945103,-0.111413,48
0.49394,0.0943693,-0.110078,51
0.495019,0.0944548,-0.109361,50
0.496103,0.0945408,-0.108641,53
0.495551,0.0944938,-0.107565,53
0.495955,0.0945245,-0.106696,54
0.494589,0.0944113,-0.105451,53
0.496561,0.0945694,-0.104912,54
0.496011,0.0945226,-0.103843,51
0.494445,0.0943931,-0.102566,50
0.496008,0.0945179,-0.101934,50
0.4971,0.0946046,-0.101202,59
0.494241,0.09437,-0.0996758,57
0.498198,0.0946896,-0.0995113,52
0.494853,0.0944155,-0.0978996,53
0.495739,0.0944854,-0.0971231,53
0.495606,0.0944724,-0.0961479,53
0.495883,0.0944927,-0.0952515,63
0.49514,0.0944302,-0.0941625,56
0.496438,0.0945336,-0.0934577,56
0.498293,0.0946821,-0.0928513,56
0.497888,0.0946471,-0.0918251,57
0.497074,0.0945788,-0.0907271,58
0.496946,0.0945662,-0.0897554,60
0.496001,0.0944873,-0.08864,61
0.494926,0.0943978,-0.0875057,63
0.495344,0.0944296,-0.0866349,66
0.501606,0.0949362,-0.0867649,65
0.495436,0.0944329,-0.0847639,69
0.494705,0.0943714,-0.0836984,68
0.495058,0.0943979,-0.0828159,65
0.495412,0.0944245,-0.0819327,65
0.495361,0.0944182,-0.0809828,65
0.49531,0.094412,-0.0800337,64
0.495192,0.0944003,-0.0790747,73
0.496229,0.0944823,-0.0782969,72
0.496112,0.0944707,-0.0773376,71
0.495793,0.0944427,-0.0763483,70
0.493787,0.0942777,-0.0751066,68
0.494888,0.094365,-0.0743348,71
0.494979,0.0943702,-0.0734109,84
0.495679,0.0944249,-0.0725756,83
0.49415,0.0942987,-0.071419,82
0.494377,0.094315,-0.0705165,83
0.494067,0.0942877,-0.0695386,82
0.494161,0.0942932,-0.0686179,87
0.495133,0.09437,-0.0678162,83
0.494285,0.0942991,-0.066768,81
0.49344,0.0942284,-0.0657238,77
0.493471,0.0942288,-0.0647967,79
0.494241,0.0942892,-0.0639646,80
0.4934,0.0942188,-0.0629267,83
0.493768,0.0942466,-0.0620425,92
0.492462,0.0941386,-0.0609526,97
0.493166,0.0941935,-0.0601098,96
0.492866,0.0941672,-0.0591459,94
0.49364,0.0942278,-0.0583085,91
0.49294,0.0941689,-0.0572995,94
0.49191,0.0940832,-0.0562561,95
0.492482,0.0941276,-0.0553948,97
0.492588,0.0941341,-0.0544808,103
0.4937,0.0942221,-0.0536745,104
0.492603,0.0941311,-0.0526316,106
0.492045,0.0940838,-0.0516489,113
0.491422,0.0940312,-0.050662,112
0.490009,0.0939145,-0.0495987,113
0.491046,0.0939965,-0.048781,111
0.489768,0.0938909,-0.0477373,114
0.488695,0.0938018,-0.046718,111
0.487759,0.0937238,-0.0457155,118
0.486306,0.093604,-0.0446701,114
0.485835,0.0935638,-0.0437173,113
0.48446,0.0934503,-0.0426882,112
0.485415,0.0935256,-0.041862,120
0.48353,0.0933708,-0.040797,122
0.482811,0.0933105,-0.0398338,124
0.482478,0.0932816,-0.0389041,114
0.48202,0.0932424,-0.037966,118
0.480927,0.0931518,-0.036982,116
0.480092,0.0930821,-0.0360214,113
0.479957,0.0930692,-0.0351142,120
0.47875,0.0929694,-0.0341328,120
0.477801,0.0928904,-0.0331736,121
0.477169,0.0928372,-0.0322391,123
0.477163,0.0928348,-0.0313475,133
0.476472,0.0927768,-0.0304132,133
0.478975,0.0929775,-0.029675,123
0.476466,0.0927723,-0.0286336,121
0.474787,0.0926343,-0.0276489,121
0.4746,0.0926172,-0.0267526,124
0.474044,0.0925701,-0.0258374,123
0.473983,0.0925632,-0.0249499,126
0.473676,0.0925364,-0.0240506,121
0.474357,0.0925894,-0.0231994,122
0.473066,0.092483,-0.0222559,128
0.473993,0.092556,-0.0214143,129
0.472399,0.092425,-0.0204639,126
0.471976,0.0923888,-0.0195663,127
0.472166,0.0924021,-0.0186938,124
0.471989,0.0923858,-0.0178074,126
0.472486,0.0924241,-0.0169449,127
0.472005,0.0923831,-0.0160488,128
0.473117,0.0924711,-0.0152036,130
0.472391,0.0924104,-0.0143012,125
0.471668,0.0923499,-0.0134016,125
0.471802,0.0923587,-0.0125264,125
0.473038,0.0924568,-0.0116764,130
0.472193,0.0923865,-0.0107773,129
0.471902,0.0923608,-0.00989218,130
0.473264,0.0924691,-0.00903751,130
0.472972,0.0924435,-0.00815159,133
0.472376,0.0923932,-0.00726252,137
0.471781,0.0923432,-0.00637573,135
0.471555,0.0923228,-0.00549496,135
0.472,0.0923569,-0.00462072,140
0.472203,0.0923713,-0.00374324,141
0.47259,0.0924006,-0.00286588,139
0.472734,0.0924102,-0.0019864,141
0.471899,0.0923407,-0.00110543,137
0.47241,0.0923801,-0.000226383,136
0.472433,0.09238,0.00065324,136
0.472335,0.09237,0.0015324,133
0.472666,0.0923948,0.00241399,137
0.472691,0.0923948,0.00329429,138
0.47284,0.0924049,0.00417597,144
0.47299,0.092415,0.00505824,142
0.472589,0.0923806,0.00593346,139
0.473477,0.0924503,0.00682753,141
0.47326,0.0924308,0.00770551,142
0.472861,0.0923966,0.00857917,144
0.473137,0.0924169,0.00946582,141
0.473108,0.0924125,0.0103465,144
0.474558,0.0925277,0.0112641,144
0.474653,0.0925334,0.0121508,146
0.475121,0.0925691,0.0130486,147
0.473674,0.0924503,0.0138896,145
0.473156,0.0924065,0.0147555,142
0.473993,0.092472,0.0156661,137
0.47403,0.0924731,0.016551,143
0.474069,0.0924742,0.0174361,141
0.473984,0.0924653,0.0183166,142
0.473901,0.0924566,0.019197,145
0.474065,0.0924679,0.0200879,142
0.474662,0.0925141,0.0209993,144
0.474025,0.0924606,0.0218546,148
0.474562,0.092502,0.0227654,145
0.474606,0.0925035,0.0236532,150
0.474775,0.0925151,0.0245479,153
0.475006,0.0925318,0.0254469,145
0.474496,0.0924886,0.0263047,147
0.474295,0.0924704,0.027179,149
0.475024,0.0925272,0.0281089,150
0.474639,0.0924942,0.0289723,150
0.473393,0.0923916,0.0297791,147
0.474121,0.0924483,0.0307118,151
0.473863,0.0924255,0.0315805,155
0.474656,0.0924875,0.0325218,164
0.473967,0.0924299,0.03336,162
0.472543,0.092313,0.0341419,164
0.471923,0.092261,0.0349792,163
0.470939,0.0921796,0.0357863,156
0.470324,0.092128,0.0366191,158
0.469287,0.0920424,0.0374157,154
0.469222,0.0920351,0.0382892,155
0.469641,0.092067,0.0392037,148
0.469093,0.0920208,0.0400361,149
0.468426,0.091965,0.0408563,148
0.469573,0.0920555,0.041838,152
0.468061,0.0919316,0.0425793,145
0.468905,0.0919977,0.0435366,146
0.468362,0.0919519,0.0443644,143
0.469391,0.0920328,0.045344,141
0.469878,0.0920701,0.0462738,143
0.469153,0.0920097,0.0470827,145
0.468914,0.0919884,0.0479393,143
0.468556,0.0919575,0.0487828,144
0.468621,0.0919608,0.0496706,145
0.468808,0.0919738,0.0505721,147
0.469298,0.0920114,0.0515084,147
0.468821,0.0919709,0.0523377,143
0.468708,0.0919598,0.0532072,140
0.468716,0.0919585,0.0540908,140
0.468544,0.0919426,0.0549533,137
0.469038,0.0919804,0.0558957,143
0.468927,0.0919695,0.0567664,143
0.469667,0.092027,0.0577424,141
0.469679,0.092026,0.05863,135
0.470057,0.0920545,0.0595647,139
0.470375,0.0920781,0.0604935,140
0.470573,0.092092,0.0614079,135
0.470649,0.0920962,0.0623072,140
0.47091,0.0921151,0.0632321,141
0.470743,0.0920997,0.0640998,139
0.471557,0.0921632,0.0651035,140
0.471269,0.092138,0.0659554,150
0.471902,0.0921869,0.0669381,152
0.472537,0.092236,0.067924,151
0.471942,0.0921861,0.0687322,151
0.472703,0.0922453,0.06974,148
0.471863,0.0921757,0.0705102,148
0.472071,0.0921904,0.0714373,150
0.472033,0.0921853,0.0723276,156
0.472304,0.0922051,0.0732665,151
0.472452,0.092215,0.0741874,154
0.472478,0.0922151,0.0750898,152
0.472937,0.09225,0.0760627,155
0.47315,0.0922651,0.0769976,152
0.473179,0.0922653,0.0779031,155
0.47296,0.0922457,0.0787679,154
0.473362,0.0922759,0.0797372,152
0.473578,0.0922913,0.0806769,150
0.47392,0.0923168,0.0816395,146
0.474761,0.0923824,0.0826914,152
0.475106,0.0924081,0.0836592,156
0.47539,0.0924289,0.0846178,153
0.476365,0.0925053,0.0857029,148
0.475649,0.0924456,0.086483,150
0.475873,0.0924616,0.0874347,149
0.47635,0.0924978,0.0884348,145
0.476262,0.0924887,0.0893308,149
0.475548,0.0924292,0.0901078,149
0.476215,0.0924808,0.091148,147
0.476759,0.0925224,0.0921674,151
0.477052,0.0925439,0.0931404,150
0.476968,0.0925351,0.0940402,144
0.477642,0.0925872,0.0950918,153
0.477812,0.0925988,0.0960449,141
0.477793,0.0925952,0.0969605,149
0.477902,0.0926018,0.0979029,152
0.478709,0.0926647,0.0989914,154
0.478185,0.0926204,0.0998043,150
0.477915,0.0925966,0.10067,155
0.47828,0.0926239,0.10167,158
0.477885,0.0925901,0.102509,161
0.478252,0.0926174,0.103512,161
0.478239,0.0926143,0.104434,156
0.478799,0.0926572,0.105483,154
0.479616,0.0927208,0.106592,156
0.480054,0.0927538,0.10762,155
0.478066,0.092592,0.1081,157
0.477866,0.0925738,0.108981,157
0.477856,0.092571,0.109907,154
0.478229,0.0925988,0.110922,158
0.478285,0.0926012,0.111864,160
0.477643,0.0925475,0.112642,160
0.477192,0.0925092,0.113465,161
0.47725,0.0925118,0.114408,163
0.477308,0.0925143,0.115352,162
0.477113,0.0924966,0.116235,163
0.477236,0.0925043,0.117196,158
0.477043,0.0924867,0.11808,154
0.477294,0.0925048,0.119075,149
0.476721,0.0924567,0.119864,153
0.475898,0.0923885,0.120588,150
0.475329,0.0923407,0.121374,147
0.476529,0.0924349,0.122615,149
0.474574,0.0922759,0.123042,153
0.476088,0.0923953,0.124369,156
0.473447,0.0921813,0.124608,156
0.473011,0.0921442,0.125422,153
0.472951,0.0921372,0.126337,152
0.473266,0.0921604,0.127353,155
0.47327,0.0921586,0.128286,154
0.471218,0.0919919,0.128657,148
0.47085,0.0919603,0.129485,149
0.470421,0.0919238,0.130296,149
0.47055,0.091932,0.131261,147
0.470432,0.0919204,0.132158,142
0.469697,0.0918594,0.132881,146
0.469765,0.0918628,0.13383,150
0.468541,0.0917624,0.134409,147
0.468548,0.0917609,0.13534,142
0.468188,0.0917299,0.136165,141
0.467583,0.0916794,0.136918,142
0.466553,0.0915947,0.137543,132
0.466929,0.0916227,0.138583,138
0.466634,0.0915969,0.139424,139
0.465913,0.091537,0.140137,136
0.465498,0.0915017,0.14094,130
0.465874,0.0915297,0.141984,130
0.465764,0.0915188,0.14288,129
0.46602,0.0915372,0.143891,131
0.466338,0.0915606,0.144922,125
0.466047,0.0915351,0.145764,112
0.465939,0.0915244,0.146664,124
0.466504,0.0915675,0.147777,118
0.465847,0.0915128,0.148504,120
0.465375,0.0914728,0.149288,113
0.466919,0.0915944,0.150722,117
0.467059,0.0916035,0.151707,116
0.466341,0.0915439,0.152412,112
0.466176,0.0915285,0.153297,109
0.465827,0.0914985,0.154122,107
0.466703,0.0915665,0.155354,106
0.466172,0.0915218,0.156119,99
0.466928,0.0915802,0.157316,98
0.467379,0.0916142,0.158414,94
0.467709,0.0916385,0.159473,92
0.466071,0.0915052,0.159859,95
0.467692,0.0916328,0.161364,92
0.466545,0.0915389,0.161916,90
0.467184,0.0915878,0.163087,87
0.469003,0.0917313,0.164675,90
0.466863,0.0915578,0.164875,86
0.467567,0.091612,0.166076,94
0.47039,0.0918358,0.168037,88
0.470042,0.0918058,0.168872,79
0.468389,0.0916713,0.169235,84
0.46823,0.0916564,0.170135,84
0.469004,0.0917162,0.171376,85
0.469781,0.0917762,0.172622,88
0.469436,0.0917464,0.173458,90
0.469654,0.0917617,0.174502,86
0.47119,0.0918823,0.17604,82
0.469528,0.0917472,0.176384,88
0.471254,0.0918831,0.178002,92
0.471413,0.0918936,0.179032,94
0.472964,0.0920155,0.180596,88
0.472112,0.0919451,0.181244,85
0.473289,0.092037,0.182673,80
0.473898,0.0920835,0.183887,77
0.474254,0.0921097,0.185006,75
0.473653,0.0920594,0.185753,83
0.474265,0.0921062,0.186975,81
0.473664,0.0920559,0.187721,76
0.474983,0.0921591,0.189229,74
0.474959,0.0921549,0.190206,66
0.476933,0.0923105,0.191988,69
0.476457,0.0922702,0.192789,64
0.476047,0.0922352,0.193615,67
0.476348,0.092257,0.194731,69
0.475487,0.0921859,0.195372,70
0.477277,0.0923267,0.197104,63
0.478363,0.0924113,0.198553,62
0.479981,0.0925383,0.200228,67
0.479634,0.0925082,0.201089,71
0.4808,0.0925991,0.202586,70
0.479926,0.092527,0.203225,71
0.481692,0.0926658,0.204984,69
0.481212,0.0926251,0.205793,68
0.481461,0.0926427,0.206913,64
0.480453,0.0925599,0.207493,67
0.480239,0.0925406,0.208414,69
0.482479,0.0927171,0.210404,76
0.48481,0.0929009,0.212443,72
0.483321,0.0927797,0.212815,73
0.483308,0.0927764,0.213833,74
0.483631,0.0927999,0.215001,74
0.483955,0.0928234,0.216172,70
0.482939,0.09274,0.216745,98
0.484069,0.0928278,0.218281,77
0.483321,0.0927658,0.218973,74
0.484454,0.0928539,0.220518,74
0.275179,0.0789532,-0.134502,8
0.162686,0.0688504,-0.0819251,7
0.52295,0.101205,-0.250342,6
0.278413,0.0792396,-0.134214,7
0.896311,0.134735,-0.424307,9
0.271358,0.0786034,-0.129756,6
0.492937,0.0984997,-0.231869,8
0.468849,0.0963342,-0.219642,9
0.332461,0.0840854,-0.155883,7
0.479708,0.0973048,-0.222632,8
0.124641,0.06543,-0.0625018,8
0.529232,0.101746,-0.243161,7
0.394754,0.0896711,-0.181117,8
0.177727,0.0701901,-0.0840267,7
0.479154,0.0972434,-0.217285,8
0.523646,0.101235,-0.236172,8
0.48623,0.097874,-0.218404,10
0.15428,0.0680834,-0.0726461,8
0.492814,0.0984603,-0.219251,7
1.05657,0.149054,-0.466525,7
0.979532,0.142135,-0.430482,7
0.477696,0.0970966,-0.209564,10
0.485733,0.0978155,-0.212034,9
0.478089,0.0971273,-0.207723,9
0.47523,0.0968685,-0.205494,9
0.481913,0.0974658,-0.207345,9
0.48566,0.0977997,-0.207924,10
0.488576,0.098059,-0.208137,12
0.489875,0.0981731,-0.207661,10
0.478756,0.0971735,-0.201989,11
0.483785,0.0976223,-0.20308,11
0.482522,0.0975067,-0.201548,13
0.476815,0.0969926,-0.198191,14
0.481007,0.0973663,-0.198915,17
0.479106,0.0971936,-0.197139,11
0.477222,0.0970224,-0.195379,9
0.481023,0.0973609,-0.195921,15
0.478407,0.0971241,-0.193872,12
0.48196,0.0974405,-0.194299,15
0.478749,0.0971503,-0.192025,10
0.485035,0.0977116,-0.193519,14
0.478375,0.0971123,-0.189896,16
0.482256,0.0974579,-0.190426,19
0.482596,0.0974861,-0.189563,18
0.480037,0.0972546,-0.187577,16
0.479655,0.0972181,-0.18644,13
0.482031,0.0974287,-0.186362,17
0.477921,0.0970582,-0.183805,17
0.483045,0.0975151,-0.184764,14
0.485921,0.0977706,-0.184857,19
0.48287,0.097495,-0.182716,22
0.487423,0.0979006,-0.183424,17
0.491305,0.0982462,-0.183866,17
0.482514,0.0974564,-0.179617,14
0.483852,0.097574,-0.179121,15
0.48294,0.09749,-0.1778,19
0.484214,0.0976019,-0.177276,18
0.488043,0.0979426,-0.177671,22
0.483649,0.0975468,-0.175099,19
0.48767,0.0979047,-0.175549,18
0.483287,0.0975099,-0.173002,17
0.484231,0.0975923,-0.172353,20
0.483918,0.097562,-0.171259,18
0.485398,0.0976923,-0.170793,23
0.489987,0.0981009,-0.171401,19
0.487308,0.0978588,-0.169484,23
0.488403,0.0979546,-0.168874,28
0.490588,0.098148,-0.16863,24
0.491153,0.0981963,-0.16783,27
0.48887,0.0979897,-0.16607,24
0.492081,0.0982749,-0.166159,25
0.492719,0.0983297,-0.165379,24
0.490357,0.0981161,-0.163605,27
0.489568,0.0980433,-0.162359,26
0.488918,0.0979828,-0.161162,25
0.491788,0.0982374,-0.161112,26
0.49154,0.098213,-0.160044,28
0.49444,0.0984703,-0.159989,25
0.49898,0.0988742,-0.160446,26
0.492778,0.0983171,-0.157481,26
0.491782,0.0982258,-0.156181,29
0.493585,0.0983848,-0.155762,27
0.498177,0.0987934,-0.156203,30
0.496675,0.0986568,-0.154745,30
0.495874,0.0985828,-0.153508,24
0.496526,0.098639,-0.152718,34
0.497528,0.0987263,-0.152033,28
0.497281,0.098702,-0.150968,35
0.494208,0.0984249,-0.14906,28
0.496237,0.0986041,-0.14868,26
0.49968,0.0989098,-0.148711,35
0.495131,0.0985008,-0.146386,33
0.495304,0.098514,-0.145454,31
0.496097,0.0985827,-0.144702,27
0.496409,0.0986083,-0.143809,30
0.496514,0.0986155,-0.142857,32
0.497868,0.0987343,-0.142259,27
0.499089,0.0988412,-0.141619,34
0.494221,0.0984039,-0.139273,32
0.498817,0.0988125,-0.139574,35
0.497121,0.0986587,-0.138123,35
0.499315,0.0988526,-0.137744,31
0.495754,0.0985321,-0.135793,36
0.499957,0.0989054,-0.135952,38
0.500139,0.0989195,-0.135018,37
0.501093,0.0990025,-0.134289,40
0.49689,0.0986247,-0.132196,36
0.497556,0.0986821,-0.131396,35
0.49574,0.0985176,-0.129948,37
0.497233,0.0986488,-0.129362,38
0.499221,0.0988242,-0.128898,35
0.498643,0.0987703,-0.127774,35
0.500433,0.098928,-0.12725,40
0.499366,0.0988304,-0.126005,38
0.497473,0.0986592,-0.124561,40
0.498631,0.0987604,-0.123875,38
0.500283,0.0989058,-0.123307,37
0.49922,0.0988086,-0.122074,43
0.497403,0.0986441,-0.120665,45
0.498493,0.0987393,-0.119957,44
0.497855,0.0986801,-0.118836,45
0.497013,0.0986028,-0.117671,40
0.501024,0.0989587,-0.117639,48
0.501361,0.0989865,-0.116744,47
0.501558,0.0990019,-0.115817,45
0.499383,0.0988056,-0.114351,46
0.501254,0.0989704,-0.113804,44
0.498392,0.0987127,-0.112195,45
0.498452,0.0987159,-0.111244,45
0.501085,0.0989487,-0.110857,51
0.499892,0.09884,-0.109629,52
0.49919,0.0987753,-0.108512,50
0.498907,0.0987478,-0.107488,44
0.499526,0.0988008,-0.106656,47
0.499937,0.0988353,-0.105779,48
0.500072,0.0988452,-0.104844,57
0.499861,0.0988242,-0.103837,54
0.499442,0.0987846,-0.102789,57
0.501598,0.0989748,-0.102264,51
0.500342,0.0988606,-0.101048,56
0.501039,0.0989205,-0.100225,58
0.498473,0.0986895,-0.0987588,61
0.500553,0.0988729,-0.0982063,56
0.499238,0.0987534,-0.0969927,55
0.499795,0.0988009,-0.0961416,56
0.499591,0.0987806,-0.0951452,57
0.501822,0.0989773,-0.0946049,60
0.501479,0.0989445,-0.0935806,61
0.501834,0.098974,-0.0926861,64
0.501981,0.0989849,-0.0917529,64
0.500943,0.0988902,-0.0906073,66
0.500466,0.0988455,-0.0895656,68
0.500337,0.0988318,-0.0885872,67
0.500694,0.0988616,-0.0876943,68
0.499528,0.0987554,-0.0865389,69
0.498574,0.0986682,-0.0854246,69
0.499001,0.0987041,-0.0845459,68
0.499983,0.0987895,-0.0837581,68
0.499306,0.098727,-0.0826952,64
0.499322,0.0987263,-0.0817474,70
0.499684,0.0987564,-0.0808555,69
0.499218,0.0987127,-0.0798317,69
0.499099,0.0986999,-0.0788641,67
0.499325,0.0987179,-0.0779509,73
0.498862,0.0986746,-0.0769321,74
0.498815,0.0986682,-0.075978,74
0.497669,0.098564,-0.0748611,74
0.497076,0.098509,-0.0738302,83
0.496894,0.0984907,-0.0728616,83
0.497877,0.0985761,-0.0720606,86
0.498245,0.0986067,-0.0711696,79
0.498408,0.0986191,-0.070249,82
0.497955,0.0985766,-0.0692434,79
0.496957,0.0984856,-0.068166,88
0.498354,0.0986079,-0.0674131,88
0.497835,0.0985596,-0.0664027,87
0.496841,0.0984689,-0.0653327,81
0.497008,0.0984817,-0.0644157,86
0.497382,0.0985128,-0.0635244,85
0.497552,0.0985258,-0.0626066,83
0.495882,0.098375,-0.0614635,83
0.497962,0.0985581,-0.0607789,92
0.497656,0.0985287,-0.0598036,91
0.49626,0.0984024,-0.0587027,94
0.497047,0.0984702,-0.057858,102
0.49586,0.0983625,-0.0567877,104
0.496171,0.098388,-0.0558886,107
0.495532,0.0983291,-0.0548848,111
0.495776,0.0983487,-0.0539786,108
0.496089,0.0983744,-0.053079,110
0.496607,0.0984184,-0.0521998,111
0.493541,0.0981434,-0.0509541,115
0.494123,0.0981931,-0.0500847,118
0.494235,0.098201,-0.0491673,121
0.493004,0.0980894,-0.0481207,123
0.491914,0.0979903,-0.0470921,122
0.490962,0.0979036,-0.0460808,115
0.490811,0.097888,-0.0451456,124
0.489205,0.0977431,-0.0440824,113
0.489255,0.0977454,-0.0431691,117
0.488186,0.0976483,-0.0421608,116
0.487319,0.0975691,-0.0411736,117
0.48587,0.0974382,-0.0401426,116
0.485338,0.0973888,-0.0391899,115
0.485716,0.0974203,-0.0383098,117
0.484797,0.0973365,-0.0373306,117
0.483174,0.0971902,-0.0363032,119
0.483036,0.0971759,-0.0353887,117
0.483028,0.0971731,-0.0344839,124
0.481547,0.0970394,-0.0334792,120
0.481541,0.0970368,-0.0325777,118
0.479881,0.0968873,-0.0315701,119
0.479687,0.0968679,-0.0306603,121
0.479113,0.0968149,-0.0297285,121
0.478353,0.0967453,-0.028788,120
0.477722,0.0966872,-0.0278579,122
0.477909,0.0967018,-0.0269752,121
0.476655,0.0965883,-0.0260155,122
0.477156,0.0966308,-0.0251505,123
0.476782,0.0965955,-0.0242405,122
0.476346,0.0965548,-0.0233292,120
0.475725,0.0964977,-0.0224111,126
0.476165,0.0965347,-0.0215419,128
0.475236,0.0964501,-0.0206138,127
0.474373,0.0963714,-0.019692,134
0.474502,0.096381,-0.0188113,128
0.473582,0.0962972,-0.0178921,124
0.475261,0.0964444,-0.0170661,126
0.473474,0.0962836,-0.0161209,125
0.473792,0.0963099,-0.0152471,133
0.47442,0.0963636,-0.0143812,132
0.473751,0.0963022,-0.0134779,129
0.47401,0.0963232,-0.0126006,126
0.474207,0.0963387,-0.0117209,131
0.473726,0.096294,-0.010826,132
0.473802,0.0962987,-0.00994389,135
0.474435,0.0963529,-0.00907139,136
0.474326,0.0963413,-0.00818482,133
0.47391,0.0963023,-0.00729438,130
0.473927,0.0963018,-0.00641078,134
0.474439,0.0963453,-0.00553224,134
0.473531,0.0962627,-0.00463985,135
0.474045,0.0963062,-0.00376018,135
0.474622,0.0963555,-0.00287892,137
0.473592,0.096262,-0.00199095,141
0.473922,0.0962894,-0.00110815,139
0.474007,0.0962949,-0.000224336,142
0.477328,0.0965876,0.00066866,138
0.474301,0.096317,0.00154484,139
0.474698,0.0963502,0.00243189,142
0.47491,0.096367,0.0033189,142
0.476555,0.096511,0.00422131,139
0.474716,0.0963458,0.00508793,138
0.474311,0.0963078,0.00596768,139
0.474959,0.0963634,0.00686257,137
0.474803,0.0963475,0.00774574,140
0.474772,0.0963427,0.00863081,144
0.475238,0.096382,0.00952644,141
0.476578,0.0964989,0.0104442,145
0.474682,0.0963288,0.0112858,148
0.47571,0.0964179,0.0121992,146
0.475932,0.0964355,0.0130933,138
0.475905,0.0964312,0.0139807,147
0.474884,0.0963386,0.0148358,146
0.47573,0.0964116,0.0157513,143
0.475581,0.0963964,0.016634,150
0.475557,0.0963923,0.0175211,148
0.475472,0.0963827,0.0184057,151
0.475886,0.0964174,0.019311,150
0.475928,0.0964191,0.0202017,150
0.475845,0.0964097,0.021087,154
0.476013,0.0964226,0.0219839,151
0.477119,0.0965186,0.022928,153
0.475976,0.0964153,0.0237612,154
0.475896,0.0964062,0.0246467,150
0.47588,0.0964028,0.0255355,154
0.475865,0.0963994,0.0264245,157
0.475538,0.0963685,0.0272953,158
0.475462,0.0963597,0.0281802,163
0.475449,0.0963565,0.0290689,160
0.475375,0.0963479,0.0299539,154
0.476986,0.0964887,0.0309501,156
0.475352,0.0963419,0.031732,160
0.474659,0.0962784,0.0325737,163
0.475022,0.0963086,0.0334887,162
0.474455,0.0962563,0.0343368,159
0.474199,0.0962317,0.0352066,160
0.472772,0.0961033,0.035985,157
0.472458,0.0960734,0.0368465,155
0.471655,0.0960003,0.0376673,155
0.47116,0.0959545,0.0385109,154
0.470362,0.0958818,0.0393273,149
0.470847,0.0959228,0.0402519,154
0.47054,0.0958935,0.0411085,147
0.470477,0.095886,0.0419864,144
0.470903,0.0959217,0.0429093,152
0.469623,0.0958064,0.0436735,150
0.470537,0.0958853,0.0446438,149
0.470539,0.0958834,0.0455285,147
0.46987,0.0958222,0.0463466,146
0.469995,0.0958312,0.047243,148
0.470242,0.0958511,0.048153,148
0.47049,0.0958711,0.0490642,145
0.470801,0.0958966,0.0499833,150
0.470807,0.0958951,0.0508707,145
0.470263,0.095845,0.0516974,147
0.470698,0.0958815,0.0526327,143
0.471074,0.0959127,0.0535632,148
0.470471,0.0958573,0.0543813,143
0.471521,0.0959483,0.0553935,149
0.47227,0.0960125,0.0563735,145
0.472035,0.0959897,0.0572364,145
0.470391,0.0958423,0.0579239,141
0.47016,0.0958197,0.0587835,146
0.471029,0.0958946,0.0597834,142
0.470798,0.0958722,0.0606441,144
0.471058,0.0958932,0.0615689,143
0.471995,0.095974,0.0625856,143
0.471704,0.0959463,0.0634397,147
0.471414,0.0959186,0.0642932,142
0.47217,0.0959835,0.0652918,154
0.472312,0.095994,0.0662068,154
0.472455,0.0960046,0.067123,156
0.471982,0.0959608,0.0679507,154
0.474046,0.0961412,0.0691495,158
0.473199,0.0960643,0.0699237,158
0.472727,0.0960205,0.0707515,155
0.472379,0.0959877,0.071597,152
0.472403,0.0959878,0.0724989,154
0.473357,0.09607,0.0735465,157
0.472763,0.0960155,0.0743534,160
0.472789,0.0960158,0.0752578,156
0.472569,0.0959943,0.0761228,158
0.473464,0.0960714,0.0771702,153
0.473679,0.0960883,0.0781086,156
0.474082,0.0961219,0.0790798,154
0.473739,0.0960895,0.0799266,154
0.47377,0.0960902,0.0808366,157
0.474737,0.0961736,0.0819094,161
0.474021,0.0961083,0.0826914,157
0.475053,0.0961974,0.083781,154
0.475338,0.0962205,0.084741,150
0.474872,0.0961773,0.0855668,151
0.474846,0.0961729,0.0864716,145
0.475822,0.0962571,0.0875622,154
0.475797,0.0962528,0.0884699,145
0.476465,0.0963097,0.0895088,152
0.476441,0.0963055,0.0904189,158
0.475914,0.0962569,0.0912327,153
0.4769,0.0963419,0.092339,151
0.477131,0.0963602,0.0933015,154
0.477237,0.0963675,0.0942404,161
0.47709,0.0963524,0.0951298,154
0.477577,0.0963934,0.0961472,152
0.477748,0.0964064,0.0971027,150
0.478684,0.0964869,0.0982167,153
0.478476,0.0964665,0.0990971,145
0.477443,0.0963732,0.0998043,156
0.47838,0.0964538,0.100925,151
