ply
format ascii 1.0
comment Created by CloudCompare v2.11 alpha (Anoia)
comment Created 2025/12/9 20:01
obj_info Generated by CloudCompare!
element vertex 1384
property float x
property float y
property float z
property float scalar_Scalar_field
end_header
0.429662 -0.0321426 -0.0727236 137 
0.429436 -0.0320969 -0.071875 132 
0.429112 -0.0320307 -0.0710118 131 
0.429574 -0.0321297 -0.0702779 136 
0.428859 -0.0319813 -0.0693535 126 
0.429224 -0.0320598 -0.0686036 131 
0.429245 -0.0320663 -0.0677989 128 
0.428289 -0.0318672 -0.066843 134 
0.428458 -0.0319046 -0.0660633 134 
0.428579 -0.0319319 -0.0652761 142 
0.428408 -0.0318977 -0.064445 146 
0.428188 -0.0318534 -0.0636079 145 
0.428164 -0.0318503 -0.0628005 140 
0.428629 -0.0319498 -0.0620634 141 
0.429292 -0.0320908 -0.0613529 146 
0.428584 -0.031944 -0.0604491 145 
0.429002 -0.0320337 -0.0597031 146 
0.428785 -0.0319899 -0.0588697 146 
0.428666 -0.0319668 -0.0580507 144 
0.429184 -0.0320775 -0.0573163 141 
0.428675 -0.0319724 -0.0564468 141 
0.428558 -0.0319496 -0.0556297 143 
0.428832 -0.0320091 -0.0548628 141 
0.428911 -0.0320276 -0.0540708 143 
0.428943 -0.032036 -0.053273 145 
0.429366 -0.0321268 -0.0525225 147 
0.429643 -0.0321869 -0.0517534 150 
0.429234 -0.0321029 -0.0509036 152 
0.429317 -0.032122 -0.0501119 152 
0.429203 -0.0321001 -0.0492981 158 
0.429531 -0.0321708 -0.0485339 158 
0.429713 -0.0322109 -0.0477527 156 
0.429356 -0.0321378 -0.0469136 149 
0.429686 -0.0322089 -0.0461481 156 
0.430017 -0.0322803 -0.0453818 158 
0.429857 -0.0322486 -0.0445648 158 
0.429944 -0.0322686 -0.0437731 153 
0.430031 -0.0322887 -0.0429813 162 
0.430216 -0.0323296 -0.0421989 159 
0.431191 -0.0325363 -0.0414899 161 
0.430984 -0.0324947 -0.040669 157 
0.431073 -0.0325153 -0.0398757 161 
0.430917 -0.0324843 -0.0390606 160 
0.43081 -0.0324637 -0.0382507 165 
0.430164 -0.0323297 -0.0373958 156 
0.430747 -0.032454 -0.0366448 162 
0.430987 -0.0325063 -0.0358643 170 
0.431326 -0.0325795 -0.0350908 174 
0.431222 -0.0325595 -0.0342822 170 
0.431414 -0.0326018 -0.0334964 172 
0.431805 -0.0326858 -0.0327244 172 
0.431752 -0.0326765 -0.0319197 170 
0.431601 -0.0326465 -0.0311085 169 
0.431499 -0.032627 -0.0303014 175 
0.431645 -0.0326596 -0.029511 174 
0.43115 -0.0325574 -0.0286796 173 
0.432088 -0.0327563 -0.0279383 174 
0.432137 -0.0327685 -0.0271406 173 
0.432533 -0.0328537 -0.0263629 169 
0.433478 -0.0330543 -0.0256145 174 
0.432833 -0.0329204 -0.0247769 171 
0.433431 -0.0330481 -0.0240066 164 
0.433683 -0.0331029 -0.0232167 171 
0.433885 -0.0331473 -0.0224236 172 
0.433589 -0.0330869 -0.0216068 171 
0.434042 -0.033184 -0.0208245 173 
0.433847 -0.0331448 -0.0200129 174 
0.433902 -0.0331582 -0.0192124 176 
0.433758 -0.0331298 -0.0184041 175 
0.434213 -0.0332275 -0.0176185 179 
0.43457 -0.0333044 -0.0168278 178 
0.434778 -0.0333499 -0.016031 176 
0.435287 -0.0334589 -0.0152428 175 
0.434995 -0.0333993 -0.0144292 174 
0.435054 -0.0334136 -0.0136265 175 
0.435767 -0.0335654 -0.0128403 173 
0.435777 -0.0335695 -0.0120349 178 
0.435637 -0.0335418 -0.0112262 178 
0.436455 -0.0337157 -0.0104371 177 
0.436871 -0.0338052 -0.00963773 184 
0.437035 -0.0338416 -0.00883278 179 
0.437403 -0.0339209 -0.00803013 178 
0.436759 -0.0337872 -0.00721363 178 
0.437381 -0.0339199 -0.00641282 175 
0.437092 -0.0338609 -0.00560188 181 
0.437614 -0.0339727 -0.00479747 181 
0.438037 -0.0340636 -0.00399061 178 
0.437596 -0.0339727 -0.00317967 180 
0.438836 -0.0342353 -0.00237207 178 
0.439262 -0.0343271 -0.00156051 180 
0.439691 -0.0344191 -0.000747319 181 
0.439915 -0.0344682 6.65485e-05 183 
0.440038 -0.0344959 0.000880628 188 
0.440264 -0.0345453 0.00169606 186 
0.440542 -0.0346058 0.00251291 184 
0.440358 -0.0345689 0.0033252 182 
0.441515 -0.0348143 0.00415575 181 
0.442315 -0.0349846 0.00498502 180 
0.442443 -0.0350133 0.00580532 181 
0.442727 -0.0350751 0.00662925 177 
0.443116 -0.0351589 0.0074566 176 
0.44403 -0.0353531 0.00829783 180 
0.443116 -0.0351627 0.0090961 174 
0.443039 -0.0351483 0.0099138 177 
0.443797 -0.0353098 0.0107557 177 
0.444664 -0.0354941 0.011604 178 
0.445166 -0.0356017 0.0124436 180 
0.445248 -0.0356209 0.0132705 182 
0.445436 -0.0356625 0.0141017 184 
0.445626 -0.0357042 0.0149338 183 
0.445816 -0.0357461 0.0157667 181 
0.446165 -0.0358215 0.0166073 180 
0.446251 -0.0358415 0.0174375 185 
0.446708 -0.0359397 0.0182854 184 
0.446689 -0.0359377 0.0191123 180 
0.447628 -0.0361372 0.0199871 176 
0.447397 -0.0360906 0.0208048 172 
0.44802 -0.0362236 0.0216678 179 
0.448591 -0.0363458 0.0225304 181 
0.448897 -0.0364121 0.02338 182 
0.449311 -0.0365012 0.0242374 181 
0.449726 -0.0365906 0.0250966 185 
0.451548 -0.0369762 0.0260467 183 
0.449861 -0.0366228 0.0267748 187 
0.450873 -0.0368379 0.027678 181 
0.450753 -0.0368146 0.0285071 185 
0.451338 -0.0369396 0.0293858 186 
0.450031 -0.0366663 0.0301291 189 
0.451047 -0.0368822 0.0310414 187 
0.449635 -0.0365868 0.0317715 189 
0.450057 -0.0366777 0.0326406 191 
0.449834 -0.0366326 0.0334596 195 
0.449611 -0.0365876 0.0342779 194 
0.449551 -0.0365768 0.0351094 198 
0.449384 -0.0365435 0.0359315 198 
0.44911 -0.0364878 0.0367439 205 
0.44873 -0.0364096 0.0375459 200 
0.448833 -0.0364332 0.0383911 203 
0.448187 -0.0362991 0.0391667 200 
0.448505 -0.036368 0.0400323 200 
0.448717 -0.0364146 0.040889 199 
0.446422 -0.0359332 0.0414975 200 
0.446315 -0.0359125 0.0423192 198 
0.446367 -0.0359254 0.0431572 201 
0.445468 -0.0357377 0.0438955 198 
0.44531 -0.0357064 0.0447101 198 
0.444836 -0.0356085 0.04549 196 
0.444785 -0.0355997 0.0463152 201 
0.445262 -0.0357021 0.0472001 200 
0.443529 -0.0353389 0.0478336 199 
0.442853 -0.0351982 0.0485839 196 
0.444797 -0.0356099 0.0496428 195 
0.442443 -0.0351158 0.0501914 195 
0.442604 -0.0351517 0.0510393 194 
0.442193 -0.0350669 0.0518168 191 
0.441834 -0.0349933 0.0525998 194 
0.440959 -0.0348106 0.0533154 192 
0.441173 -0.0348576 0.0541698 192 
0.439939 -0.0345996 0.0548343 193 
0.440929 -0.0348101 0.055792 193 
0.439286 -0.0344657 0.0563964 192 
0.439398 -0.0344912 0.0572364 193 
0.439305 -0.0344734 0.0580486 194 
0.438596 -0.0343259 0.0587736 195 
0.438504 -0.0343084 0.0595847 193 
0.437952 -0.0341939 0.060329 193 
0.438321 -0.0342738 0.0612073 193 
0.436649 -0.0339232 0.0617828 197 
0.436103 -0.03381 0.0625223 196 
0.436167 -0.0338253 0.0633534 199 
0.436282 -0.0338514 0.064193 191 
0.43594 -0.0337814 0.064962 197 
0.435904 -0.0337756 0.0657784 197 
0.435868 -0.0337699 0.0665952 196 
0.435681 -0.0337324 0.0673876 194 
0.434535 -0.0334926 0.0680219 195 
0.434098 -0.0334024 0.0687702 196 
0.433662 -0.0333124 0.0695175 188 
0.434182 -0.0334239 0.0704262 185 
0.432845 -0.0331439 0.0710175 187 
0.432263 -0.0330231 0.0717356 185 
0.432281 -0.0330289 0.0725576 184 
0.4323 -0.0330347 0.0733801 185 
0.432769 -0.0331355 0.0742843 184 
0.432789 -0.0331416 0.0751089 186 
0.43211 -0.0330003 0.0758055 182 
0.433081 -0.033207 0.0768066 183 
0.432003 -0.0329814 0.077427 182 
0.431775 -0.0329353 0.0782052 176 
0.432346 -0.0330577 0.079136 179 
0.432569 -0.0331066 0.0800021 179 
0.432543 -0.0331029 0.0808207 175 
0.432567 -0.0331099 0.0816496 173 
0.432341 -0.0330642 0.0824293 172 
0.432316 -0.0330608 0.083249 172 
0.432291 -0.0330575 0.0840692 170 
0.432017 -0.0330016 0.0848386 163 
0.431943 -0.0329879 0.0856489 165 
0.43197 -0.0329955 0.0864805 165 
0.432198 -0.0330454 0.0873549 167 
0.432276 -0.0330637 0.088199 168 
0.432104 -0.0330294 0.0889901 164 
0.432333 -0.0330796 0.0898681 166 
0.432212 -0.033056 0.0906708 167 
0.433549 -0.0333399 0.0917956 167 
0.433529 -0.0333377 0.0926238 165 
0.433057 -0.03324 0.0933507 164 
0.433189 -0.0332698 0.0942135 166 
0.433171 -0.0332679 0.0950428 169 
0.433556 -0.0333512 0.0959658 167 
0.433943 -0.0334348 0.0968912 165 
0.434079 -0.0334652 0.0977595 167 
0.434925 -0.0336457 0.0987976 166 
0.434401 -0.0335372 0.0995116 163 
0.434691 -0.0336002 0.100421 165 
0.43488 -0.0336419 0.101307 162 
0.435222 -0.0337161 0.102232 160 
0.435412 -0.0337582 0.103122 157 
0.435501 -0.0337789 0.103987 159 
0.436307 -0.0339509 0.105033 161 
0.435681 -0.0338207 0.105722 155 
0.43654 -0.034004 0.106786 155 
0.436477 -0.0339928 0.107618 153 
0.436827 -0.0340684 0.108557 149 
0.437228 -0.0341551 0.109511 146 
0.438511 -0.0344279 0.110699 145 
0.438192 -0.0343624 0.111469 144 
0.438287 -0.0343845 0.112348 145 
0.438486 -0.0344285 0.113257 142 
0.438947 -0.0345277 0.114237 142 
0.438732 -0.0344843 0.115037 140 
0.438726 -0.0344849 0.115893 138 
0.438928 -0.0345296 0.116807 138 
0.439183 -0.0345854 0.117738 134 
0.438969 -0.0345424 0.118539 142 
0.440271 -0.0348192 0.119767 144 
0.440582 -0.0348868 0.12072 140 
0.441 -0.0349769 0.121705 134 
0.44105 -0.0349895 0.122586 135 
0.441469 -0.0350801 0.123575 129 
0.441996 -0.0351933 0.124599 128 
0.442419 -0.0352846 0.125594 130 
0.442259 -0.0352529 0.126419 132 
0.442525 -0.0353109 0.127371 135 
0.44226 -0.0352571 0.128166 133 
0.443005 -0.0354163 0.129265 134 
0.443806 -0.0355876 0.130385 136 
0.443328 -0.0354887 0.131118 127 
0.443651 -0.0355589 0.132096 130 
0.444029 -0.0356406 0.133093 133 
0.443765 -0.0355869 0.133891 132 
0.443822 -0.0356011 0.134791 136 
0.444416 -0.0357286 0.135861 128 
0.445121 -0.0358794 0.13697 130 
0.445882 -0.0360422 0.1381 132 
0.445294 -0.0359202 0.138799 125 
0.445139 -0.0358895 0.139637 125 
0.4452 -0.0359044 0.140545 126 
0.444938 -0.0358511 0.141348 131 
0.445324 -0.0359346 0.142366 129 
0.445225 -0.0359157 0.143224 130 
0.445072 -0.0358854 0.144064 125 
0.445676 -0.0360151 0.14516 127 
0.445199 -0.0359164 0.145892 124 
0.445047 -0.0358864 0.146734 115 
0.445436 -0.0359706 0.147762 111 
0.445555 -0.0359979 0.148699 100 
0.44573 -0.0360368 0.149656 96 
0.445905 -0.0360758 0.150615 97 
0.445863 -0.0360691 0.1515 103 
0.446311 -0.0361658 0.152558 105 
0.44627 -0.0361593 0.153445 106 
0.445632 -0.0360265 0.154119 109 
0.445212 -0.0359398 0.15487 103 
0.444685 -0.0358306 0.155581 109 
0.444429 -0.0357786 0.156389 114 
0.444498 -0.0357953 0.157316 114 
0.445218 -0.0359494 0.158483 114 
0.445234 -0.0359549 0.159394 115 
0.445359 -0.0359835 0.160346 115 
0.445213 -0.0359547 0.161198 117 
0.444525 -0.0358114 0.161847 115 
0.444488 -0.0358057 0.16274 114 
0.443965 -0.0356972 0.163448 124 
0.443821 -0.0356688 0.1643 125 
0.444109 -0.035732 0.165319 130 
0.443912 -0.0356923 0.166152 134 
0.443769 -0.0356641 0.167006 132 
0.443302 -0.0355676 0.167733 120 
0.443916 -0.0356995 0.168884 118 
0.44372 -0.0356602 0.169719 119 
0.443416 -0.035598 0.170511 113 
0.443653 -0.0356503 0.171518 121 
0.442702 -0.0354513 0.172051 125 
0.442292 -0.0353668 0.172799 127 
0.44226 -0.0353621 0.173698 130 
0.441475 -0.0351984 0.174293 128 
0.441336 -0.0351711 0.175149 123 
0.440341 -0.0349628 0.175653 122 
0.440792 -0.0350601 0.176751 120 
0.439745 -0.034841 0.177231 122 
0.439023 -0.0346904 0.177842 125 
0.438992 -0.034686 0.178741 126 
0.438378 -0.0345583 0.179395 129 
0.437924 -0.0344645 0.180115 125 
0.437577 -0.0343932 0.180879 122 
0.436335 -0.0341327 0.18126 122 
0.436674 -0.0342065 0.182317 122 
0.436172 -0.0341023 0.183012 123 
0.435618 -0.0339873 0.183684 123 
0.435013 -0.0338615 0.184332 117 
0.434723 -0.0338024 0.185116 107 
0.433704 -0.033589 0.185579 116 
0.433833 -0.0336182 0.186547 119 
0.433649 -0.0335815 0.187377 119 
0.432687 -0.03338 0.187859 107 
0.432504 -0.0333435 0.188688 117 
0.43284 -0.0334167 0.189751 114 
0.432399 -0.0333254 0.190464 111 
0.431648 -0.0331688 0.191035 122 
0.43188 -0.03322 0.192054 107 
0.431751 -0.0331948 0.192909 96 
0.431364 -0.033115 0.193645 94 
0.434204 -0.0292836 -0.209282 7 
0.428621 -0.0281628 -0.20566 10 
0.430632 -0.0285693 -0.205715 13 
0.429408 -0.0283252 -0.204214 10 
0.425511 -0.0275434 -0.201444 11 
0.42477 -0.0273964 -0.20019 10 
0.426087 -0.0276635 -0.199913 9 
0.437958 -0.0300537 -0.204595 10 
0.98024 -0.139149 -0.458914 7 
0.429267 -0.0283095 -0.198692 9 
0.433196 -0.0291021 -0.19961 8 
0.430983 -0.0286588 -0.197674 9 
0.430327 -0.028529 -0.196465 11 
0.431007 -0.0286679 -0.195871 8 
0.429636 -0.0283941 -0.19434 13 
0.427667 -0.028 -0.192546 13 
0.429612 -0.0283934 -0.192526 13 
0.431986 -0.0288732 -0.192692 10 
0.433345 -0.0291488 -0.192395 10 
0.429043 -0.0282852 -0.189575 9 
0.428297 -0.0281372 -0.188348 12 
0.432197 -0.0289239 -0.189172 12 
0.43067 -0.0286188 -0.187601 19 
0.431249 -0.0287374 -0.186957 17 
0.427957 -0.0280769 -0.184629 15 
0.428631 -0.0282146 -0.184031 16 
0.429003 -0.0282914 -0.1833 16 
0.428969 -0.0282867 -0.182395 15 
0.43308 -0.0291162 -0.183256 22 
0.429461 -0.0283898 -0.180825 21 
0.429428 -0.0283852 -0.179922 20 
0.428484 -0.0281974 -0.178638 16 
0.428554 -0.0282134 -0.177782 20 
0.429687 -0.0284435 -0.177368 18 
0.429402 -0.0283881 -0.176364 20 
0.430437 -0.0285985 -0.175905 23 
0.428632 -0.0282373 -0.174281 16 
0.42936 -0.0283858 -0.173695 18 
0.430904 -0.0286987 -0.173438 21 
0.43067 -0.0286536 -0.172459 26 
0.432018 -0.028927 -0.172116 20 
0.430966 -0.0287173 -0.170811 24 
0.430682 -0.0286622 -0.169816 23 
0.431825 -0.0288944 -0.169386 25 
0.432001 -0.0289317 -0.168573 27 
0.433408 -0.0292171 -0.16824 24 
0.431892 -0.0289139 -0.166767 30 
0.431608 -0.0288589 -0.165777 30 
0.434403 -0.0294236 -0.165972 26 
0.43319 -0.0291814 -0.164624 33 
0.433162 -0.0291778 -0.163732 27 
0.432418 -0.0290299 -0.162571 30 
0.433518 -0.0292536 -0.162107 33 
0.434057 -0.0293641 -0.16143 28 
0.433003 -0.0291539 -0.160158 28 
0.434261 -0.0294093 -0.159747 31 
0.433978 -0.0293543 -0.158764 30 
0.433029 -0.0291652 -0.15754 29 
0.435112 -0.0295868 -0.157423 27 
0.435397 -0.0296461 -0.156648 35 
0.43532 -0.0296327 -0.155743 32 
0.434522 -0.0294739 -0.15458 31 
0.434755 -0.0295229 -0.153789 29 
0.434629 -0.0294994 -0.15287 34 
0.436414 -0.0298611 -0.152624 37 
0.436131 -0.0298061 -0.151649 41 
0.436419 -0.0298661 -0.150874 43 
0.437227 -0.030031 -0.150279 39 
0.436581 -0.0299028 -0.149181 43 
0.438329 -0.0302571 -0.148904 41 
0.436434 -0.0298771 -0.147384 38 
0.436983 -0.0299898 -0.146698 41 
0.436598 -0.0299144 -0.145697 41 
0.436837 -0.0299644 -0.144905 37 
0.436351 -0.0298684 -0.143873 42 
0.43794 -0.0301907 -0.143528 41 
0.437608 -0.0301258 -0.142548 41 
0.438318 -0.0302708 -0.141909 43 
0.437622 -0.0301326 -0.140813 46 
0.438488 -0.0303092 -0.140222 47 
0.438574 -0.0303285 -0.13938 55 
0.43955 -0.0305271 -0.13882 50 
0.439009 -0.0304201 -0.137779 45 
0.440564 -0.0307356 -0.137397 47 
0.44081 -0.0307872 -0.136603 44 
0.440372 -0.0307009 -0.135596 45 
0.440093 -0.0306466 -0.134641 46 
0.440708 -0.0307725 -0.13396 47 
0.440587 -0.0307501 -0.133054 51 
0.440046 -0.0306432 -0.132024 54 
0.440819 -0.030801 -0.131389 57 
0.441226 -0.0308849 -0.130642 52 
0.441581 -0.0309585 -0.12988 53 
0.441725 -0.0309896 -0.129055 49 
0.440921 -0.0308296 -0.127954 53 
0.441277 -0.0309032 -0.127192 54 
0.441422 -0.0309345 -0.126369 56 
0.442043 -0.0310617 -0.125681 55 
0.442454 -0.0311465 -0.124933 57 
0.441862 -0.0310291 -0.123901 61 
0.442802 -0.0312207 -0.1233 58 
0.443057 -0.031274 -0.122506 62 
0.442676 -0.0311992 -0.121536 63 
0.442878 -0.0312419 -0.120728 60 
0.443664 -0.0314024 -0.120079 66 
0.443072 -0.0312849 -0.119055 66 
0.442957 -0.0312639 -0.118162 61 
0.442368 -0.0311471 -0.117144 65 
0.442308 -0.031137 -0.116269 69 
0.442777 -0.0312334 -0.115533 65 
0.442718 -0.0312235 -0.114658 63 
0.442923 -0.0312669 -0.113852 66 
0.442812 -0.0312465 -0.112966 64 
0.442175 -0.0311199 -0.111946 64 
0.442434 -0.0311741 -0.111156 67 
0.442641 -0.0312178 -0.110352 63 
0.441428 -0.0309752 -0.109196 67 
0.441845 -0.0310613 -0.108446 74 
0.442369 -0.0311689 -0.10772 71 
0.441212 -0.0309376 -0.106587 71 
0.441473 -0.0309921 -0.105799 80 
0.440792 -0.0308568 -0.104787 82 
0.441001 -0.0309009 -0.103988 80 
0.440689 -0.0308398 -0.103066 82 
0.440273 -0.0307578 -0.102122 85 
0.439806 -0.0306657 -0.101169 83 
0.439549 -0.0306158 -0.100266 87 
0.439759 -0.0306601 -0.0994701 91 
0.439037 -0.0305164 -0.0984647 90 
0.439818 -0.0306759 -0.0977968 88 
0.438529 -0.0304177 -0.0966702 93 
0.438637 -0.0304414 -0.0958544 101 
0.438436 -0.0304029 -0.0949717 104 
0.438082 -0.0303333 -0.0940574 105 
0.437523 -0.0302225 -0.0931015 109 
0.438044 -0.0303295 -0.0923756 110 
0.436872 -0.030095 -0.0912951 110 
0.436676 -0.0300573 -0.0904212 112 
0.436787 -0.0300816 -0.0896115 105 
0.435523 -0.0298285 -0.0885229 103 
0.435026 -0.0297301 -0.0875938 117 
0.434733 -0.0296729 -0.0867076 118 
0.434138 -0.0295547 -0.0857636 114 
0.433697 -0.0294675 -0.0848522 113 
0.433608 -0.0294516 -0.0840112 112 
0.43337 -0.0294053 -0.0831423 117 
0.433383 -0.0294099 -0.0823224 123 
0.433497 -0.0294348 -0.0815218 123 
0.432809 -0.0292979 -0.0805725 124 
0.432724 -0.0292825 -0.0797368 116 
0.432389 -0.0292169 -0.0788566 122 
0.432156 -0.0291716 -0.0779963 122 
0.431724 -0.0290863 -0.077102 122 
0.431392 -0.0290213 -0.0762276 121 
0.430963 -0.0289366 -0.0753378 128 
0.430832 -0.0289121 -0.0745013 128 
0.430307 -0.0288078 -0.0735986 127 
0.429931 -0.0287339 -0.0727236 137 
0.430296 -0.0288093 -0.0719733 132 
0.429675 -0.0286859 -0.0710602 130 
0.429695 -0.0286919 -0.070254 125 
0.429815 -0.0287178 -0.0694639 128 
0.429935 -0.0287439 -0.0686737 131 
0.430203 -0.0287999 -0.0679068 134 
0.429979 -0.0287566 -0.067063 133 
0.429265 -0.0286142 -0.0661456 141 
0.429779 -0.02872 -0.0654166 138 
0.430148 -0.0287962 -0.0646642 141 
0.429729 -0.0287136 -0.0637952 144 
0.430049 -0.0287801 -0.0630351 143 
0.42978 -0.0287275 -0.0621898 143 
0.429364 -0.0286453 -0.0613252 142 
0.429783 -0.0287319 -0.0605788 140 
0.42927 -0.0286301 -0.0597031 141 
0.430133 -0.0288062 -0.059016 149 
0.429915 -0.028764 -0.0581817 141 
0.429747 -0.0287319 -0.057355 141 
0.429383 -0.0286604 -0.0565039 142 
0.429707 -0.0287277 -0.0557424 141 
0.430475 -0.0288846 -0.0550359 136 
0.430999 -0.0289923 -0.0542965 146 
0.430438 -0.0288809 -0.0534229 143 
0.430076 -0.0288096 -0.0525756 151 
0.43065 -0.0289273 -0.0518407 149 
0.430781 -0.0289557 -0.0510524 153 
0.430963 -0.0289942 -0.0502696 155 
0.431046 -0.0290128 -0.0494753 156 
0.430932 -0.0289917 -0.0486591 155 
0.431214 -0.0290505 -0.0478867 158 
0.431694 -0.0291494 -0.0471347 158 
0.431038 -0.0290187 -0.0462618 157 
0.430779 -0.0289682 -0.0454325 155 
0.430767 -0.0289675 -0.0446295 158 
0.430853 -0.0289869 -0.0438366 161 
0.431583 -0.0291361 -0.0431062 161 
0.431968 -0.0292158 -0.0423403 160 
0.432156 -0.0292556 -0.0415548 158 
0.432146 -0.0292554 -0.0407506 162 
0.431296 -0.0290855 -0.0398713 162 
0.431337 -0.0290956 -0.0390736 162 
0.43207 -0.0292457 -0.0383357 164 
0.431519 -0.0291361 -0.037487 166 
0.432056 -0.0292465 -0.0367302 166 
0.432446 -0.0293271 -0.0359597 164 
0.432142 -0.0292677 -0.0351335 174 
0.432335 -0.0293085 -0.0343466 173 
0.432877 -0.0294197 -0.0335852 171 
0.432376 -0.0293203 -0.0327461 169 
0.432968 -0.0294419 -0.0319865 168 
0.432022 -0.0292525 -0.0311187 179 
0.432664 -0.0293841 -0.0303612 171 
0.433059 -0.0294659 -0.0295854 177 
0.433008 -0.0294573 -0.0287799 176 
0.433455 -0.0295495 -0.0280054 173 
0.433205 -0.0295009 -0.0271879 173 
0.433853 -0.0296338 -0.0264232 173 
0.433605 -0.0295853 -0.0256062 175 
0.434305 -0.0297287 -0.0248414 173 
0.434407 -0.0297511 -0.0240429 168 
0.434759 -0.0298243 -0.0232568 172 
0.435013 -0.0298774 -0.0224646 176 
0.434916 -0.0298597 -0.0216554 173 
0.43492 -0.0298623 -0.0208511 175 
0.435125 -0.0299057 -0.0200555 173 
0.43498 -0.0298781 -0.019245 173 
0.436092 -0.0301048 -0.0184838 171 
0.435293 -0.0299451 -0.0176481 175 
0.435501 -0.029989 -0.0168507 176 
0.436264 -0.0301451 -0.0160709 175 
0.436322 -0.0301588 -0.0152664 175 
0.436179 -0.0301318 -0.0144558 175 
0.436441 -0.0301865 -0.0136569 174 
0.436602 -0.030221 -0.0128545 175 
0.437118 -0.0303272 -0.01206 180 
0.436826 -0.0302699 -0.0112459 175 
0.436888 -0.0302843 -0.0104401 176 
0.437356 -0.0303808 -0.00964138 181 
0.437318 -0.0303749 -0.00883278 175 
0.437991 -0.030513 -0.00803447 177 
0.4377 -0.030456 -0.00722175 182 
0.439193 -0.0307597 -0.00642879 179 
0.437933 -0.0305068 -0.00560666 179 
0.439479 -0.0308215 -0.00480801 175 
0.439598 -0.0308474 -0.00399672 179 
0.439513 -0.0308319 -0.00318439 174 
0.439274 -0.0307855 -0.00237223 181 
0.440421 -0.0310194 -0.00155974 181 
0.440388 -0.0310147 -0.00074618 186 
0.440099 -0.0309581 6.60785e-05 182 
0.440376 -0.031016 0.000880959 183 
0.440757 -0.0310949 0.00169779 182 
0.442175 -0.0313835 0.00252679 181 
0.442508 -0.0314528 0.00334793 185 
0.441856 -0.0313228 0.00415648 178 
0.442346 -0.0314238 0.00498087 177 
0.442786 -0.0315146 0.00580625 181 
0.443227 -0.0316058 0.00663337 183 
0.443304 -0.0316233 0.00745434 175 
0.443226 -0.0316093 0.00827199 178 
0.443409 -0.0316482 0.0090961 176 
0.443854 -0.0317401 0.009928 176 
0.44493 -0.0319598 0.0107802 177 
0.444696 -0.0319143 0.0115958 175 
0.444935 -0.0319646 0.0124262 176 
0.445755 -0.0321323 0.0132779 178 
0.445732 -0.0321297 0.0141017 179 
0.446239 -0.0322341 0.0149461 186 
0.446377 -0.0322639 0.0157774 185 
0.446674 -0.032326 0.0166162 188 
0.447291 -0.0324527 0.0174705 188 
0.447006 -0.032397 0.0182854 186 
0.447572 -0.0325135 0.0191404 188 
0.448354 -0.0326736 0.0200084 185 
0.448177 -0.0326396 0.0208297 186 
0.448587 -0.0327246 0.0216822 182 
0.447984 -0.0326043 0.0224798 178 
0.447915 -0.0325923 0.0233061 175 
0.448594 -0.0327318 0.0241768 176 
0.449116 -0.0328392 0.0250406 176 
0.449585 -0.0329362 0.0259032 180 
0.449841 -0.0329899 0.0267538 180 
0.449937 -0.0330111 0.0275948 182 
0.44971 -0.0329671 0.0284141 188 
0.450021 -0.0330321 0.0292709 187 
0.450119 -0.0330538 0.0301134 185 
0.449894 -0.0330101 0.0309325 190 
0.449508 -0.0329339 0.0317386 187 
0.449338 -0.0329015 0.0325604 196 
0.449438 -0.0329236 0.0334033 196 
0.449162 -0.0328697 0.034216 196 
0.449209 -0.0328811 0.0350551 194 
0.449418 -0.0329253 0.0359084 203 
0.447166 -0.0324714 0.0365464 206 
0.446949 -0.0324293 0.0373588 204 
0.44721 -0.0324841 0.0382146 204 
0.446304 -0.0323025 0.0389622 205 
0.446247 -0.032293 0.0397879 204 
0.446139 -0.032273 0.0406085 202 
0.446349 -0.0323174 0.0414606 207 
0.446242 -0.0322976 0.0422816 201 
0.445606 -0.0321707 0.0430479 198 
0.443449 -0.0317359 0.0436523 198 
0.444131 -0.0318759 0.0445524 202 
0.445026 -0.0320591 0.0454785 201 
0.443608 -0.0317739 0.0461522 202 
0.445083 -0.0320744 0.0471466 200 
0.443194 -0.0316938 0.0477616 201 
0.443093 -0.0316752 0.0485778 205 
0.443044 -0.0316673 0.0494003 199 
0.441953 -0.0314482 0.0500974 195 
0.441906 -0.0314406 0.0509182 193 
0.441236 -0.0313068 0.0516619 197 
0.441761 -0.031415 0.0525539 194 
0.439646 -0.0309885 0.0531105 192 
0.439138 -0.0308876 0.0538681 197 
0.439351 -0.0309326 0.0547189 194 
0.439462 -0.0309569 0.0555572 193 
0.439367 -0.0309396 0.0563685 195 
0.43917 -0.0309017 0.0571657 196 
0.438666 -0.0308014 0.0579196 196 
0.438728 -0.0308157 0.0587518 195 
0.438636 -0.030799 0.0595627 191 
0.437981 -0.0306682 0.0602919 193 
0.436819 -0.0304347 0.0609444 197 
0.436729 -0.0304183 0.0617524 198 
0.436233 -0.0303198 0.0624993 193 
0.435992 -0.0302728 0.0632836 199 
0.436157 -0.0303083 0.0641302 198 
0.436171 -0.030313 0.064954 195 
0.43583 -0.0302458 0.0657221 196 
0.435339 -0.0301481 0.0664651 194 
0.434647 -0.0300098 0.0671741 191 
0.433958 -0.029872 0.0678812 189 
0.433723 -0.0298263 0.0686615 192 
0.433639 -0.0298112 0.0694668 187 
0.433154 -0.0297148 0.070204 190 
0.432971 -0.0296797 0.0709916 187 
0.432939 -0.029675 0.0718052 182 
0.432707 -0.0296299 0.072584 184 
0.432576 -0.0296052 0.0733801 178 
0.432996 -0.0296922 0.0742753 178 
0.432765 -0.0296474 0.0750543 177 
0.433087 -0.0297143 0.0759342 175 
0.433057 -0.0297103 0.0767508 178 
0.43328 -0.0297573 0.0776148 176 
0.4326 -0.0296214 0.0783093 171 
0.432522 -0.0296075 0.0791168 176 
0.432695 -0.0296445 0.079973 175 
0.432669 -0.029641 0.0807913 172 
0.432793 -0.0296681 0.0816397 173 
0.434732 -0.0300631 0.0828504 172 
0.432442 -0.0296007 0.0832188 170 
0.432668 -0.0296484 0.0840896 169 
0.43385 -0.02989 0.0851577 164 
0.432971 -0.0297137 0.0858045 162 
0.432948 -0.0297109 0.086627 166 
0.433227 -0.0297694 0.0875137 169 
0.433356 -0.0297974 0.08837 165 
0.433838 -0.0298972 0.0893032 163 
0.433716 -0.0298743 0.0901079 167 
0.43415 -0.0299643 0.0910341 166 
0.433877 -0.0299109 0.0918067 168 
0.434009 -0.0299395 0.0926688 167 
0.434598 -0.0300608 0.0936344 160 
0.435036 -0.0301516 0.0945689 164 
0.435578 -0.0302634 0.0955292 168 
0.435408 -0.0302308 0.0963282 160 
0.435493 -0.03025 0.0971863 161 
0.435833 -0.030321 0.0981052 160 
0.436124 -0.0303818 0.0990146 160 
0.436364 -0.0304325 0.0999126 157 
0.437582 -0.0306815 0.101048 155 
0.43654 -0.030472 0.101641 155 
0.437142 -0.0305961 0.102632 155 
0.437232 -0.0306163 0.1035 156 
0.437838 -0.0307411 0.104497 153 
0.438187 -0.0308139 0.105433 152 
0.438382 -0.0308555 0.106331 151 
0.438786 -0.0309393 0.107284 153 
0.439035 -0.0309917 0.1082 149 
0.439701 -0.0311289 0.109225 149 
0.439848 -0.0311607 0.110118 145 
0.439058 -0.0310023 0.110767 147 
0.439883 -0.0311716 0.111839 151 
0.440345 -0.0312674 0.112819 147 
0.44039 -0.0312785 0.11369 150 
0.441697 -0.0315455 0.114902 141 
0.441427 -0.0314928 0.115691 139 
0.442213 -0.0316542 0.116769 138 
0.442631 -0.031741 0.117749 134 
0.44305 -0.0318281 0.118732 132 
0.443471 -0.0319156 0.119718 130 
0.444268 -0.0320791 0.120812 130 
0.444211 -0.0320697 0.121667 126 
0.445065 -0.0322451 0.122784 129 
0.444635 -0.0321597 0.123534 134 
0.44517 -0.0322703 0.124563 130 
0.445438 -0.0323267 0.125518 123 
0.446787 -0.0326024 0.126791 127 
0.445923 -0.0324291 0.127416 135 
0.446626 -0.0325739 0.128505 129 
0.446357 -0.0325213 0.129306 129 
0.446413 -0.0325347 0.130205 124 
0.446362 -0.0325263 0.131072 127 
0.446419 -0.0325399 0.131973 131 
0.446693 -0.0325976 0.132941 124 
0.44724 -0.0327106 0.133996 129 
0.447407 -0.0327467 0.134935 136 
0.447521 -0.0327719 0.135859 135 
0.447799 -0.0328303 0.136836 128 
0.447424 -0.0327562 0.137607 122 
0.447539 -0.0327817 0.138535 122 
0.44771 -0.0328183 0.139481 126 
0.447227 -0.0327223 0.140217 132 
0.447507 -0.0327813 0.1412 130 
0.447952 -0.0328737 0.14224 127 
0.447415 -0.0327667 0.142957 123 
0.448628 -0.033015 0.144255 126 
0.448309 -0.0329523 0.145046 120 
0.447225 -0.0327344 0.14558 120 
0.447782 -0.0328495 0.146665 120 
0.447738 -0.0328427 0.147549 117 
0.447859 -0.0328693 0.148489 120 
0.447762 -0.0328516 0.149356 112 
0.447336 -0.0327673 0.150109 101 
0.44724 -0.0327497 0.150976 103 
0.448679 -0.033044 0.152382 106 
0.448033 -0.032915 0.153059 112 
0.448212 -0.0329534 0.154027 111 
0.447787 -0.0328693 0.154781 110 
0.447857 -0.0328855 0.155712 114 
0.447818 -0.0328796 0.156604 115 
0.447395 -0.0327957 0.157358 121 
0.447191 -0.0327566 0.158191 125 
0.446715 -0.032662 0.158923 124 
0.446459 -0.0326119 0.159736 122 
0.446913 -0.0327063 0.160812 125 
0.446985 -0.0327231 0.161748 123 
0.446565 -0.0326399 0.162501 129 
0.446201 -0.0325679 0.163274 130 
0.446876 -0.0327072 0.16444 125 
0.446129 -0.0325575 0.165068 124 
0.445657 -0.0324637 0.165798 125 
0.445785 -0.0324919 0.16676 119 
0.44586 -0.0325091 0.167701 114 
0.44528 -0.0323934 0.168389 121 
0.445409 -0.0324218 0.169353 121 
0.444722 -0.0322843 0.169997 128 
0.444798 -0.0323017 0.170941 124 
0.444547 -0.0322529 0.171756 118 
0.444623 -0.0322705 0.172701 113 
0.443072 -0.0319575 0.172994 114 
0.443527 -0.032052 0.174092 121 
0.442199 -0.0317842 0.174468 121 
0.441951 -0.0317361 0.17528 121 
0.441813 -0.03171 0.176137 123 
0.440708 -0.0314876 0.176596 123 
0.440945 -0.0315379 0.177608 120 
0.440807 -0.031512 0.178465 119 
0.439974 -0.0313448 0.179031 118 
0.438985 -0.0311458 0.179529 120 
0.439114 -0.0311743 0.180497 114 
0.438553 -0.0310623 0.181173 114 
0.438046 -0.0309614 0.18187 115 
0.438548 -0.0310655 0.182999 114 
0.436667 -0.0306852 0.183103 111 
0.436955 -0.0307458 0.184141 109 
0.43603 -0.0305601 0.184652 111 
0.436213 -0.0305993 0.185645 106 
0.435607 -0.0304781 0.186293 109 
0.434845 -0.0303254 0.18687 112 
0.433929 -0.0301414 0.187377 121 
0.433641 -0.0300849 0.18816 111 
0.433823 -0.0301239 0.189154 100 
0.433067 -0.0299724 0.189728 97 
0.433144 -0.0299903 0.190676 99 
0.433483 -0.0300612 0.191744 114 
0.433509 -0.0300686 0.192672 98 
0.433119 -0.0299914 0.19341 94 
0.433302 -0.0300308 0.194411 96 
0.4307 -0.0251156 -0.207465 10 
0.429782 -0.0249405 -0.206105 7 
0.426125 -0.0242369 -0.203435 8 
0.430572 -0.0250972 -0.204656 9 
0.428633 -0.0247251 -0.20282 11 
0.422311 -0.023507 -0.198916 9 
0.2951 0.0010449 -0.138298 8 
0.2707 0.0057534 -0.12637 7 
0.433629 -0.0256977 -0.201527 10 
0.424651 -0.0239669 -0.196434 8 
0.42865 -0.0247409 -0.19739 11 
0.430401 -0.0250809 -0.197294 9 
0.434665 -0.0259061 -0.198346 10 
0.424407 -0.023928 -0.192746 12 
0.431673 -0.0253328 -0.195158 10 
0.431377 -0.0252777 -0.194118 11 
0.426353 -0.0243099 -0.190951 16 
0.428846 -0.0247931 -0.191175 12 
0.427492 -0.0245338 -0.189674 16 
0.430098 -0.0250391 -0.189938 16 
0.427674 -0.0245731 -0.187968 16 
0.42508 -0.0240743 -0.185935 15 
0.430093 -0.0250442 -0.187243 18 
0.42909 -0.0248526 -0.18591 17 
0.431558 -0.0253313 -0.186088 22 
0.43009 -0.0250498 -0.184557 20 
0.428785 -0.0247998 -0.183104 21 
0.432482 -0.0255159 -0.183794 18 
0.429428 -0.0249282 -0.181599 19 
0.430056 -0.0250516 -0.180976 22 
0.429566 -0.0249588 -0.17988 23 
0.429584 -0.0249644 -0.178999 22 
0.430468 -0.0251371 -0.178481 25 
0.430537 -0.0251526 -0.177621 25 
0.431578 -0.0253557 -0.177164 23 
0.430729 -0.0251937 -0.175926 25 
0.430748 -0.0251995 -0.175048 24 
0.431483 -0.0253435 -0.174461 21 
0.433198 -0.0256767 -0.174268 19 
0.433012 -0.0256428 -0.173304 26 
0.431085 -0.0252726 -0.171645 27 
0.429937 -0.0250528 -0.170305 21 
0.431996 -0.0254527 -0.170241 22 
0.431506 -0.0253601 -0.169165 27 
0.433014 -0.0256534 -0.168874 28 
0.432933 -0.0256398 -0.167959 28 
0.434295 -0.025905 -0.167604 32 
0.432261 -0.0255139 -0.165934 27 
0.433567 -0.0257683 -0.165556 26 
0.434157 -0.0258844 -0.164899 32 
0.434129 -0.025881 -0.164006 28 
0.43374 -0.0258079 -0.162978 32 
0.432687 -0.0256064 -0.161702 28 
0.431639 -0.025406 -0.160434 32 
0.432174 -0.0255114 -0.159759 28 
0.432251 -0.0255282 -0.158913 30 
0.434431 -0.0259515 -0.15884 29 
0.433993 -0.025869 -0.157802 33 
0.433968 -0.0258661 -0.156917 33 
0.435439 -0.0261524 -0.156574 32 
0.435362 -0.0261396 -0.155669 32 
0.436426 -0.0263472 -0.155172 32 
0.435055 -0.0260843 -0.153807 32 
0.436845 -0.0264322 -0.153565 39 
0.435473 -0.026169 -0.152206 41 
0.436953 -0.0264571 -0.151849 42 
0.437294 -0.0265251 -0.151091 41 
0.436232 -0.0263218 -0.149848 33 
0.437926 -0.0266513 -0.149556 37 
0.43733 -0.0265381 -0.148477 40 
0.437048 -0.0264855 -0.147508 48 
0.437391 -0.0265538 -0.14675 43 
0.437786 -0.0266322 -0.14601 46 
0.437297 -0.0265396 -0.144974 44 
0.438789 -0.0268301 -0.144597 42 
0.438873 -0.0268484 -0.143751 49 
0.438017 -0.0266849 -0.142599 47 
0.439514 -0.0269764 -0.142215 47 
0.440178 -0.0271067 -0.141556 46 
0.440369 -0.0271457 -0.140744 49 
0.439614 -0.0270018 -0.13963 51 
0.439858 -0.0270509 -0.138837 52 
0.441421 -0.0273551 -0.138458 45 
0.43998 -0.0270785 -0.137134 50 
0.440383 -0.0271585 -0.13639 52 
0.439894 -0.0270658 -0.135369 48 
0.441615 -0.0274007 -0.135029 44 
0.443297 -0.0277279 -0.134671 45 
0.442536 -0.0275827 -0.133567 47 
0.441145 -0.0273157 -0.132277 55 
0.442028 -0.0274885 -0.131673 55 
0.443393 -0.0277545 -0.131209 62 
0.442104 -0.0275073 -0.129958 63 
0.442249 -0.0275373 -0.129132 52 
0.440811 -0.0272612 -0.127847 52 
0.442169 -0.0275259 -0.127375 54 
0.44258 -0.0276073 -0.126627 57 
0.441881 -0.027474 -0.125561 57 
0.442556 -0.0276066 -0.124888 60 
0.442545 -0.0276064 -0.12402 60 
0.442798 -0.0276575 -0.123226 56 
0.443318 -0.02776 -0.122506 59 
0.443999 -0.0278938 -0.121828 63 
0.44511 -0.0281107 -0.121266 66 
0.443608 -0.027822 -0.119992 66 
0.443652 -0.0278325 -0.119141 65 
0.443113 -0.0277303 -0.118134 69 
0.444167 -0.0279362 -0.117552 63 
0.442094 -0.0275371 -0.116144 63 
0.443303 -0.027773 -0.115602 67 
0.443721 -0.0278558 -0.11485 71 
0.442867 -0.0276926 -0.113771 67 
0.442545 -0.0276323 -0.112831 67 
0.442277 -0.0275823 -0.111906 63 
0.442853 -0.0276957 -0.111195 63 
0.442322 -0.0275949 -0.110207 63 
0.442108 -0.0275555 -0.1093 70 
0.442368 -0.0276079 -0.10851 67 
0.441106 -0.0273655 -0.107349 74 
0.441367 -0.0274179 -0.106562 68 
0.440947 -0.0273386 -0.105611 76 
0.441575 -0.0274621 -0.104911 82 
0.440894 -0.0273323 -0.103901 83 
0.4398 -0.0271226 -0.102798 85 
0.439958 -0.0271549 -0.101989 85 
0.439492 -0.0270667 -0.101038 88 
0.440691 -0.0273007 -0.100468 93 
0.439186 -0.0270114 -0.0992825 99 
0.438569 -0.0268939 -0.0983026 97 
0.43909 -0.0269966 -0.0975781 96 
0.438732 -0.0269294 -0.0966589 98 
0.438273 -0.0268424 -0.0957193 98 
0.437713 -0.0267358 -0.0947602 100 
0.437257 -0.0266495 -0.0938262 101 
0.437315 -0.0266627 -0.0930035 105 
0.436606 -0.0265273 -0.0920197 107 
0.436053 -0.0264221 -0.0910717 104 
0.435756 -0.0263665 -0.0901791 107 
0.435815 -0.0263799 -0.0893612 111 
0.436079 -0.0264329 -0.0885848 115 
0.434769 -0.0261812 -0.0874922 116 
0.434679 -0.0261656 -0.0866473 118 
0.434538 -0.0261403 -0.0857934 112 
0.434247 -0.0260857 -0.0849111 116 
0.434259 -0.02609 -0.084089 115 
0.43402 -0.0260455 -0.0832192 117 
0.433731 -0.0259915 -0.0823414 116 
0.433342 -0.0259182 -0.0814466 122 
0.433457 -0.0259422 -0.0806468 120 
0.43262 -0.025782 -0.0796727 119 
0.432186 -0.0256998 -0.0787752 121 
0.432102 -0.0256854 -0.0779426 122 
0.431024 -0.0254785 -0.0769345 129 
0.430694 -0.0254165 -0.0760621 129 
0.431207 -0.0255177 -0.0753378 134 
0.430531 -0.0253887 -0.0744078 135 
0.430649 -0.0254133 -0.0736154 141 
0.430569 -0.0253997 -0.0727899 131 
0.430984 -0.025482 -0.0720472 132 
0.4315 -0.0255838 -0.0713198 134 
0.430826 -0.0254552 -0.070398 136 
0.430254 -0.0253462 -0.0694954 126 
0.430374 -0.0253714 -0.068705 137 
0.430693 -0.0254349 -0.0679454 136 
0.431061 -0.0255082 -0.0671927 135 
0.430837 -0.0254666 -0.0663486 139 
0.430762 -0.0254538 -0.0655281 143 
0.430538 -0.0254125 -0.0646863 143 
0.430711 -0.0254478 -0.0639037 144 
0.430786 -0.0254641 -0.0631066 149 
0.431256 -0.0255571 -0.0623662 147 
0.430491 -0.0254108 -0.0614501 141 
0.430419 -0.0253987 -0.0606336 145 
0.430594 -0.0254344 -0.0598517 147 
0.431512 -0.0256141 -0.0591698 144 
0.431838 -0.0256791 -0.0584058 142 
0.430827 -0.025485 -0.0574652 141 
0.43056 -0.0254351 -0.0566251 140 
0.430836 -0.0254906 -0.0558556 144 
0.430866 -0.0254983 -0.0550545 141 
0.431342 -0.0255923 -0.0543087 141 
0.431918 -0.0257058 -0.0535737 143 
0.432049 -0.0257331 -0.0527833 150 
0.431437 -0.0256163 -0.0519049 150 
0.43152 -0.0256341 -0.0511099 155 
0.432247 -0.025777 -0.0503885 156 
0.43243 -0.0258143 -0.0496035 154 
0.431968 -0.0257266 -0.0487467 159 
0.432301 -0.025793 -0.0479782 163 
0.431741 -0.0256863 -0.0471135 163 
0.432174 -0.0257721 -0.0463553 163 
0.432807 -0.0258967 -0.0456162 160 
0.432248 -0.0257901 -0.0447545 159 
0.432385 -0.0258185 -0.0439642 156 
0.432622 -0.0258663 -0.0431834 159 
0.43281 -0.0259046 -0.0423972 158 
0.4327 -0.0258851 -0.0415827 158 
0.432541 -0.0258562 -0.0407643 161 
0.43278 -0.0259044 -0.0399824 163 
0.432821 -0.0259142 -0.0391825 160 
0.432416 -0.0258374 -0.0383442 164 
0.432657 -0.0258859 -0.037562 169 
0.432848 -0.025925 -0.036775 172 
0.433041 -0.0259641 -0.0359876 179 
0.433035 -0.0259648 -0.0351841 170 
0.434428 -0.0262368 -0.0344877 174 
0.434122 -0.0261794 -0.0336596 171 
0.434018 -0.026161 -0.0328474 173 
0.434214 -0.0262009 -0.0320571 174 
0.434211 -0.0262021 -0.0312525 175 
0.434809 -0.02632 -0.0304884 181 
0.435058 -0.0263701 -0.0296994 179 
0.435056 -0.0263716 -0.0288938 180 
0.435005 -0.0263635 -0.0280852 179 
0.435205 -0.0264042 -0.027292 178 
0.435256 -0.0264158 -0.0264896 174 
0.435407 -0.0264471 -0.0256927 171 
0.435408 -0.0264491 -0.0248873 170 
0.435712 -0.0265099 -0.0240977 177 
0.435714 -0.0265122 -0.023292 173 
0.436575 -0.026681 -0.0225277 178 
0.435519 -0.026478 -0.0216717 174 
0.435724 -0.0265197 -0.0208757 181 
0.435729 -0.0265224 -0.0200705 176 
0.435935 -0.0265644 -0.0192736 181 
0.437104 -0.0267929 -0.0185132 181 
0.436604 -0.0266978 -0.0176871 179 
0.436813 -0.0267402 -0.0168877 180 
0.437226 -0.0268221 -0.0160943 180 
0.437082 -0.026796 -0.0152821 172 
0.437699 -0.0269177 -0.0144929 176 
0.437759 -0.0269312 -0.0136861 175 
0.437871 -0.0269547 -0.0128804 177 
0.438135 -0.0270079 -0.012078 177 
0.438146 -0.0270119 -0.0112691 175 
0.439537 -0.0272837 -0.0104876 184 
0.43955 -0.027288 -0.0096762 184 
0.438489 -0.0270839 -0.0088475 179 
0.439576 -0.0272968 -0.00805332 176 
0.439538 -0.0272914 -0.00724124 176 
0.439963 -0.0273757 -0.00643413 181 
0.440338 -0.0274504 -0.00562502 181 
0.440251 -0.0274353 -0.00481143 185 
0.440422 -0.0274703 -0.00399941 179 
0.440748 -0.0275355 -0.00318721 182 
0.44211 -0.0278018 -0.00237481 184 
0.44099 -0.0275862 -0.00155946 181 
0.441371 -0.027662 -0.00074418 180 
0.442479 -0.0278789 7.59384e-05 181 
0.442603 -0.0279049 0.000893818 183 
0.442416 -0.0278704 0.00170957 182 
0.441918 -0.0277757 0.00252144 178 
0.442719 -0.0279331 0.0033473 181 
0.443159 -0.0280203 0.00417112 176 
0.443861 -0.0281585 0.00500085 179 
0.444513 -0.0282871 0.00583238 176 
0.443648 -0.0281209 0.00663646 176 
0.444564 -0.0283006 0.00747584 179 
0.44417 -0.0282261 0.00828797 180 
0.445037 -0.0283962 0.0091307 181 
0.445011 -0.0283932 0.0099524 177 
0.444461 -0.0282883 0.0107588 184 
0.44491 -0.0283773 0.0115942 179 
0.445465 -0.028487 0.0124349 178 
0.445495 -0.0284947 0.0132595 180 
0.446107 -0.0286153 0.0141056 183 
0.446244 -0.0286438 0.0149358 179 
0.44654 -0.0287033 0.0157732 181 
0.446997 -0.0287939 0.0166185 188 
0.448095 -0.029009 0.0174941 183 
0.44733 -0.0288624 0.0182879 190 
0.449341 -0.0292549 0.0192124 191 
0.447719 -0.0289418 0.0199631 190 
0.448556 -0.0291062 0.0208353 190 
0.447898 -0.0289803 0.0216305 183 
0.448737 -0.0291452 0.0225066 181 
0.44808 -0.0290195 0.0233 184 
0.448707 -0.0291431 0.0241673 181 
0.449336 -0.0292672 0.0250373 183 
0.449537 -0.0293082 0.0258828 184 
0.448987 -0.0292034 0.0266803 181 
0.449404 -0.0292863 0.0275407 181 
0.449446 -0.0292964 0.028377 183 
0.449382 -0.0292857 0.0292061 188 
0.449425 -0.029296 0.030043 188 
0.448932 -0.0292022 0.0308403 189 
0.448655 -0.0291502 0.0316524 198 
0.449612 -0.0293382 0.0325604 201 
0.44741 -0.0289122 0.0332187 199 
0.446605 -0.0287577 0.0339836 200 
0.447129 -0.0288615 0.0348574 203 
0.446964 -0.0288313 0.0356741 205 
0.446533 -0.0287495 0.0364671 201 
0.446528 -0.0287505 0.0372969 205 
0.446259 -0.0287 0.0381027 201 
0.446414 -0.0287321 0.0389474 202 
0.445722 -0.0285996 0.0397121 203 
0.445984 -0.0286524 0.0405672 201 
0.445718 -0.0286025 0.0413712 201 
0.445664 -0.0285939 0.0421959 201 
0.445663 -0.0285956 0.0430261 201 
0.445082 -0.0284846 0.0437957 196 
0.443086 -0.0280987 0.0444124 197 
0.443558 -0.0281923 0.0452899 198 
0.442932 -0.0280725 0.046048 200 
0.442725 -0.0280341 0.0468512 198 
0.442884 -0.028067 0.0476958 201 
0.442991 -0.0280898 0.0485353 205 
0.442682 -0.0280315 0.0493261 202 
0.442321 -0.0279632 0.0501099 196 
0.440302 -0.0275727 0.0506904 194 
0.440152 -0.0275454 0.0514951 194 
0.440416 -0.0275986 0.0523516 196 
0.439442 -0.0274112 0.0530513 190 
0.439397 -0.0274044 0.0538681 195 
0.439353 -0.0273977 0.0546851 197 
0.439155 -0.0273611 0.0554817 199 
0.439472 -0.0274247 0.0563476 200 
0.437941 -0.027129 0.0569615 196 
0.438309 -0.0272023 0.0578339 194 
0.436635 -0.0268787 0.0584202 194 
0.436797 -0.0269122 0.059263 192 
0.436757 -0.0269063 0.0600774 199 
0.436565 -0.0268708 0.0608697 195 
0.436322 -0.0268256 0.0616541 197 
0.435372 -0.0266426 0.0623313 197 
0.435233 -0.0266174 0.063129 199 
0.434438 -0.0264649 0.0638254 195 
0.435462 -0.0266657 0.0648033 193 
0.434315 -0.0264446 0.0654421 192 
0.433475 -0.0262832 0.066126 194 
0.433089 -0.02621 0.0668806 190 
0.433656 -0.0263221 0.0677905 186 
0.433371 -0.0262685 0.0685615 183 
0.432936 -0.0261859 0.0693068 181 
0.432753 -0.0261521 0.0700934 179 
0.43277 -0.0261573 0.0709142 183 
0.432988 -0.0262016 0.0717704 176 
0.433157 -0.0262363 0.0726192 178 
0.433527 -0.0263103 0.0735048 183 
0.433246 -0.0262573 0.0742753 177 
0.433015 -0.0262143 0.0750543 173 
0.433286 -0.026269 0.075925 173 
0.434314 -0.0264709 0.0769373 170 
0.433379 -0.0262909 0.0775866 169 
0.433854 -0.0263852 0.0784994 166 
0.43423 -0.0264601 0.0793955 165 
0.434304 -0.0264764 0.0802353 167 
0.434075 -0.0264339 0.0810169 164 
0.433696 -0.0263621 0.0817684 165 
0.434276 -0.0264767 0.0827095 169 
0.433998 -0.0264247 0.0834813 166 
0.434277 -0.0264807 0.0843652 169 
0.434152 -0.0264583 0.0851681 165 
0.435141 -0.0266527 0.0862011 169 
0.43451 -0.0265317 0.0869006 161 
0.434842 -0.0265983 0.0878009 168 
0.435378 -0.0267046 0.0887464 166 
0.435154 -0.0266628 0.0895313 167 
0.435438 -0.02672 0.090426 163 
0.435876 -0.0268071 0.0913558 161 
0.436264 -0.0268847 0.092277 161 
0.436398 -0.0269127 0.0931436 162 
0.436533 -0.0269408 0.0940115 162 
0.436771 -0.026989 0.0949037 155 
0.438503 -0.0273281 0.0961383 162 
0.437146 -0.0270659 0.0966696 158 
0.437181 -0.0270746 0.0975189 156 
0.437679 -0.0271735 0.0984774 158 
0.438489 -0.0273332 0.0995116 158 
0.438681 -0.0273725 0.100404 155 
0.439081 -0.0274523 0.101346 150 
0.439639 -0.0275628 0.102329 154 
0.440094 -0.0276534 0.103289 149 
0.439977 -0.0276325 0.104112 154 
0.440906 -0.0278152 0.105193 150 
0.441104 -0.0278557 0.106096 148 
0.44167 -0.027968 0.107094 148 
0.441449 -0.0279269 0.107894 148 
0.442176 -0.0280704 0.108936 148 
0.443383 -0.0283074 0.110106 145 
0.443799 -0.0283904 0.111076 143 
0.444537 -0.028536 0.112132 144 
0.444369 -0.0285053 0.112953 146 
0.444202 -0.0284747 0.113774 146 
0.444142 -0.028465 0.114624 147 
0.445473 -0.0287261 0.115848 145 
0.445628 -0.0287584 0.11676 141 
0.44697 -0.0290217 0.117998 135 
0.447399 -0.0291072 0.11899 140 
0.447503 -0.0291296 0.119894 141 
0.44723 -0.0290783 0.120694 136 
0.447715 -0.0291748 0.121706 133 
0.44755 -0.0291447 0.122538 131 
0.448746 -0.0293796 0.123757 136 
0.448254 -0.0292859 0.124497 129 
0.448417 -0.0293197 0.125425 121 
0.448799 -0.0293962 0.126419 130 
0.449841 -0.029601 0.127608 137 
0.450172 -0.0296675 0.128592 129 
0.449022 -0.0294455 0.129137 133 
0.449298 -0.0295013 0.130106 138 
0.44963 -0.029568 0.131093 134 
0.449963 -0.029635 0.132082 137 
0.450187 -0.0296806 0.133041 133 
0.450577 -0.0297587 0.134052 135 
0.451135 -0.0298694 0.135117 133 
0.450532 -0.0297541 0.135824 131 
0.449711 -0.0295963 0.13646 132 
0.449278 -0.0295139 0.137216 135 
0.450662 -0.0297856 0.138549 127 
0.449621 -0.0295849 0.139113 130 
0.450346 -0.0297281 0.14024 132 
0.450188 -0.0296994 0.141087 137 
0.450031 -0.0296709 0.141933 142 
0.449599 -0.0295888 0.14269 141 
0.449939 -0.0296572 0.1437 134 
0.450668 -0.0298012 0.144841 136 
0.45007 -0.0296868 0.145543 132 
0.449805 -0.0296371 0.146355 138 
0.449871 -0.0296522 0.147278 128 
0.449662 -0.0296135 0.148109 123 
0.44995 -0.0296717 0.149111 119 
0.449797 -0.0296439 0.149962 123 
0.449976 -0.0296809 0.150928 113 
0.448775 -0.0294489 0.151416 114 
0.449285 -0.0295503 0.152498 112 
0.449078 -0.0295122 0.153331 116 
0.449038 -0.0295063 0.154222 111 
0.448281 -0.029361 0.15486 114 
0.448296 -0.029366 0.155771 116 
0.447707 -0.0292533 0.156466 111 
0.44712 -0.0291409 0.157159 113 
0.447191 -0.0291567 0.158091 126 
0.447866 -0.0292904 0.159245 115 
0.447553 -0.0292315 0.160039 119 
0.44746 -0.0292155 0.160914 128 
0.447313 -0.029189 0.161769 122 
0.447551 -0.0292374 0.162768 132 
0.446199 -0.028976 0.163171 141 
0.447204 -0.0291739 0.164461 137 
0.446346 -0.0290088 0.165047 132 
0.446968 -0.0291321 0.166197 133 
0.447153 -0.0291702 0.167182 132 
0.445912 -0.0289305 0.167617 136 
0.446097 -0.0289686 0.168602 129 
0.446172 -0.0289854 0.169546 125 
0.44592 -0.0289382 0.170362 127 
0.446325 -0.0290193 0.171438 125 
0.445525 -0.0288656 0.172038 133 
0.445111 -0.0287868 0.172789 127 
0.445297 -0.0288252 0.17378 125 
0.444937 -0.0287572 0.174553 123 
0.444252 -0.0286256 0.175193 116 
0.444221 -0.0286216 0.176098 117 
0.442725 -0.0283321 0.176403 125 
0.442586 -0.0283071 0.177262 124 
0.441639 -0.0281244 0.177786 121 
0.441178 -0.0280367 0.17851 113 
0.440611 -0.0279282 0.179188 115 
0.440421 -0.0278931 0.180023 121 
0.44007 -0.0278268 0.18079 119 
0.439346 -0.0276877 0.181399 116 
0.438784 -0.0275802 0.182074 111 
0.437693 -0.0273695 0.182521 117 
0.437664 -0.0273659 0.183422 122 
0.437001 -0.0272386 0.184049 108 
0.43655 -0.0271528 0.184767 116 
0.436153 -0.0270774 0.185507 108 
0.435915 -0.027033 0.186316 114 
0.434942 -0.0268453 0.186801 111 
0.436176 -0.0270882 0.188261 107 
0.435097 -0.0268798 0.188697 103 
0.435281 -0.0269177 0.189694 97 
0.435149 -0.0268941 0.190551 97 
0.434127 -0.0266968 0.191006 105 
0.43384 -0.0266429 0.191792 118 
0.433814 -0.0266399 0.192696 97 
0.433998 -0.0266779 0.193697 97 
0.434025 -0.0266854 0.194628 86 
0.425604 -0.0207175 -0.204896 8 
0.424009 -0.0204246 -0.203222 7 
0.423471 -0.0203272 -0.202063 11 
0.430786 -0.0216815 -0.204656 10 
0.423793 -0.020391 -0.200419 10 
0.430909 -0.0217084 -0.202888 12 
0.430352 -0.0216077 -0.201714 8 
0.431291 -0.0217833 -0.201244 9 
0.422999 -0.0202523 -0.196463 10 
0.43054 -0.0216486 -0.199074 10 
0.425923 -0.0207971 -0.196032 8 
0.426894 -0.0209787 -0.195582 9 
0.159878 0.0283973 -0.0744471 8 
0.424662 -0.02057 -0.192768 12 
0.426633 -0.0209365 -0.192772 14 
0.428367 -0.0212593 -0.192661 11 
0.432122 -0.0219557 -0.193452 12 
0.431877 -0.0219125 -0.192437 16 
0.430707 -0.0216982 -0.191013 12 
0.428223 -0.0212408 -0.189011 10 
0.431095 -0.0217742 -0.189385 15 
0.427798 -0.0211665 -0.187038 15 
0.430767 -0.0217175 -0.187444 12 
0.428844 -0.021364 -0.185711 15 
0.430031 -0.0215856 -0.185334 19 
0.431225 -0.0218084 -0.184954 16 
0.42854 -0.0213138 -0.182908 16 
0.430899 -0.0217523 -0.183026 16 
0.429793 -0.0215498 -0.181664 16 
0.430678 -0.0217155 -0.181148 17 
0.430237 -0.0216359 -0.180072 20 
0.431123 -0.0218019 -0.179554 22 
0.433923 -0.022322 -0.17983 24 
0.434668 -0.0224618 -0.179244 22 
0.432102 -0.0219891 -0.17729 25 
0.431711 -0.0219188 -0.176241 21 
0.431576 -0.021896 -0.175298 20 
0.430269 -0.0216562 -0.173881 14 
0.434036 -0.0223551 -0.174519 18 
0.433384 -0.0222365 -0.173366 26 
0.433663 -0.0222901 -0.17259 22 
0.431066 -0.0218117 -0.170669 26 
0.4317 -0.0219311 -0.170039 25 
0.433261 -0.022222 -0.169771 29 
0.431897 -0.0219716 -0.168352 26 
0.434027 -0.0223678 -0.1683 22 
0.432352 -0.0220598 -0.166767 26 
0.434175 -0.0223992 -0.166589 26 
0.433889 -0.0223482 -0.165595 26 
0.434531 -0.0224692 -0.164958 28 
0.434193 -0.0224087 -0.163947 29 
0.434475 -0.0224629 -0.163173 33 
0.434706 -0.0225076 -0.162378 29 
0.434008 -0.0223805 -0.161237 26 
0.433982 -0.0223776 -0.160349 29 
0.434729 -0.0225179 -0.159747 28 
0.435272 -0.0226204 -0.159067 32 
0.436024 -0.0227616 -0.158463 31 
0.436101 -0.022778 -0.157611 29 
0.437221 -0.0229874 -0.157136 32 
0.43657 -0.0228689 -0.156022 33 
0.436285 -0.0228181 -0.155042 35 
0.436989 -0.0229504 -0.154415 40 
0.437277 -0.0230058 -0.153638 40 
0.436784 -0.0229166 -0.152588 40 
0.437386 -0.0230299 -0.151921 36 
0.437206 -0.0229986 -0.150983 46 
0.437548 -0.0230639 -0.150225 40 
0.438466 -0.0232359 -0.149664 43 
0.438025 -0.0231563 -0.148637 36 
0.438997 -0.0233384 -0.148091 40 
0.439974 -0.0235213 -0.147544 45 
0.438848 -0.0233149 -0.14629 43 
0.439194 -0.0233809 -0.145531 44 
0.438754 -0.0233014 -0.144511 46 
0.439678 -0.0234745 -0.143941 39 
0.439447 -0.0234338 -0.142992 41 
0.439427 -0.0234321 -0.142113 50 
0.440407 -0.0236155 -0.141556 49 
0.441709 -0.0238587 -0.1411 48 
0.440685 -0.023671 -0.139899 50 
0.440824 -0.0236989 -0.13907 47 
0.44266 -0.024041 -0.138775 50 
0.441581 -0.023843 -0.137563 47 
0.443156 -0.0241368 -0.137179 45 
0.441599 -0.0238503 -0.135824 47 
0.440159 -0.0235855 -0.134512 55 
0.440879 -0.023721 -0.133864 50 
0.442291 -0.0239845 -0.133422 53 
0.442753 -0.0240721 -0.132691 52 
0.442897 -0.0241008 -0.131863 58 
0.442775 -0.0240803 -0.130956 56 
0.442761 -0.0240796 -0.130083 54 
0.442534 -0.0240396 -0.129148 58 
0.442998 -0.0241276 -0.128415 62 
0.443837 -0.0242849 -0.127789 63 
0.443185 -0.0241661 -0.126733 56 
0.443279 -0.0241855 -0.125893 58 
0.443054 -0.0241459 -0.124963 59 
0.443043 -0.0241458 -0.124094 60 
0.442449 -0.0240377 -0.123064 65 
