0.421719,-0.128558,-0.14747,33
0.42074,-0.128124,-0.14624,42
0.420768,-0.128139,-0.145382,38
0.42354,-0.129375,-0.145519,36
0.423375,-0.129304,-0.144586,40
0.42071,-0.12812,-0.142761,40
0.421409,-0.128433,-0.142144,40
0.422207,-0.12879,-0.14156,40
0.422477,-0.128913,-0.140788,37
0.423135,-0.129207,-0.14015,42
0.423262,-0.129266,-0.139326,42
0.422569,-0.12896,-0.13822,44
0.422793,-0.129062,-0.137431,47
0.423114,-0.129207,-0.136675,47
0.423483,-0.129373,-0.135935,48
0.424533,-0.129843,-0.135423,45
0.425637,-0.130336,-0.134925,45
0.423533,-0.129402,-0.133358,51
0.424244,-0.12972,-0.132729,44
0.42598,-0.130496,-0.132434,43
0.424408,-0.129798,-0.131055,41
0.42522,-0.130161,-0.130454,44
0.42667,-0.130809,-0.130055,44
0.426167,-0.130587,-0.129028,48
0.426545,-0.130758,-0.128283,49
0.426679,-0.130819,-0.127459,53
0.427451,-0.131165,-0.126836,53
0.427095,-0.131009,-0.125859,53
0.42674,-0.130853,-0.124885,50
0.427267,-0.13109,-0.124184,49
0.427305,-0.131109,-0.123332,51
0.427343,-0.131128,-0.12248,47
0.428563,-0.131673,-0.121983,50
0.429145,-0.131935,-0.121292,54
0.429531,-0.132109,-0.120541,51
0.42967,-0.132173,-0.119716,47
0.429117,-0.131928,-0.11869,53
0.430397,-0.1325,-0.118197,53
0.429941,-0.1323,-0.117201,59
0.429537,-0.132122,-0.116222,61
0.429876,-0.132275,-0.115456,61
0.431611,-0.133049,-0.11508,55
0.429565,-0.132141,-0.113645,55
0.430055,-0.132361,-0.112919,63
0.430148,-0.132404,-0.112084,59
0.430341,-0.132492,-0.111276,64
0.429791,-0.13225,-0.110266,60
0.429391,-0.132074,-0.109301,56
0.429783,-0.13225,-0.108547,59
0.429977,-0.132339,-0.107741,65
0.42948,-0.13212,-0.106753,63
0.430418,-0.132539,-0.106141,65
0.430316,-0.132496,-0.105257,65
0.430067,-0.132387,-0.104337,63
0.429868,-0.132301,-0.103431,69
0.430115,-0.132413,-0.102639,73
0.430313,-0.132503,-0.101833,78
0.430263,-0.132483,-0.100967,78
0.429474,-0.132134,-0.0999197,91
0.42918,-0.132005,-0.0989967,85
0.429576,-0.132183,-0.0982416,87
0.429775,-0.132274,-0.0974384,96
0.428794,-0.131839,-0.0963556,96
0.428209,-0.131581,-0.0953705,95
0.428605,-0.13176,-0.0946161,92
0.427388,-0.13122,-0.0934891,103
0.427491,-0.131267,-0.0926689,100
0.427789,-0.131402,-0.0918928,97
0.427162,-0.131125,-0.0909088,97
0.426343,-0.130763,-0.0898856,102
0.426109,-0.13066,-0.0889944,104
0.425875,-0.130558,-0.0881049,97
0.425112,-0.13022,-0.0871028,96
0.424497,-0.129948,-0.0861358,99
0.423597,-0.12955,-0.0851118,110
0.423083,-0.129323,-0.0841726,112
0.423094,-0.12933,-0.0833448,111
0.421966,-0.128829,-0.0822839,108
0.422073,-0.128879,-0.0814786,114
0.42199,-0.128844,-0.0806354,115
0.421483,-0.12862,-0.0797086,116
0.420931,-0.128376,-0.0787754,115
0.419726,-0.127842,-0.0777177,119
0.420396,-0.128142,-0.0770267,120
0.419942,-0.127942,-0.0761192,123
0.41921,-0.127618,-0.0751616,117
0.418714,-0.127399,-0.0742513,122
0.418313,-0.127222,-0.073361,123
0.417821,-0.127005,-0.0724561,127
0.417561,-0.126891,-0.0715955,126
0.417117,-0.126696,-0.0707037,129
0.41755,-0.12689,-0.0699685,129
0.416235,-0.126307,-0.0689276,133
0.416163,-0.126276,-0.0681062,133
0.415816,-0.126124,-0.067239,136
0.415425,-0.125952,-0.066366,126
0.416452,-0.126411,-0.0657302,136
0.415421,-0.125954,-0.0647535,134
0.415625,-0.126047,-0.063981,140
0.415647,-0.126059,-0.0631791,139
0.415806,-0.126132,-0.062399,142
0.415555,-0.126022,-0.0615548,139
0.415853,-0.126156,-0.0607961,138
0.415694,-0.126087,-0.0599674,136
0.415718,-0.1261,-0.0591671,140
0.416245,-0.126337,-0.0584412,141
0.416179,-0.12631,-0.0576271,147
0.416113,-0.126282,-0.0568137,138
0.41614,-0.126296,-0.0560139,135
0.416075,-0.126269,-0.0552015,140
0.416239,-0.126344,-0.0544212,141
0.415947,-0.126216,-0.0535788,140
0.416341,-0.126393,-0.0528292,141
0.41573,-0.126123,-0.0519467,149
0.416307,-0.126382,-0.0512201,153
0.416519,-0.126479,-0.0504452,152
0.417191,-0.12678,-0.049727,157
0.417222,-0.126796,-0.0489276,160
0.417851,-0.127078,-0.0482007,158
0.417836,-0.127074,-0.047395,162
0.417271,-0.126824,-0.0465253,164
0.417533,-0.126943,-0.0457531,159
0.418118,-0.127206,-0.0450165,161
0.41829,-0.127284,-0.044232,166
0.417772,-0.127055,-0.043372,170
0.418175,-0.127237,-0.0426126,164
0.418487,-0.127378,-0.0418423,165
0.41843,-0.127354,-0.0410332,165
0.418558,-0.127414,-0.0402431,166
0.418457,-0.12737,-0.0394301,161
0.418817,-0.127533,-0.0386622,167
0.419179,-0.127696,-0.0378932,167
0.419171,-0.127694,-0.0370888,168
0.419024,-0.127631,-0.0362721,165
0.419573,-0.127878,-0.0355176,168
0.420264,-0.128188,-0.0347733,174
0.420584,-0.128332,-0.0339951,171
0.420252,-0.128186,-0.0331623,172
0.420294,-0.128207,-0.0323609,178
0.420662,-0.128373,-0.0315851,175
0.420845,-0.128456,-0.0307937,176
0.421121,-0.128582,-0.0300088,179
0.421071,-0.128562,-0.0291994,177
0.420789,-0.128438,-0.0283741,179
0.42102,-0.128543,-0.027585,176
0.420879,-0.128482,-0.0267705,171
0.421205,-0.128629,-0.0259866,173
0.421813,-0.128902,-0.025219,178
0.422095,-0.12903,-0.0244295,180
0.422189,-0.129074,-0.0236282,174
0.423463,-0.129643,-0.0228924,176
0.423606,-0.129709,-0.0220908,178
0.423466,-0.129649,-0.0212741,179
0.4238,-0.1298,-0.0204816,185
0.42352,-0.129677,-0.0196585,181
0.424662,-0.130188,-0.0189017,179
0.423764,-0.12979,-0.0180513,184
0.424433,-0.13009,-0.0172698,186
0.424438,-0.130095,-0.0164595,186
0.423875,-0.129845,-0.0156278,183
0.424214,-0.129998,-0.0148306,181
0.424221,-0.130003,-0.0140209,183
0.424513,-0.130136,-0.0132203,183
0.424854,-0.13029,-0.01242,182
0.425482,-0.130572,-0.0116262,183
0.426161,-0.130877,-0.0108312,185
0.426219,-0.130904,-0.010019,186
0.426229,-0.130911,-0.00920563,185
0.426336,-0.130961,-0.00839411,187
0.426587,-0.131075,-0.00758469,185
0.4266,-0.131082,-0.00677063,185
0.426852,-0.131197,-0.00595974,186
0.426577,-0.131076,-0.00514193,189
0.427216,-0.131363,-0.00433364,190
0.428826,-0.132083,-0.00352972,192
0.42889,-0.132113,-0.00271135,192
0.428566,-0.131971,-0.00189154,191
0.428679,-0.132023,-0.0010735,186
0.428841,-0.132098,-0.000254955,189
0.429004,-0.132173,0.000564261,190
0.42985,-0.132552,0.00138757,183
0.431387,-0.133239,0.00221918,186
0.431455,-0.133272,0.00304375,187
0.429274,-0.132301,0.00384369,184
0.42944,-0.132377,0.0046656,187
0.429607,-0.132454,0.00548824,186
0.42997,-0.132617,0.00631495,184
0.43102,-0.133088,0.00715637,180
0.431092,-0.133122,0.00798135,183
0.431459,-0.133288,0.00881355,179
0.431336,-0.133235,0.00963489,181
0.431754,-0.133423,0.0104706,182
0.43173,-0.133415,0.0112951,177
0.432051,-0.13356,0.0121304,185
0.432028,-0.133552,0.0129556,180
0.432055,-0.133566,0.0137826,179
0.432726,-0.133867,0.0146338,181
0.433399,-0.134169,0.015488,178
0.432239,-0.133654,0.0162689,178
0.432466,-0.133757,0.0171056,181
0.433189,-0.134082,0.017966,184
0.433071,-0.134031,0.0187894,179
0.433749,-0.134336,0.0196518,180
0.434329,-0.134596,0.0205122,181
0.434062,-0.13448,0.0213295,181
0.434046,-0.134474,0.0221599,184
0.43378,-0.134358,0.022976,183
0.433914,-0.13442,0.0238149,186
0.433999,-0.13446,0.0246516,184
0.432842,-0.133945,0.0254094,183
0.433424,-0.134207,0.0262773,189
0.434108,-0.134514,0.0271546,189
0.433249,-0.134133,0.027927,192
0.432741,-0.133909,0.0287213,192
0.43263,-0.133861,0.0295432,196
0.432521,-0.133814,0.0303648,193
0.432164,-0.133657,0.0311669,197
0.432204,-0.133677,0.0319995,198
0.432145,-0.133653,0.0328244,194
0.432186,-0.133674,0.0336576,194
0.432178,-0.133672,0.0344869,192
0.431875,-0.133539,0.0352904,199
0.43167,-0.133449,0.0361018,197
0.431615,-0.133427,0.0369263,199
0.431511,-0.133382,0.0377462,199
0.431654,-0.133448,0.0385898,201
0.431403,-0.133338,0.0393953,199
0.430759,-0.133053,0.0401607,200
0.431297,-0.133295,0.0410448,197
0.429919,-0.132682,0.041731,200
0.431045,-0.133187,0.0426788,199
0.429426,-0.132466,0.0433332,198
0.428304,-0.131968,0.0440364,197
0.427915,-0.131796,0.0448177,197
0.428255,-0.13195,0.0456814,195
0.428158,-0.131909,0.0464957,197
0.428159,-0.131911,0.0473215,199
0.428209,-0.131935,0.0481536,195
0.427871,-0.131787,0.0489385,189
0.427099,-0.131444,0.049668,188
0.42633,-0.131103,0.0503951,192
0.425804,-0.130871,0.0511508,193
0.425472,-0.130725,0.0519299,188
0.425046,-0.130536,0.0526954,186
0.424477,-0.130284,0.0534403,189
0.424816,-0.130438,0.0543078,192
0.424488,-0.130293,0.0550839,186
0.424924,-0.13049,0.0559672,192
0.424931,-0.130495,0.0567909,191
0.423793,-0.129989,0.0574486,185
0.424039,-0.130101,0.058306,187
0.423999,-0.130085,0.0591221,185
0.423485,-0.129858,0.0598663,188
0.423209,-0.129737,0.0606455,192
0.423932,-0.130061,0.0615794,189
0.42485,-0.130473,0.0625474,190
0.424908,-0.130501,0.0633823,184
0.423488,-0.129869,0.0639783,187
0.424024,-0.130111,0.0648895,186
0.42504,-0.130566,0.0658832,188
0.423477,-0.129871,0.0664478,187
0.424253,-0.130219,0.0674044,184
0.4236,-0.129929,0.0681183,187
0.424377,-0.130279,0.0690794,186
0.423962,-0.130095,0.0698338,184
0.424312,-0.130254,0.0707233,185
0.424615,-0.130391,0.0716063,184
0.424392,-0.130294,0.0723949,182
0.424601,-0.130389,0.0732627,183
0.424092,-0.130164,0.0739978,172
0.424015,-0.130131,0.0748127,179
0.424512,-0.130355,0.0757373,177
0.425106,-0.130623,0.0766833,178
0.424982,-0.130569,0.0774919,176
0.425435,-0.130773,0.0784143,174
0.425552,-0.130828,0.0792721,181
0.425429,-0.130775,0.0800825,175
0.425499,-0.130808,0.0809321,176
0.425522,-0.13082,0.0817727,176
0.425931,-0.131005,0.0826941,180
0.425616,-0.130867,0.083466,175
0.426123,-0.131095,0.084411,179
0.425858,-0.130979,0.0851934,178
0.425834,-0.13097,0.0860275,176
0.42615,-0.131113,0.0869359,176
0.426418,-0.131235,0.0878356,180
0.426979,-0.131488,0.088802,171
0.42725,-0.131611,0.0897062,171
0.427864,-0.131887,0.0906895,177
0.427941,-0.131923,0.0915536,178
0.427775,-0.131851,0.0923622,175
0.427267,-0.131627,0.0930913,174
0.428177,-0.132035,0.0941515,180
0.428797,-0.132314,0.0951473,175
0.428632,-0.132242,0.0959587,175
0.428614,-0.132237,0.0968057,175
0.428893,-0.132363,0.0977249,174
0.42932,-0.132556,0.0986824,170
0.429551,-0.132661,0.0995937,174
0.429437,-0.132612,0.100421,176
0.429521,-0.132652,0.101297,175
0.429754,-0.132758,0.102213,172
0.430037,-0.132887,0.103142,170
0.430222,-0.132972,0.104049,165
0.430408,-0.133057,0.104956,168
0.430148,-0.132943,0.105749,175
0.431331,-0.133473,0.106922,166
0.431769,-0.133671,0.107902,170
0.431609,-0.133601,0.108724,166
0.4323,-0.133912,0.109776,169
0.432592,-0.134045,0.110724,172
0.433137,-0.13429,0.111742,170
0.432876,-0.134176,0.11254,166
0.433423,-0.134423,0.113563,164
0.433517,-0.134467,0.114462,161
0.433359,-0.134398,0.11529,159
0.434416,-0.134873,0.116466,154
0.434004,-0.134691,0.117223,159
0.434965,-0.135122,0.118378,159
0.435317,-0.135282,0.119359,162
0.434956,-0.135122,0.120133,153
0.434494,-0.134918,0.120876,155
0.435665,-0.135443,0.122105,160
0.435816,-0.135513,0.123033,161
0.435814,-0.135514,0.123917,159
0.436017,-0.135607,0.124863,157
0.436119,-0.135655,0.12578,153
0.436118,-0.135657,0.126666,152
0.435913,-0.135567,0.127489,147
0.435554,-0.135409,0.128264,156
0.435811,-0.135526,0.129233,153
0.435863,-0.135552,0.130138,153
0.435352,-0.135325,0.130864,150
0.434893,-0.135123,0.131605,157
0.434589,-0.134989,0.132395,156
0.435513,-0.135404,0.133585,159
0.434594,-0.134996,0.134175,154
0.434394,-0.134908,0.134998,156
0.434295,-0.134867,0.135856,154
0.433739,-0.13462,0.136561,153
0.432626,-0.134125,0.137076,158
0.432985,-0.134288,0.138087,158
0.432079,-0.133885,0.138667,154
0.431428,-0.133596,0.139333,152
0.43093,-0.133376,0.140049,154
0.430785,-0.133313,0.140886,155
0.430389,-0.133139,0.141636,152
0.430446,-0.133166,0.142544,149
0.429951,-0.132947,0.143258,141
0.430611,-0.133244,0.144382,137
0.430216,-0.13307,0.145132,130
0.430626,-0.133256,0.14617,132
0.430534,-0.133217,0.147029,129
0.430091,-0.133021,0.14776,121
0.431208,-0.133522,0.149064,111
0.430411,-0.133169,0.149665,117
0.430724,-0.13331,0.150677,114
0.43013,-0.133047,0.151351,109
0.42989,-0.132942,0.152156,107
0.430353,-0.133152,0.153228,109
0.430063,-0.133024,0.154016,107
0.430276,-0.133122,0.154996,115
0.429987,-0.132994,0.155783,116
0.429899,-0.132957,0.156649,124
0.430567,-0.133258,0.157809,120
0.431391,-0.133628,0.159034,118
0.430393,-0.133185,0.159546,123
0.430761,-0.133351,0.160596,124
0.430826,-0.133383,0.161527,122
0.43145,-0.133664,0.162683,126
0.431314,-0.133605,0.163537,124
0.431076,-0.133501,0.164349,122
0.431856,-0.133852,0.165576,126
0.432077,-0.133953,0.166578,127
0.432299,-0.134055,0.167583,123
0.432777,-0.134271,0.168695,119
0.432233,-0.13403,0.169385,120
0.432354,-0.134086,0.170352,124
0.432425,-0.13412,0.171299,118
0.432086,-0.133971,0.172074,110
0.432875,-0.134326,0.173327,114
0.432998,-0.134383,0.1743,116
0.433431,-0.134579,0.175408,112
0.43371,-0.134706,0.176453,116
0.433474,-0.134603,0.177276,112
0.433651,-0.134684,0.178278,114
0.43414,-0.134905,0.179419,116
0.432564,-0.134203,0.179654,115
0.432895,-0.134353,0.180727,109
0.433125,-0.134458,0.181757,119
0.43248,-0.134172,0.182397,121
0.433225,-0.134507,0.183661,119
0.432837,-0.134336,0.184417,109
0.433689,-0.134719,0.185735,110
0.432681,-0.134271,0.186209,106
0.433948,-0.13484,0.187723,108
0.432733,-0.134299,0.188099,106
0.432089,-0.134013,0.188736,111
0.43227,-0.134097,0.189754,110
0.432503,-0.134203,0.190799,108
0.432531,-0.134218,0.191748,110
0.431991,-0.133979,0.192431,119
0.431402,-0.133718,0.193089,118
0.430916,-0.133503,0.193795,115
0.430432,-0.133289,0.1945,114
0.430102,-0.133144,0.195278,109
0.429722,-0.132976,0.196031,109
0.430108,-0.133151,0.197156,121
0.42983,-0.133029,0.197959,129
0.429706,-0.132976,0.198838,107
0.428666,-0.132513,0.199264,113
0.427782,-0.13212,0.199765,116
0.415167,-0.121806,-0.204623,9
0.415746,-0.12206,-0.204013,10
0.419939,-0.123888,-0.20526,10
0.419656,-0.123766,-0.204196,9
0.421516,-0.124578,-0.204227,8
0.420937,-0.124329,-0.203012,10
0.417511,-0.122839,-0.200363,14
0.419592,-0.123748,-0.200501,10
0.422725,-0.125114,-0.201156,11
0.417828,-0.122984,-0.197796,12
0.416167,-0.122263,-0.196065,11
0.420213,-0.124027,-0.197159,12
0.419448,-0.123696,-0.195873,10
0.417106,-0.122679,-0.193819,12
0.417739,-0.122957,-0.193225,11
0.910075,-0.337304,-0.43217,11
0.423983,-0.12568,-0.194433,8
0.420812,-0.124301,-0.191994,13
0.421651,-0.124669,-0.191488,12
0.423622,-0.125529,-0.191518,12
0.43141,-0.128922,-0.194294,12
0.422127,-0.124882,-0.188991,11
0.422383,-0.124997,-0.188204,10
0.42186,-0.124771,-0.187054,15
0.425312,-0.126276,-0.187753,13
0.424682,-0.126004,-0.18655,12
0.427079,-0.12705,-0.186744,15
0.424758,-0.126042,-0.184768,12
0.42227,-0.124961,-0.182728,17
0.421216,-0.124504,-0.181349,16
0.424603,-0.125981,-0.181979,17
0.421878,-0.124796,-0.179851,15
0.419575,-0.123796,-0.177926,18
0.420747,-0.124309,-0.177555,17
0.421393,-0.124592,-0.176946,16
0.423014,-0.1253,-0.176765,19
0.419356,-0.123709,-0.174268,16
0.420382,-0.124158,-0.173827,17
0.417724,-0.123003,-0.171786,22
0.418646,-0.123407,-0.171301,24
0.417477,-0.1229,-0.169916,23
0.417213,-0.122787,-0.168922,24
0.417801,-0.123045,-0.168293,27
0.419392,-0.12374,-0.168084,22
0.418221,-0.123232,-0.16671,24
0.418669,-0.12343,-0.166019,27
0.418452,-0.123337,-0.165049,24
0.41914,-0.123639,-0.164455,22
0.419161,-0.12365,-0.163585,26
0.418707,-0.123455,-0.162521,27
0.419634,-0.123861,-0.162022,22
0.417142,-0.122777,-0.160137,27
0.420587,-0.12428,-0.160651,25
0.420131,-0.124084,-0.15959,28
0.418867,-0.123535,-0.158211,32
0.420369,-0.124192,-0.157932,31
0.420058,-0.124058,-0.156934,26
0.419891,-0.123988,-0.155995,25
0.421688,-0.124773,-0.155821,28
0.420465,-0.124242,-0.154472,24
0.421064,-0.124505,-0.15383,31
0.421762,-0.124811,-0.153223,30
0.420588,-0.124302,-0.151903,34
0.421668,-0.124775,-0.15144,37
0.421646,-0.124767,-0.15056,35
0.421337,-0.124635,-0.149572,35
0.421747,-0.124816,-0.148855,32
0.422207,-0.125018,-0.148154,34
0.421946,-0.124907,-0.147187,36
0.42135,-0.124649,-0.1461,41
0.423158,-0.125439,-0.145889,37
0.422126,-0.124991,-0.144646,39
0.422684,-0.125237,-0.143979,40
0.422954,-0.125356,-0.143207,37
0.422357,-0.125098,-0.142127,40
0.42282,-0.125302,-0.141424,44
0.423187,-0.125464,-0.140686,39
0.423749,-0.125711,-0.140015,46
0.424555,-0.126065,-0.139427,48
0.424295,-0.125953,-0.138469,45
0.425006,-0.126265,-0.137845,49
0.425817,-0.126621,-0.137253,43
0.424341,-0.12598,-0.135886,46
0.428139,-0.127637,-0.136294,46
0.425865,-0.126648,-0.134664,47
0.425752,-0.126601,-0.13376,42
0.427057,-0.127172,-0.133323,42
0.426551,-0.126954,-0.13229,46
0.425609,-0.126545,-0.131118,44
0.42618,-0.126796,-0.130438,43
0.427537,-0.12739,-0.130008,48
0.427523,-0.127386,-0.129137,45
0.426628,-0.126998,-0.127989,50
0.428777,-0.127937,-0.127799,50
0.42911,-0.128084,-0.127036,47
0.428258,-0.127715,-0.125905,47
0.427411,-0.127348,-0.12478,50
0.42853,-0.127837,-0.124259,47
0.428667,-0.127899,-0.123436,47
0.428705,-0.127918,-0.122584,50
0.428892,-0.128001,-0.121776,49
0.430168,-0.12856,-0.121292,45
0.429613,-0.12832,-0.120263,49
0.430198,-0.128577,-0.119571,52
0.430587,-0.128749,-0.11882,47
0.430926,-0.128899,-0.118053,47
0.43052,-0.128724,-0.117073,52
0.431208,-0.129026,-0.116406,60
0.430753,-0.12883,-0.115414,58
0.431044,-0.128959,-0.114633,58
0.430391,-0.128676,-0.11359,57
0.431081,-0.128979,-0.112919,51
0.431623,-0.129217,-0.112206,52
0.430722,-0.128827,-0.1111,58
0.429826,-0.128438,-0.11,58
0.430911,-0.128914,-0.109433,54
0.430511,-0.128741,-0.108468,60
0.431003,-0.128958,-0.107741,60
0.430554,-0.128764,-0.106766,63
0.430601,-0.128787,-0.105922,64
0.430253,-0.128637,-0.104977,72
0.430697,-0.128833,-0.104236,70
0.431689,-0.129267,-0.103632,76
0.43129,-0.129096,-0.102676,76
0.430646,-0.128817,-0.101661,77
0.429708,-0.12841,-0.100577,83
0.430153,-0.128606,-0.0998353,85
0.42971,-0.128415,-0.0988774,90
0.429614,-0.128375,-0.0980048,97
0.429272,-0.128228,-0.0970749,99
0.428932,-0.128082,-0.0961472,92
0.42923,-0.128214,-0.0953705,96
0.428401,-0.127855,-0.0943322,100
0.428406,-0.127859,-0.0934891,101
0.427971,-0.127672,-0.0925467,104
0.42749,-0.127464,-0.091596,108
0.427399,-0.127426,-0.0907349,112
0.426872,-0.127199,-0.0897783,106
0.426299,-0.126951,-0.0888141,114
0.425583,-0.126641,-0.087822,112
0.425447,-0.126583,-0.0869578,115
0.424784,-0.126296,-0.0859825,109
0.424267,-0.126073,-0.0850412,106
0.424229,-0.126059,-0.0842025,109
0.423239,-0.125629,-0.0831677,109
0.423108,-0.125574,-0.082313,113
0.423072,-0.12556,-0.0814786,111
0.421806,-0.12501,-0.0803985,110
0.421254,-0.124771,-0.0794654,116
0.421079,-0.124697,-0.0786091,117
0.420249,-0.124337,-0.0776268,123
0.41989,-0.124182,-0.0767387,121
0.419718,-0.124109,-0.0758881,127
0.419314,-0.123935,-0.0749951,131
0.418819,-0.123721,-0.0740871,132
0.418881,-0.123751,-0.0732841,129
0.418759,-0.123699,-0.0724476,130
0.418035,-0.123386,-0.0715041,125
0.418284,-0.123496,-0.0707366,127
0.41784,-0.123305,-0.0698468,121
0.418044,-0.123395,-0.0690715,129
0.417142,-0.123004,-0.0681062,134
0.416656,-0.122794,-0.0672157,134
0.416173,-0.122585,-0.0663278,134
0.417018,-0.122956,-0.0656618,137
0.415986,-0.122508,-0.0646863,139
0.415962,-0.122499,-0.0638779,135
0.41603,-0.122531,-0.0630844,136
0.415961,-0.122503,-0.0622697,138
0.415619,-0.122356,-0.0614132,139
0.415552,-0.122328,-0.0606004,141
0.415758,-0.12242,-0.0598295,143
0.41633,-0.122672,-0.0591126,141
0.415989,-0.122525,-0.0582597,145
0.4167,-0.122837,-0.0575607,149
0.416314,-0.122671,-0.0567026,143
0.41689,-0.122924,-0.0559816,144
0.41655,-0.122778,-0.0551317,142
0.416395,-0.122712,-0.0543086,144
0.416422,-0.122726,-0.0535111,139
0.416771,-0.12288,-0.0527563,141
0.417809,-0.123335,-0.0520904,145
0.416829,-0.122909,-0.0511612,148
0.417408,-0.123164,-0.0504336,150
0.417347,-0.123139,-0.049624,153
0.417377,-0.123154,-0.0488263,155
0.417546,-0.12323,-0.0480454,159
0.41767,-0.123286,-0.0472586,158
0.418254,-0.123543,-0.0465253,160
0.418333,-0.123579,-0.045732,159
0.418689,-0.123736,-0.0449698,164
0.419277,-0.123995,-0.044232,163
0.418111,-0.123488,-0.0433022,166
0.418838,-0.123807,-0.0425783,167
0.419011,-0.123885,-0.0417941,167
0.41914,-0.123943,-0.0410048,167
0.419639,-0.124163,-0.0402524,172
0.419629,-0.124161,-0.0394482,171
0.419528,-0.124118,-0.0386355,166
0.419473,-0.124096,-0.0378278,166
0.419558,-0.124135,-0.0370333,168
0.419735,-0.124215,-0.0362471,169
0.419682,-0.124193,-0.03544,171
0.419815,-0.124253,-0.0346493,173
0.420134,-0.124394,-0.0338739,170
0.420175,-0.124414,-0.0330746,172
0.420495,-0.124556,-0.0322976,173
0.42119,-0.124861,-0.0315487,174
0.421606,-0.125045,-0.030776,174
0.420763,-0.124679,-0.0299088,175
0.421039,-0.124801,-0.0291256,181
0.421177,-0.124863,-0.0283317,182
0.421642,-0.125069,-0.0275596,180
0.422062,-0.125254,-0.0267828,183
0.422155,-0.125296,-0.0259837,178
0.42253,-0.125462,-0.0252016,178
0.42253,-0.125464,-0.0243959,179
0.422202,-0.125323,-0.0235713,177
0.423003,-0.125674,-0.022811,176
0.42291,-0.125636,-0.0219997,174
0.422912,-0.125639,-0.0211937,181
0.424285,-0.12624,-0.0204557,175
0.424383,-0.126284,-0.0196518,178
0.424387,-0.126288,-0.0188432,178
0.424249,-0.12623,-0.0180286,179
0.424633,-0.1264,-0.0172363,182
0.424876,-0.126508,-0.016437,182
0.42531,-0.126699,-0.0156439,180
0.425126,-0.126621,-0.0148272,185
0.42561,-0.126834,-0.0140336,185
0.425046,-0.12659,-0.0132054,180
0.425197,-0.126658,-0.0124004,178
0.426974,-0.127436,-0.0116393,186
0.426121,-0.127065,-0.0108045,185
0.426754,-0.127343,-0.0100078,185
0.426764,-0.12735,-0.00919543,188
0.426967,-0.12744,-0.00838671,187
0.427027,-0.127468,-0.00757475,186
0.427327,-0.127602,-0.00676624,183
0.427388,-0.12763,-0.00595339,187
0.427497,-0.12768,-0.00514085,186
0.427752,-0.127793,-0.00432922,188
0.429218,-0.128435,-0.00352521,192
0.428748,-0.128232,-0.0027054,187
0.4292,-0.128431,-0.00189034,187
0.42878,-0.12825,-0.00107251,186
0.42933,-0.128492,-0.000255462,186
0.429688,-0.12865,0.00056325,179
0.429706,-0.12866,0.00138173,185
0.430017,-0.128798,0.00220235,180
0.431947,-0.129642,0.00303886,182
0.430446,-0.128989,0.00384531,182
0.430711,-0.129107,0.0046688,180
0.431075,-0.129268,0.00549488,183
0.431243,-0.129343,0.00631915,186
0.431609,-0.129505,0.00714791,183
0.432519,-0.129904,0.00798969,183
0.432641,-0.12996,0.00881698,182
0.432517,-0.129908,0.00963862,185
0.43264,-0.129964,0.0104666,184
0.432419,-0.129869,0.011285,182
0.432592,-0.129947,0.012115,182
0.432668,-0.129982,0.0129424,182
0.434882,-0.13095,0.0138458,181
0.432921,-0.130096,0.0146024,180
0.43424,-0.130674,0.0154801,178
0.433672,-0.130428,0.0162853,184
0.4339,-0.13053,0.0171229,181
0.433831,-0.130502,0.0179479,180
0.434459,-0.130778,0.0188059,182
0.435441,-0.131209,0.019684,187
0.435072,-0.13105,0.0204967,190
0.433858,-0.130522,0.0212628,185
0.434339,-0.130734,0.0221183,186
0.433676,-0.130446,0.02291,191
0.434059,-0.130616,0.0237615,191
0.434393,-0.130763,0.0246116,194
0.43403,-0.130607,0.0254189,192
0.434365,-0.130755,0.0262708,191
0.433506,-0.130382,0.0270433,196
0.433692,-0.130465,0.0278854,194
0.433481,-0.130376,0.0286999,195
0.433321,-0.130308,0.0295175,194
0.433906,-0.130565,0.0303912,196
0.433598,-0.130433,0.0311978,202
0.433042,-0.130192,0.0319836,200
0.432934,-0.130147,0.0328041,192
0.432381,-0.129907,0.033587,195
0.432324,-0.129884,0.0344104,202
0.432218,-0.12984,0.0352295,194
0.43226,-0.129861,0.0360617,196
0.43181,-0.129666,0.036849,187
0.430821,-0.129236,0.0375841,197
0.43013,-0.128936,0.038344,195
0.430909,-0.129279,0.0392455,196
0.430121,-0.128936,0.0399936,197
0.429971,-0.128873,0.0408038,199
0.429285,-0.128575,0.0415578,197
0.428893,-0.128406,0.0423405,195
0.429378,-0.12862,0.0432168,195
0.429571,-0.128707,0.0440632,202
0.429278,-0.12858,0.044856,194
0.429132,-0.128519,0.0456646,194
0.429229,-0.128563,0.0465014,195
0.429084,-0.128502,0.04731,195
0.427823,-0.127953,0.047984,194
0.427197,-0.127681,0.0487308,192
0.427392,-0.127769,0.0495776,190
0.426527,-0.127393,0.0502914,192
0.428367,-0.128199,0.0513498,189
0.426438,-0.127358,0.0519236,191
0.426154,-0.127236,0.0527081,193
0.426014,-0.127177,0.0535113,190
0.425732,-0.127056,0.0542947,190
0.425786,-0.127081,0.0551238,190
0.425361,-0.126897,0.0558861,196
0.425655,-0.127028,0.0567498,196
0.42547,-0.126949,0.0575456,194
0.424046,-0.126329,0.0581588,191
0.424531,-0.126543,0.0590509,188
0.424492,-0.126528,0.0598663,189
0.425313,-0.126889,0.0608137,190
0.42494,-0.126728,0.0615794,187
0.425046,-0.126776,0.0624193,185
0.424198,-0.126408,0.0631079,193
0.424304,-0.126456,0.0639475,189
0.423697,-0.126193,0.0646713,185
0.424376,-0.126491,0.0656058,185
0.424341,-0.126478,0.0664238,190
0.424689,-0.126632,0.067307,185
0.425613,-0.127038,0.0682909,179
0.425387,-0.126942,0.0690794,183
0.425594,-0.127034,0.0699434,186
0.424126,-0.126395,0.0705107,185
0.424142,-0.126403,0.0713394,179
0.424158,-0.126413,0.0721686,180
0.42494,-0.126756,0.0731391,179
0.424383,-0.126515,0.0738642,179
0.425167,-0.12686,0.0748397,178
0.425138,-0.126849,0.0756642,178
0.425205,-0.12688,0.0765075,177
0.425417,-0.126975,0.0773797,178
0.425629,-0.12707,0.0782533,181
0.425795,-0.127144,0.0791188,178
0.425864,-0.127176,0.0799663,178
0.425886,-0.127188,0.0808049,181
0.426246,-0.127347,0.0817133,179
0.426076,-0.127275,0.082514,187
0.426051,-0.127266,0.0833448,181
0.425592,-0.127068,0.0840846,180
0.426631,-0.127524,0.0851418,177
0.425738,-0.127136,0.0857882,178
0.426536,-0.127487,0.0867989,178
0.426465,-0.127458,0.0876228,174
0.426783,-0.127599,0.0885328,177
0.426761,-0.127591,0.0893689,179
0.426983,-0.12769,0.0902602,176
0.427108,-0.127747,0.0911311,179
0.427234,-0.127804,0.0920032,174
0.427409,-0.127883,0.0928877,175
0.427293,-0.127834,0.0937052,174
0.427713,-0.12802,0.0946495,174
0.428674,-0.128442,0.0957246,178
0.428509,-0.128372,0.0965342,174
0.427954,-0.128131,0.0972488,174
0.428035,-0.128169,0.0981173,170
0.428902,-0.12855,0.0991802,171
0.429625,-0.128868,0.100212,175
0.429956,-0.129015,0.101148,170
0.429941,-0.129011,0.102,172
0.429878,-0.128985,0.102839,168
0.43031,-0.129176,0.103806,171
0.430595,-0.129303,0.104737,169
0.430533,-0.129278,0.10558,171
0.430918,-0.129448,0.106541,166
0.431455,-0.129685,0.107543,170
0.431344,-0.129639,0.108376,169
0.431883,-0.129877,0.109384,164
0.431724,-0.129809,0.110205,168
0.432666,-0.130223,0.111328,161
0.433463,-0.130574,0.112415,159
0.433052,-0.130396,0.11317,158
0.433649,-0.130659,0.114207,163
0.434401,-0.13099,0.11529,162
0.434344,-0.130968,0.116147,163
0.435151,-0.131323,0.117253,159
0.434535,-0.131056,0.117951,154
0.435293,-0.131389,0.119047,160
0.435646,-0.131546,0.120028,157
0.435796,-0.131613,0.120952,158
0.435741,-0.131592,0.121816,150
0.435534,-0.131503,0.122634,155
0.435379,-0.131437,0.123469,160
0.435581,-0.131528,0.124411,164
0.435989,-0.131709,0.125418,163
0.436142,-0.131778,0.126349,157
0.435885,-0.131668,0.127155,150
0.43568,-0.13158,0.127976,155
0.435476,-0.131493,0.128797,150
0.434711,-0.13116,0.12944,154
0.435273,-0.131409,0.130504,154
0.434509,-0.131077,0.131146,155
0.434817,-0.131214,0.132131,153
0.434769,-0.131194,0.133002,152
0.43416,-0.13093,0.13369,155
0.434622,-0.131135,0.134729,156
0.433505,-0.130648,0.135247,153
0.433611,-0.130697,0.13617,151
0.433209,-0.130523,0.136922,155
0.432201,-0.130085,0.13747,153
0.432155,-0.130067,0.13834,151
0.431807,-0.129917,0.139108,157
0.431208,-0.129657,0.139788,154
0.430963,-0.129552,0.14059,154
0.431673,-0.129865,0.141724,150
0.43168,-0.12987,0.142615,147
0.43058,-0.129391,0.143116,148
0.430436,-0.12933,0.143953,145
0.430594,-0.129401,0.144898,138
0.431407,-0.129759,0.14608,139
0.43051,-0.129369,0.146647,133
0.43077,-0.129485,0.147632,131
0.430076,-0.129183,0.14827,117
0.431394,-0.129762,0.149647,111
0.430597,-0.129416,0.150247,107
0.431414,-0.129775,0.151445,108
0.431526,-0.129827,0.152384,108
0.430126,-0.129216,0.152753,109
0.430893,-0.129554,0.153939,111
0.430804,-0.129517,0.154803,115
0.430564,-0.129414,0.155609,118
0.430425,-0.129356,0.156454,117
0.430892,-0.129563,0.157534,124
0.430906,-0.129571,0.158441,120
0.431071,-0.129645,0.159407,125
0.431491,-0.129831,0.160476,123
0.430797,-0.12953,0.161105,124
0.431876,-0.130004,0.16244,126
0.430979,-0.129614,0.162986,130
0.431451,-0.129822,0.164083,132
0.431924,-0.130032,0.165183,125
0.432502,-0.130287,0.166328,130
0.432213,-0.130163,0.167121,122
0.432844,-0.130441,0.168293,116
0.432045,-0.130094,0.168876,118
0.43283,-0.13044,0.170117,121
0.433311,-0.130652,0.171234,117
0.432613,-0.130349,0.171858,117
0.433196,-0.130607,0.173022,111
0.433217,-0.130618,0.17395,114
0.43257,-0.130337,0.174593,119
0.433053,-0.130551,0.17572,119
0.433331,-0.130675,0.176762,110
0.433148,-0.130597,0.177605,107
0.432759,-0.130429,0.178359,116
0.432576,-0.130351,0.179202,120
0.433473,-0.130746,0.180522,110
0.43257,-0.130353,0.181048,115
0.432439,-0.130298,0.181915,114
0.432977,-0.130536,0.183083,124
0.43295,-0.130526,0.183999,117
0.432872,-0.130494,0.184892,114
0.432023,-0.130125,0.185436,112
0.43251,-0.13034,0.186588,111
0.432073,-0.130151,0.187318,104
0.432459,-0.130322,0.188427,110
0.432845,-0.130494,0.189539,112
0.4321,-0.13017,0.190125,112
0.432538,-0.130364,0.191264,108
0.431281,-0.129816,0.191608,107
0.430949,-0.129673,0.192385,115
0.431695,-0.130002,0.193673,116
0.4308,-0.129612,0.194182,104
0.429857,-0.129202,0.194665,104
0.42963,-0.129105,0.195489,106
0.429709,-0.129142,0.196462,115
0.42984,-0.129201,0.197461,128
0.429257,-0.128949,0.198113,109
0.430255,-0.129388,0.19954,114
0.42901,-0.128845,0.199866,110
0.415635,-0.118339,-0.204377,12
0.413329,-0.117359,-0.202282,11
0.416319,-0.118634,-0.202911,8
0.418918,-0.119744,-0.203329,12
0.417628,-0.119196,-0.201761,9
0.414593,-0.117906,-0.199317,7
0.416691,-0.118802,-0.199471,11
0.418713,-0.119665,-0.199579,8
0.418867,-0.119733,-0.198747,12
0.423358,-0.121649,-0.20007,14
0.424503,-0.122139,-0.199718,12
0.424265,-0.12204,-0.198681,13
0.418093,-0.119413,-0.194739,13
0.420951,-0.120632,-0.19523,13
0.420235,-0.120329,-0.193973,15
0.419763,-0.120131,-0.192839,12
0.421959,-0.121068,-0.192991,13
0.420077,-0.120269,-0.191182,10
0.421836,-0.12102,-0.191116,16
0.424546,-0.122177,-0.191494,16
0.4252,-0.122458,-0.190892,12
0.424421,-0.122129,-0.189614,18
0.423499,-0.121738,-0.188273,16
0.424102,-0.121997,-0.187647,20
0.423722,-0.121837,-0.186564,14
0.426204,-0.122897,-0.186802,18
0.42587,-0.122757,-0.185739,18
0.425834,-0.122744,-0.184814,18
0.425699,-0.122689,-0.183845,20
0.424627,-0.122234,-0.182454,16
0.423807,-0.121887,-0.181182,17
0.42265,-0.121396,-0.179764,20
0.423056,-0.121571,-0.179047,18
0.423463,-0.121747,-0.17833,17
0.42495,-0.122383,-0.178088,16
0.423887,-0.121932,-0.176722,20
0.420844,-0.120637,-0.174499,16
0.421296,-0.120832,-0.173806,17
0.420639,-0.120555,-0.172633,23
0.421622,-0.120976,-0.172168,17
0.422415,-0.121316,-0.171619,27
0.419306,-0.119993,-0.169408,23
0.420908,-0.120678,-0.169203,23
0.420927,-0.120688,-0.168327,20
0.423026,-0.121585,-0.168321,27
0.419483,-0.120077,-0.165959,29
0.419885,-0.120251,-0.165247,22
0.422698,-0.121452,-0.165526,25
0.421367,-0.120886,-0.164096,31
0.421918,-0.121124,-0.16344,26
0.420354,-0.120459,-0.161925,24
0.42148,-0.120941,-0.161501,29
0.422225,-0.121261,-0.160921,25
0.421862,-0.121108,-0.159897,24
0.422996,-0.121594,-0.159468,28
0.42239,-0.121338,-0.15835,28
0.422994,-0.121597,-0.157708,25
0.422293,-0.1213,-0.156557,26
0.421595,-0.121005,-0.15541,32
0.422245,-0.121284,-0.154787,29
0.423381,-0.121771,-0.154348,34
0.423648,-0.121887,-0.153574,32
0.423141,-0.121673,-0.152505,34
0.422635,-0.121459,-0.15144,33
0.422276,-0.121308,-0.150433,37
0.422929,-0.121589,-0.149806,37
0.423826,-0.121974,-0.149266,30
0.422983,-0.121616,-0.148083,36
0.424317,-0.122187,-0.147701,38
0.42449,-0.122263,-0.146892,42
0.423597,-0.121884,-0.145697,42
0.424595,-0.122312,-0.145186,39
0.424964,-0.122471,-0.144447,45
0.426066,-0.122943,-0.143967,39
0.424003,-0.122066,-0.142366,38
0.425734,-0.122806,-0.142106,43
0.42635,-0.123071,-0.14145,43
0.426576,-0.12317,-0.140657,44
0.425434,-0.122685,-0.139393,46
0.4261,-0.122971,-0.138753,44
0.425984,-0.122924,-0.137845,42
0.425772,-0.122835,-0.136906,41
0.426146,-0.122997,-0.136165,45
0.426276,-0.123054,-0.135341,46
0.426406,-0.123112,-0.134518,47
0.425951,-0.12292,-0.133502,46
0.426278,-0.123061,-0.132745,45
0.4268,-0.123286,-0.132051,45
0.427275,-0.123491,-0.131339,47
0.428046,-0.123822,-0.130722,52
0.428426,-0.123986,-0.129977,48
0.42856,-0.124045,-0.129153,51
0.428448,-0.124,-0.128252,50
0.428533,-0.124038,-0.127413,50
0.429359,-0.124393,-0.126805,50
0.428952,-0.124221,-0.125814,48
0.429384,-0.124407,-0.125082,50
0.429224,-0.124341,-0.124169,49
0.429856,-0.124613,-0.123496,51
0.430043,-0.124695,-0.122688,49
0.431674,-0.125393,-0.12231,47
0.431065,-0.125135,-0.121263,51
0.430608,-0.124942,-0.120263,48
0.432644,-0.125813,-0.119994,47
0.431435,-0.125299,-0.118777,46
0.431326,-0.125255,-0.117882,50
0.431867,-0.125487,-0.117173,47
0.432258,-0.125657,-0.11642,58
0.431452,-0.125315,-0.11533,55
0.432093,-0.125591,-0.114647,57
0.432237,-0.125654,-0.113824,57
0.43248,-0.12576,-0.113029,55
0.432424,-0.125738,-0.112152,56
0.432919,-0.125951,-0.111424,56
0.432015,-0.125568,-0.11032,58
0.43226,-0.125674,-0.109526,58
0.431608,-0.125398,-0.108495,62
0.430266,-0.124828,-0.107286,71
0.431602,-0.1254,-0.106779,73
0.431948,-0.125549,-0.106012,67
0.431399,-0.125317,-0.105015,74
0.431894,-0.125531,-0.104287,71
0.431446,-0.125342,-0.103319,75
0.431594,-0.125407,-0.102502,73
0.430653,-0.125008,-0.101416,78
0.430258,-0.124841,-0.100468,84
0.430753,-0.125055,-0.099739,93
0.430015,-0.124742,-0.0987109,89
0.430461,-0.124934,-0.0979694,94
0.430562,-0.124979,-0.097145,93
0.430911,-0.12513,-0.0963789,96
0.428898,-0.124273,-0.0950618,104
0.428951,-0.124298,-0.0942305,101
0.429544,-0.124553,-0.0935228,107
0.428912,-0.124286,-0.0925357,103
0.428576,-0.124144,-0.091618,103
0.428289,-0.124024,-0.0907132,108
0.428101,-0.123946,-0.0898319,103
0.427234,-0.123578,-0.0888035,111
0.426565,-0.123294,-0.087822,108
0.425706,-0.12293,-0.0868031,110
0.4261,-0.1231,-0.086054,110
0.4251,-0.122676,-0.085011,110
0.424441,-0.122396,-0.0840433,106
0.424308,-0.122342,-0.0831873,111
0.4237,-0.122084,-0.0822354,113
0.423902,-0.122172,-0.0814498,115
0.422114,-0.121411,-0.0802664,118
0.421985,-0.121358,-0.0794188,120
0.421575,-0.121185,-0.0785171,124
0.421354,-0.121093,-0.0776541,124
0.420899,-0.120901,-0.0767477,126
0.420539,-0.120749,-0.0758616,127
0.420929,-0.120918,-0.0751177,127
0.419266,-0.12021,-0.0739923,130
0.419561,-0.120338,-0.073233,132
0.419531,-0.120327,-0.0724139,133
0.418714,-0.11998,-0.0714543,123
0.418177,-0.119753,-0.0705481,128
0.417826,-0.119605,-0.0696771,128
0.417661,-0.119537,-0.06884,129
0.416945,-0.119233,-0.0679098,130
0.416919,-0.119224,-0.0670994,133
0.416436,-0.11902,-0.0662132,131
0.416137,-0.118894,-0.0653597,138
0.41625,-0.118944,-0.0645747,142
0.416363,-0.118994,-0.0637897,147
0.416385,-0.119006,-0.0629901,141
0.415769,-0.118745,-0.0620909,139
0.416385,-0.11901,-0.0613849,139
0.415861,-0.118788,-0.060503,140
0.417073,-0.119307,-0.0598846,142
0.41632,-0.118988,-0.05897,141
0.416482,-0.119059,-0.0581928,148
0.416964,-0.119267,-0.0574614,145
0.416487,-0.119065,-0.0565919,140
0.416696,-0.119157,-0.0558208,141
0.41613,-0.118917,-0.0549421,139
0.416294,-0.118989,-0.0541654,133
0.417328,-0.119432,-0.0535049,135
0.416898,-0.119251,-0.0526473,140
0.417064,-0.119323,-0.0518692,142
0.417597,-0.119553,-0.0511377,139
0.417352,-0.11945,-0.0503062,147
0.417566,-0.119543,-0.0495328,150
0.417964,-0.119715,-0.0487814,158
0.418271,-0.119848,-0.0480177,159
0.418349,-0.119884,-0.047226,160
0.418427,-0.119919,-0.0464343,159
0.418092,-0.119778,-0.0455954,159
0.418447,-0.119932,-0.0448354,162
0.418527,-0.119968,-0.044044,160
0.418561,-0.119984,-0.0432475,157
0.419057,-0.120198,-0.0425,154
0.418954,-0.120156,-0.0416885,157
0.420054,-0.120627,-0.0410001,163
0.419812,-0.120526,-0.0401737,163
0.419802,-0.120524,-0.0393711,159
0.419979,-0.120601,-0.0385866,159
0.420388,-0.120778,-0.0378234,167
0.420334,-0.120757,-0.0370163,166
0.420326,-0.120756,-0.0362137,163
0.420552,-0.120854,-0.0354318,170
0.420452,-0.120813,-0.0346214,171
0.420632,-0.120892,-0.0338349,166
0.420394,-0.120793,-0.0330138,173
0.420994,-0.121051,-0.0322605,170
0.42085,-0.120991,-0.0314473,170
0.420939,-0.121031,-0.0306524,170
0.422337,-0.12163,-0.0299536,175
0.421352,-0.121211,-0.0290788,172
0.422613,-0.121752,-0.0283643,176
0.422424,-0.121673,-0.027547,176
0.42261,-0.121755,-0.0267552,180
0.422891,-0.121876,-0.0259687,177
0.422938,-0.121898,-0.0251669,174
0.423361,-0.122081,-0.0243875,180
0.423362,-0.122084,-0.0235822,177
0.423552,-0.122167,-0.0227874,171
0.424783,-0.122695,-0.0220477,178
0.424691,-0.122657,-0.021235,176
0.424551,-0.122599,-0.0204206,174
0.425076,-0.122826,-0.0196383,182
0.42489,-0.122748,-0.0188217,175
0.425227,-0.122894,-0.0180286,179
0.425232,-0.122898,-0.0172206,182
0.425142,-0.122862,-0.0164089,180
0.424674,-0.122664,-0.0155835,183
0.425726,-0.123115,-0.0148137,180
0.425733,-0.12312,-0.0140051,184
0.425788,-0.123146,-0.0131979,189
0.425701,-0.123111,-0.0123864,181
0.426044,-0.123259,-0.0115871,185
0.426388,-0.123408,-0.0107864,182
0.42635,-0.123393,-0.00997558,186
0.427559,-0.123912,-0.00919135,188
0.428099,-0.124145,-0.00838949,190
0.427197,-0.123761,-0.00756072,188
0.427978,-0.124097,-0.00676113,192
0.427943,-0.124084,-0.00594768,185
0.428101,-0.124154,-0.00513656,189
0.428597,-0.124368,-0.0043279,185
0.42837,-0.124273,-0.00351212,184
0.429111,-0.124591,-0.00270218,189
0.428836,-0.124476,-0.00188615,188
0.428852,-0.124484,-0.00107153,183
0.430326,-0.125116,-0.000255462,183
0.430344,-0.125126,0.000562241,186
0.43085,-0.125344,0.00138246,177
0.430771,-0.125312,0.00220064,183
0.431279,-0.125531,0.00302382,183
0.431789,-0.125751,0.00384909,186
0.43127,-0.125532,0.00466305,182
0.432175,-0.12592,0.00549636,187
0.432049,-0.125868,0.00631579,188
0.432416,-0.126027,0.00714415,186
0.433724,-0.126588,0.00799387,188
0.4335,-0.126494,0.00881355,186
0.432782,-0.12619,0.00962001,185
0.433648,-0.126562,0.0104666,184
0.433475,-0.12649,0.0112864,183
0.4336,-0.126545,0.012115,182
0.433775,-0.126622,0.0129457,186
0.4341,-0.126763,0.0137826,184
0.434327,-0.126862,0.0146171,177
0.435803,-0.127495,0.0155017,178
0.434683,-0.127018,0.0162853,182
0.434613,-0.12699,0.0171099,180
0.434593,-0.126984,0.0179367,185
0.436074,-0.127619,0.0188343,184
0.436056,-0.127613,0.0196642,188
0.435187,-0.127244,0.0204505,191
0.436473,-0.127795,0.0213483,190
0.436004,-0.127597,0.0221543,189
0.435087,-0.127207,0.0229329,194
0.436726,-0.12791,0.0238597,190
0.436008,-0.127605,0.0246485,193
0.435442,-0.127365,0.0254443,192
0.436281,-0.127726,0.0263298,196
0.435515,-0.1274,0.0271107,195
0.435202,-0.127269,0.0279201,192
0.435942,-0.127587,0.0288036,194
0.43583,-0.127541,0.0296277,188
0.433922,-0.126728,0.0303159,188
0.433316,-0.126471,0.0310976,192
0.433158,-0.126405,0.0319126,192
0.432309,-0.126044,0.0326708,191
0.431808,-0.125832,0.0334549,193
0.432341,-0.126062,0.0343257,192
0.432581,-0.126166,0.0351731,190
0.432821,-0.126271,0.0360218,193
0.430503,-0.125283,0.0366371,190
0.430987,-0.125491,0.0375058,190
0.430786,-0.125407,0.0383112,193
0.430683,-0.125366,0.0391255,192
0.430484,-0.125282,0.03993,191
0.430627,-0.125345,0.0407689,192
0.431704,-0.125808,0.0417055,189
0.430279,-0.125201,0.0423819,193
0.430228,-0.125181,0.043201,194
0.43008,-0.12512,0.0440095,194
0.429982,-0.12508,0.0448232,192
0.42925,-0.124769,0.0455646,194
0.429348,-0.124813,0.0463995,191
0.429057,-0.12469,0.0471892,191
0.429837,-0.125026,0.0481067,191
0.429888,-0.12505,0.0489385,194
0.429646,-0.124948,0.0497345,188
0.42824,-0.124349,0.0503829,193
0.427711,-0.124125,0.0511384,191
0.428102,-0.124294,0.0520117,193
0.427574,-0.124071,0.0527656,192
0.427,-0.123827,0.0535113,193
0.42715,-0.123893,0.0543537,189
0.427542,-0.124063,0.0552306,196
0.427066,-0.123861,0.0559875,192
0.426784,-0.123743,0.0567704,194
0.426839,-0.123768,0.0576012,193
0.425073,-0.123015,0.0581658,187
0.424938,-0.12296,0.0589658,190
0.424518,-0.122782,0.0597226,185
0.424289,-0.122686,0.0605073,189
0.424727,-0.122875,0.0613945,193
0.424737,-0.122882,0.0622169,186
0.425034,-0.123011,0.0630852,189
0.426195,-0.123509,0.064094,187
0.424866,-0.122943,0.0647024,188
0.424497,-0.122787,0.065464,186
0.424414,-0.122754,0.0662723,189
0.424427,-0.122761,0.0670969,185
0.426116,-0.123486,0.0682086,186
0.425124,-0.123063,0.0688634,182
0.424565,-0.122826,0.0695906,183
0.42458,-0.122835,0.0704176,183
0.424644,-0.122864,0.0712537,180
0.425713,-0.123323,0.0722729,181
0.425251,-0.123128,0.0730159,173
0.425892,-0.123404,0.0739621,179
0.426295,-0.123578,0.0748668,180
0.426555,-0.123692,0.0757464,178
0.425755,-0.123352,0.0764245,183
0.425295,-0.123157,0.0771654,177
0.42618,-0.123537,0.0781683,177
0.425719,-0.123342,0.0789091,175
0.424733,-0.122923,0.0795433,181
0.426003,-0.123468,0.0806295,178
0.426556,-0.123706,0.0815751,177
0.426192,-0.123553,0.0823347,176
0.426892,-0.123854,0.0833146,180
0.427255,-0.124011,0.0842271,182
0.426989,-0.1239,0.0850079,182
0.427062,-0.123933,0.0858609,180
0.426797,-0.123822,0.0866414,178
0.426774,-0.123814,0.0874744,179
0.426655,-0.123765,0.0882865,176
0.426488,-0.123696,0.0890879,176
0.42768,-0.124208,0.0901946,176
0.427271,-0.124035,0.0909434,176
0.427786,-0.124257,0.0919027,175
0.427328,-0.124063,0.09264,174
0.427455,-0.12412,0.0935121,176
0.427631,-0.124197,0.0943968,177
0.428003,-0.124358,0.0953293,179
0.42779,-0.124269,0.0961239,180
0.428163,-0.124431,0.0970597,171
0.428489,-0.124573,0.097986,177
0.42916,-0.124861,0.0989988,175
0.42939,-0.124962,0.099906,174
0.429572,-0.125042,0.100803,176
0.430248,-0.125333,0.101825,172
0.430481,-0.125435,0.102738,168
0.430122,-0.125284,0.103502,166
0.430851,-0.125598,0.104545,169
0.43074,-0.125552,0.105373,166
0.431125,-0.125719,0.106331,167
0.431561,-0.125908,0.107306,171
0.431949,-0.126076,0.10827,171
0.432239,-0.126202,0.109209,167
0.432429,-0.126286,0.110124,166
0.433223,-0.126627,0.111204,171
0.432661,-0.126389,0.111916,167
0.433256,-0.126646,0.112947,167
0.434358,-0.12712,0.114122,167
0.434149,-0.127032,0.114933,164
0.434597,-0.127226,0.115931,167
0.434947,-0.127378,0.116903,163
0.434535,-0.127204,0.117659,167
0.435343,-0.127552,0.118766,171
0.435287,-0.12753,0.119626,167
0.435334,-0.127552,0.120516,161
0.43528,-0.127531,0.121377,162
0.435378,-0.127575,0.122284,158
0.435274,-0.127533,0.123131,160
0.435271,-0.127534,0.124009,158
0.435219,-0.127514,0.124872,163
0.435779,-0.127756,0.125924,159
0.435727,-0.127735,0.12679,154
0.434605,-0.127257,0.127324,155
0.435829,-0.127784,0.128588,160
0.435115,-0.12748,0.129247,161
0.434759,-0.12733,0.130017,156
0.434302,-0.127136,0.130754,159
0.433796,-0.126922,0.131475,159
0.434357,-0.127164,0.132539,162
0.43441,-0.127189,0.133441,155
0.433651,-0.126866,0.134077,151
0.433705,-0.126892,0.134979,149
0.4331,-0.126635,0.135663,151
0.432851,-0.12653,0.136464,148
0.432552,-0.126405,0.137248,152
0.432203,-0.126258,0.138015,146
0.432309,-0.126305,0.138936,152
0.432062,-0.126201,0.139737,153
0.430761,-0.125646,0.140173,158
0.430366,-0.12548,0.14092,157
0.430321,-0.125463,0.141788,152
0.430578,-0.125575,0.142763,152
0.430334,-0.125473,0.143562,152
0.430692,-0.125628,0.144575,142
0.431152,-0.125827,0.145628,140
0.431967,-0.126178,0.146811,140
0.429915,-0.125302,0.146958,135
0.430575,-0.125586,0.148087,120
0.43149,-0.12598,0.149313,118
0.430443,-0.125534,0.149819,116
0.430905,-0.125734,0.150882,116
0.430966,-0.125763,0.151798,113
0.431784,-0.126115,0.153,119
0.430736,-0.125669,0.1535,117
0.430949,-0.125762,0.154476,117
0.431365,-0.125942,0.155532,117
0.430269,-0.125475,0.156008,117
0.430885,-0.125741,0.157143,120
0.430949,-0.125771,0.158067,118
0.430862,-0.125736,0.158932,122
0.430926,-0.125765,0.159858,117
0.431092,-0.125839,0.160824,124
0.431359,-0.125956,0.161833,129
0.431729,-0.126116,0.162885,124
0.432355,-0.126386,0.164042,122
0.432066,-0.126265,0.164833,122
0.431879,-0.126187,0.165664,126
0.431186,-0.125892,0.166289,126
0.431914,-0.126206,0.167495,129
0.432135,-0.126303,0.168497,121
0.433841,-0.127036,0.170117,122
0.433809,-0.127025,0.171019,121
0.433213,-0.126771,0.171685,126
0.432618,-0.126519,0.17235,120
0.432842,-0.126617,0.173361,126
0.433478,-0.126892,0.174549,123
0.432986,-0.126683,0.175258,115
0.432904,-0.126651,0.176142,110
0.432772,-0.126596,0.177004,115
0.43341,-0.126872,0.178202,110
0.433175,-0.126773,0.179022,109
0.433454,-0.126895,0.180068,110
0.433323,-0.126841,0.180934,119
0.43232,-0.126414,0.181413,121
0.432292,-0.126404,0.182324,119
0.433394,-0.126879,0.183744,117
0.43275,-0.126605,0.184381,115
0.432518,-0.126508,0.185203,114
0.432234,-0.126389,0.186002,119
0.432927,-0.126688,0.187247,111
0.432439,-0.126481,0.187953,111
0.432362,-0.12645,0.188847,110
0.43208,-0.126332,0.189647,114
0.431798,-0.126213,0.190447,114
0.431211,-0.125964,0.191103,115
0.431442,-0.126065,0.192143,112
0.431111,-0.125925,0.192919,116
0.43078,-0.125786,0.193694,110
0.430961,-0.125866,0.194714,107
0.430427,-0.125639,0.195391,109
0.430149,-0.125523,0.196191,119
0.429668,-0.125319,0.196892,125
0.429696,-0.125333,0.19784,112
0.42881,-0.124956,0.198342,112
0.42818,-0.124688,0.198966,111
0.421868,-0.117286,-0.207118,9
0.416274,-0.114957,-0.203326,10
0.417908,-0.11564,-0.203254,8
0.419845,-0.11645,-0.203329,8
0.416303,-0.114976,-0.200623,12
0.422396,-0.117517,-0.20279,10
0.41833,-0.115825,-0.199832,9
0.348156,-0.086581,-0.163945,8
0.422373,-0.117515,-0.20003,15
0.424746,-0.118506,-0.20029,13
0.422197,-0.117445,-0.198115,13
0.41944,-0.116299,-0.19585,13
0.420417,-0.116708,-0.195423,9
0.422863,-0.11773,-0.195705,16
0.419186,-0.116199,-0.193015,15
0.428295,-0.119999,-0.1965,13
0.42119,-0.117039,-0.192173,14
0.418791,-0.116042,-0.190124,10
0.424245,-0.118317,-0.191815,15
0.425641,-0.118901,-0.191565,16
0.422994,-0.1178,-0.189408,20
0.423938,-0.118196,-0.188945,16
0.428973,-0.120297,-0.190384,19
0.426583,-0.119303,-0.188359,19
0.423291,-0.117933,-0.18593,19
0.423403,-0.117982,-0.185079,20
0.426473,-0.119264,-0.18558,17
0.425991,-0.119065,-0.184452,15
0.426153,-0.119135,-0.18362,18
0.427211,-0.119578,-0.183191,15
0.42554,-0.118883,-0.181535,25
0.426544,-0.119304,-0.181081,22
0.424832,-0.118593,-0.179417,17
0.424798,-0.118581,-0.178504,17
0.423493,-0.118039,-0.177032,19
0.424145,-0.118313,-0.176422,25
0.424407,-0.118424,-0.175641,21
0.421458,-0.117197,-0.173471,23
0.422492,-0.11763,-0.173029,21
0.422753,-0.117741,-0.172251,18
0.421852,-0.117368,-0.170979,19
0.422452,-0.11762,-0.170346,22
0.425988,-0.119097,-0.17095,25
0.421862,-0.117378,-0.168327,20
0.423141,-0.117914,-0.167976,28
0.421565,-0.117259,-0.166437,31
0.422261,-0.117551,-0.165843,31
0.424223,-0.118372,-0.165766,28
0.423223,-0.117957,-0.164471,29
0.423196,-0.117948,-0.163577,29
0.423266,-0.117979,-0.162724,26
0.424162,-0.118355,-0.162202,24
0.425112,-0.118753,-0.161699,25
0.424158,-0.118358,-0.160436,19
0.424766,-0.118613,-0.159795,26
0.421931,-0.117433,-0.1578,23
0.42379,-0.118211,-0.157652,26
0.426059,-0.119159,-0.157655,31
0.425055,-0.118742,-0.156385,28
0.426205,-0.119224,-0.155948,22
0.422968,-0.117876,-0.15383,30
0.423864,-0.118252,-0.153297,35
0.427065,-0.119589,-0.153632,27
0.425131,-0.118785,-0.152024,34
0.423844,-0.11825,-0.150668,35
0.424599,-0.118567,-0.150076,40
0.425746,-0.119048,-0.149626,42
0.425236,-0.118837,-0.148564,36
0.425117,-0.11879,-0.147648,40
0.425486,-0.118946,-0.146909,41
0.42659,-0.119408,-0.146435,42
0.426275,-0.119279,-0.145448,42
0.426157,-0.119232,-0.144534,44
0.426284,-0.119287,-0.143707,44
0.425873,-0.119118,-0.142692,45
0.426538,-0.119397,-0.142055,39
0.426275,-0.11929,-0.141093,42
0.42753,-0.119815,-0.140657,44
0.428448,-0.1202,-0.140101,48
0.427003,-0.1196,-0.138736,41
0.42782,-0.119943,-0.138145,49
0.428196,-0.120102,-0.137402,48
0.429166,-0.120509,-0.136857,45
0.42831,-0.120153,-0.135701,44
0.428244,-0.120128,-0.134811,45
0.427197,-0.119693,-0.133599,44
0.428262,-0.12014,-0.133081,46
0.428542,-0.120259,-0.132306,46
0.429812,-0.120791,-0.131848,45
0.430094,-0.120911,-0.13107,48
0.429238,-0.120556,-0.129929,47
0.429967,-0.120862,-0.129293,50
0.430797,-0.12121,-0.128687,51
0.429642,-0.120731,-0.127459,50
0.429432,-0.120645,-0.126529,49
0.430063,-0.12091,-0.125859,56
0.431392,-0.121467,-0.125401,54
0.43158,-0.121547,-0.124591,56
0.431618,-0.121565,-0.123736,55
0.431358,-0.121459,-0.122792,56
0.431247,-0.121415,-0.121895,53
0.431586,-0.121558,-0.12113,55
0.431626,-0.121577,-0.120278,49
0.432365,-0.121888,-0.119629,50
0.431259,-0.121428,-0.118446,48
0.430853,-0.121261,-0.117468,48
0.432839,-0.122092,-0.117173,53
0.432131,-0.121798,-0.116109,53
0.433024,-0.122173,-0.115498,58
