ply
format ascii 1.0
comment Created by CloudCompare v2.11 alpha (Anoia)
comment Created 2025/12/9 20:01
obj_info Generated by CloudCompare!
element vertex 1428
property float x
property float y
property float z
property float scalar_Scalar_field
end_header
0.31225 -0.590559 0.0717338 194 
0.311768 -0.590415 0.0724839 195 
0.31191 -0.59046 0.0732993 196 
0.311861 -0.590447 0.0740946 194 
0.311956 -0.590478 0.0749061 199 
0.311764 -0.590422 0.0756857 199 
0.311239 -0.590264 0.0764264 198 
0.310905 -0.590165 0.0771878 198 
0.310811 -0.590139 0.0779767 199 
0.30972 -0.58981 0.0786448 196 
0.308965 -0.589583 0.0793503 197 
0.308778 -0.589529 0.0801242 195 
0.308404 -0.589417 0.0808739 198 
0.308549 -0.589463 0.0816892 198 
0.308741 -0.589523 0.0825118 203 
0.30696 -0.588985 0.0830732 200 
0.306964 -0.588989 0.0838686 201 
0.306689 -0.588907 0.0846261 197 
0.306228 -0.588769 0.0853571 195 
0.306047 -0.588716 0.0861261 199 
0.30596 -0.588692 0.0869081 198 
0.305177 -0.588457 0.0875893 198 
0.303796 -0.58804 0.0881804 193 
0.303665 -0.588002 0.0889519 197 
0.304921 -0.588385 0.0899319 191 
0.303405 -0.587927 0.0904947 194 
0.303184 -0.587862 0.0912518 191 
0.303239 -0.587881 0.0920516 187 
0.302927 -0.587788 0.0927939 183 
0.303858 -0.588072 0.0937345 180 
0.302902 -0.587784 0.094373 182 
0.30476 -0.588349 0.0954701 187 
0.303477 -0.587962 0.0960531 186 
0.303951 -0.588108 0.0969267 186 
0.305169 -0.588478 0.0979292 184 
0.304578 -0.588301 0.0986257 183 
0.304175 -0.588181 0.0993529 183 
0.304097 -0.588159 0.100136 177 
0.303787 -0.588068 0.100878 177 
0.303802 -0.588074 0.101678 174 
0.304652 -0.588333 0.10263 172 
0.303834 -0.588087 0.103279 176 
0.303943 -0.588122 0.104098 173 
0.304887 -0.58841 0.105074 171 
0.305371 -0.588559 0.105967 173 
0.305435 -0.58858 0.106782 174 
0.305828 -0.588701 0.107662 173 
0.305566 -0.588624 0.108415 174 
0.307793 -0.5893 0.10966 172 
0.305559 -0.588625 0.110023 174 
0.305113 -0.588492 0.110738 174 
0.306069 -0.588783 0.111738 178 
0.30595 -0.588749 0.112521 172 
0.3063 -0.588857 0.113401 169 
0.306557 -0.588937 0.114263 174 
0.306674 -0.588975 0.115098 174 
0.308209 -0.589441 0.116236 166 
0.308091 -0.589408 0.117025 167 
0.306982 -0.589073 0.117598 165 
0.30781 -0.589326 0.118592 162 
0.308025 -0.589393 0.119454 163 
0.307625 -0.589274 0.12018 162 
0.30751 -0.589241 0.12097 162 
0.307537 -0.589251 0.121791 162 
0.308608 -0.589578 0.122854 163 
0.308827 -0.589646 0.123723 170 
0.308617 -0.589585 0.124494 166 
0.308171 -0.589451 0.125209 163 
0.308581 -0.589577 0.126126 165 
0.308564 -0.589574 0.126942 161 
0.309071 -0.58973 0.127886 161 
0.309007 -0.589712 0.128694 166 
0.309373 -0.589825 0.129607 163 
0.309261 -0.589793 0.130404 161 
0.309773 -0.58995 0.131357 162 
0.309902 -0.589992 0.132216 162 
0.311139 -0.590369 0.133358 159 
0.310595 -0.590206 0.134049 157 
0.310823 -0.590277 0.134938 160 
0.31236 -0.590745 0.136168 159 
0.311717 -0.590551 0.136835 155 
0.312579 -0.590815 0.137896 156 
0.311354 -0.590446 0.138407 156 
0.31246 -0.590783 0.139538 156 
0.312839 -0.5909 0.140477 153 
0.312781 -0.590884 0.1413 152 
0.312771 -0.590883 0.142137 146 
0.312567 -0.590823 0.14292 151 
0.314371 -0.591372 0.144262 151 
0.313234 -0.591029 0.144787 149 
0.313423 -0.591088 0.145683 147 
0.313857 -0.591222 0.14665 145 
0.314835 -0.591521 0.147775 145 
0.315968 -0.591866 0.14895 144 
0.315367 -0.591686 0.149626 142 
0.315115 -0.591612 0.150402 141 
0.315903 -0.591853 0.151484 136 
0.315304 -0.591673 0.152159 131 
0.316095 -0.591915 0.153247 130 
0.31634 -0.591991 0.154175 126 
0.316687 -0.592098 0.155135 130 
0.316585 -0.592069 0.155961 137 
0.317333 -0.592298 0.157048 138 
0.317984 -0.592498 0.158108 125 
0.318235 -0.592576 0.159048 125 
0.319093 -0.592838 0.160179 133 
0.318588 -0.592687 0.160885 131 
0.31955 -0.592981 0.162055 130 
0.31859 -0.592692 0.162616 130 
0.319655 -0.593017 0.163824 126 
0.319759 -0.59305 0.164726 121 
0.319863 -0.593084 0.16563 119 
0.320324 -0.593226 0.166652 124 
0.320328 -0.593229 0.167526 127 
0.320383 -0.593248 0.168418 123 
0.320745 -0.59336 0.169413 120 
0.321006 -0.593441 0.170376 122 
0.321371 -0.593554 0.171376 122 
0.322612 -0.593933 0.172676 120 
0.321486 -0.593593 0.173173 113 
0.32242 -0.593878 0.174374 107 
0.322531 -0.593914 0.175295 113 
0.323523 -0.594217 0.176524 104 
0.323531 -0.594222 0.177414 97 
0.324269 -0.594448 0.178561 94 
0.323395 -0.594185 0.179141 94 
0.323145 -0.594111 0.17994 95 
0.323779 -0.594306 0.181057 98 
0.324103 -0.594406 0.182064 102 
0.324271 -0.594459 0.183018 105 
0.324805 -0.594623 0.184106 102 
0.324034 -0.594391 0.184718 99 
0.324308 -0.594476 0.185714 102 
0.32453 -0.594546 0.186692 101 
0.324753 -0.594616 0.187673 104 
0.324715 -0.594606 0.188557 107 
0.325307 -0.594788 0.18968 112 
0.325585 -0.594875 0.190686 113 
0.325443 -0.594834 0.191535 115 
0.325301 -0.594793 0.192383 110 
0.325423 -0.594832 0.193334 117 
0.32565 -0.594903 0.194327 113 
0.325456 -0.594846 0.195157 116 
0.326002 -0.595014 0.196278 115 
0.326126 -0.595054 0.197235 122 
0.326091 -0.595045 0.198131 119 
0.326163 -0.595069 0.199069 114 
0.325971 -0.595013 0.199903 106 
0.326202 -0.595085 0.200908 113 
0.325746 -0.594949 0.201636 106 
0.326561 -0.595199 0.202881 110 
0.326104 -0.595062 0.20361 114 
0.325861 -0.59499 0.204425 118 
0.325089 -0.594758 0.205021 120 
0.325057 -0.594751 0.205922 120 
0.325502 -0.594888 0.207024 112 
0.325684 -0.594945 0.208018 112 
0.324913 -0.594713 0.208611 108 
0.325889 -0.595012 0.209943 110 
0.324906 -0.594716 0.210445 100 
0.324507 -0.594597 0.211193 107 
0.324689 -0.594654 0.212191 116 
0.324714 -0.594664 0.213123 117 
0.324421 -0.594577 0.213918 120 
0.324235 -0.594523 0.214758 120 
0.324366 -0.594565 0.215738 116 
0.323389 -0.59427 0.216231 122 
0.322417 -0.593977 0.216722 119 
0.322757 -0.594083 0.217795 120 
0.323098 -0.594189 0.218871 117 
0.322285 -0.593944 0.219429 117 
0.322154 -0.593906 0.220294 118 
0.321709 -0.593773 0.221016 118 
0.320796 -0.593498 0.221523 114 
0.321397 -0.593683 0.222723 115 
0.321007 -0.593567 0.223468 114 
0.319681 -0.593166 0.223779 122 
0.319605 -0.593145 0.224667 137 
0.319321 -0.593061 0.225459 116 
0.31909 -0.592993 0.226275 115 
0.319169 -0.59302 0.227238 116 
0.296782 -0.58873 -0.168659 8 
0.301071 -0.590062 -0.169903 9 
0.30023 -0.589803 -0.168597 11 
0.28069 -0.583748 -0.158114 7 
0.299501 -0.589581 -0.166465 10 
0.296386 -0.588618 -0.164064 10 
0.29654 -0.588667 -0.163261 9 
0.297996 -0.589121 -0.163087 12 
0.300499 -0.589899 -0.163411 9 
0.301603 -0.590243 -0.163055 9 
0.296694 -0.588723 -0.159834 17 
0.298057 -0.589148 -0.159606 11 
0.303266 -0.590765 -0.161187 13 
0.300196 -0.589815 -0.15886 10 
0.30277 -0.590615 -0.159184 15 
0.300605 -0.589946 -0.157294 12 
0.301803 -0.59032 -0.156971 10 
0.298528 -0.589306 -0.154583 13 
0.304555 -0.591177 -0.156475 16 
0.301048 -0.590092 -0.153991 18 
0.302628 -0.590584 -0.153834 18 
0.302978 -0.590694 -0.153114 16 
0.302804 -0.590643 -0.152159 20 
0.302063 -0.590415 -0.15095 19 
0.30303 -0.590717 -0.150507 19 
0.30424 -0.591094 -0.150169 14 
0.304498 -0.591176 -0.149405 14 
0.302894 -0.590681 -0.147824 13 
0.304008 -0.591029 -0.147439 22 
0.305801 -0.591587 -0.147344 18 
0.303998 -0.59103 -0.145687 18 
0.302214 -0.590478 -0.144046 21 
0.300399 -0.589917 -0.142401 20 
0.299859 -0.589752 -0.141308 21 
0.301567 -0.590284 -0.141171 20 
0.304958 -0.591337 -0.141738 22 
0.304119 -0.591079 -0.140515 27 
0.30755 -0.592146 -0.14108 22 
0.303211 -0.590802 -0.138403 20 
0.302476 -0.590576 -0.137235 20 
0.303777 -0.590981 -0.136907 17 
0.303277 -0.590829 -0.135839 28 
0.302261 -0.590515 -0.134563 28 
0.300923 -0.590102 -0.133162 21 
0.302873 -0.590709 -0.133092 25 
0.30083 -0.590078 -0.131414 27 
0.301838 -0.590392 -0.130962 28 
0.302474 -0.590591 -0.130358 29 
0.300019 -0.589832 -0.128535 30 
0.301116 -0.590174 -0.128115 23 
0.300209 -0.589895 -0.126909 23 
0.300142 -0.589876 -0.126034 23 
0.298641 -0.589412 -0.124607 23 
0.299823 -0.589781 -0.124217 27 
0.298648 -0.589419 -0.122922 27 
0.298169 -0.589272 -0.121898 30 
0.298151 -0.589268 -0.12105 30 
0.297491 -0.589066 -0.119962 29 
0.298299 -0.589318 -0.119425 29 
0.297823 -0.589172 -0.11841 27 
0.297714 -0.589141 -0.117532 26 
0.293397 -0.587803 -0.115112 32 
0.293561 -0.587856 -0.114345 34 
0.296026 -0.588623 -0.114412 30 
0.292372 -0.587491 -0.112265 38 
0.292092 -0.587406 -0.111342 40 
0.294267 -0.588083 -0.111295 41 
0.294748 -0.588234 -0.110641 35 
0.292543 -0.587552 -0.109038 43 
0.292264 -0.587467 -0.108121 44 
0.293678 -0.587908 -0.107794 46 
0.293979 -0.588003 -0.107077 44 
0.293341 -0.587807 -0.106036 49 
0.293687 -0.587917 -0.105335 47 
0.295381 -0.588444 -0.105091 45 
0.293219 -0.587775 -0.103539 48 
0.293699 -0.587926 -0.102883 52 
0.293823 -0.587966 -0.102107 43 
0.294081 -0.588048 -0.101376 47 
0.292647 -0.587605 -0.100087 52 
0.294599 -0.588213 -0.0999134 50 
0.293875 -0.58799 -0.0988604 49 
0.293198 -0.587782 -0.0978274 49 
0.29417 -0.588086 -0.0973274 46 
0.293315 -0.587822 -0.0962414 44 
0.294065 -0.588057 -0.0956674 44 
0.29437 -0.588154 -0.0949514 50 
0.294318 -0.588139 -0.0941224 50 
0.294044 -0.588056 -0.0932254 46 
0.294394 -0.588167 -0.0925234 49 
0.295642 -0.588556 -0.0920954 48 
0.295322 -0.588459 -0.0911854 54 
0.294689 -0.588264 -0.0901834 49 
0.295176 -0.588417 -0.0895204 51 
0.295126 -0.588404 -0.0886954 54 
0.29463 -0.588251 -0.0877394 62 
0.295655 -0.588572 -0.0872334 55 
0.29601 -0.588684 -0.0865284 58 
0.295602 -0.588559 -0.0856014 65 
0.296362 -0.588797 -0.0850134 64 
0.296449 -0.588826 -0.0842294 65 
0.296176 -0.588743 -0.0833434 68 
0.296174 -0.588744 -0.0825364 70 
0.295768 -0.58862 -0.0816154 60 
0.296664 -0.5889 -0.0810604 62 
0.296573 -0.588874 -0.0802284 65 
0.296482 -0.588847 -0.0793984 73 
0.296796 -0.588947 -0.0786784 71 
0.296525 -0.588865 -0.0778014 67 
0.296525 -0.588867 -0.0769974 66 
0.296661 -0.58891 -0.0762304 67 
0.297111 -0.589052 -0.0755464 72 
0.297202 -0.589082 -0.0747664 74 
0.298242 -0.589407 -0.0742344 69 
0.29743 -0.589157 -0.0732204 72 
0.297477 -0.589174 -0.0724304 73 
0.297796 -0.589274 -0.0717094 75 
0.298295 -0.589431 -0.0710334 76 
0.298842 -0.589603 -0.0703674 75 
0.297805 -0.589283 -0.0693072 84 
0.298441 -0.589482 -0.0686633 86 
0.298445 -0.589486 -0.0678631 89 
0.298224 -0.589419 -0.0670089 89 
0.299089 -0.589689 -0.0664168 87 
0.299003 -0.589665 -0.0655955 92 
0.298918 -0.58964 -0.0647752 93 
0.300197 -0.590039 -0.0642747 100 
0.299884 -0.589944 -0.0634006 96 
0.300621 -0.590175 -0.0627693 98 
0.300947 -0.590278 -0.0620423 99 
0.300316 -0.590084 -0.0610978 105 
0.300643 -0.590187 -0.0603712 107 
0.301108 -0.590333 -0.0596743 104 
0.301254 -0.590381 -0.0589058 104 
0.30195 -0.590599 -0.0582573 107 
0.301638 -0.590504 -0.0573886 109 
0.302337 -0.590723 -0.0567379 108 
0.302669 -0.590828 -0.0560072 111 
0.302726 -0.590847 -0.0552177 117 
0.302368 -0.590738 -0.0543424 115 
0.302518 -0.590787 -0.0535733 116 
0.302208 -0.590692 -0.0527104 110 
0.303048 -0.590955 -0.0520816 113 
0.303199 -0.591004 -0.051312 115 
0.30312 -0.590981 -0.0504965 112 
0.304058 -0.591274 -0.0498813 116 
0.303701 -0.591166 -0.0490116 115 
0.304271 -0.591344 -0.0483216 115 
0.304425 -0.591394 -0.0475507 121 
0.304301 -0.591358 -0.0467273 114 
0.304316 -0.591364 -0.0459309 118 
0.304564 -0.591443 -0.0451775 122 
0.30551 -0.591739 -0.0445509 131 
0.305061 -0.591602 -0.0436695 128 
0.305218 -0.591652 -0.0428982 128 
0.305189 -0.591645 -0.042094 127 
0.30544 -0.591725 -0.041339 139 
0.305459 -0.591733 -0.0405433 140 
0.306037 -0.591914 -0.0398435 138 
0.305451 -0.591734 -0.0389454 134 
0.305518 -0.591756 -0.0381588 141 
0.306424 -0.59204 -0.0375105 136 
0.306398 -0.592034 -0.0367074 140 
0.305673 -0.591811 -0.0357924 137 
0.305835 -0.591863 -0.0350214 137 
0.305392 -0.591727 -0.0341553 140 
0.30574 -0.591837 -0.0334137 142 
0.305438 -0.591745 -0.0325718 141 
0.305369 -0.591725 -0.0317665 145 
0.3053 -0.591706 -0.0309619 144 
0.305976 -0.591918 -0.0302672 152 
0.305536 -0.591783 -0.0294085 148 
0.305468 -0.591764 -0.0286051 146 
0.305587 -0.591803 -0.0278286 147 
0.305196 -0.591683 -0.0269811 155 
0.30527 -0.591708 -0.026199 146 
0.304556 -0.591488 -0.0253107 149 
0.304492 -0.591469 -0.0245118 147 
0.303828 -0.591265 -0.023635 150 
0.303949 -0.591305 -0.0228624 147 
0.303933 -0.591301 -0.0220721 152 
0.303732 -0.591241 -0.0212591 153 
0.303947 -0.591309 -0.0204983 160 
0.30338 -0.591135 -0.0196422 158 
0.303365 -0.591132 -0.0188545 163 
0.303213 -0.591087 -0.0180509 165 
0.303108 -0.591056 -0.0172537 165 
0.302454 -0.590855 -0.0163948 166 
0.302168 -0.590767 -0.0155797 164 
0.301246 -0.590483 -0.0146962 166 
0.301325 -0.590509 -0.0139245 161 
0.300589 -0.590282 -0.0130665 159 
0.301394 -0.590534 -0.0123716 164 
0.300885 -0.590378 -0.0115399 160 
0.300423 -0.590236 -0.0107151 161 
0.301048 -0.590432 -0.00999883 164 
0.301176 -0.590474 -0.00923253 169 
0.300714 -0.590332 -0.00841063 162 
0.301069 -0.590444 -0.00766583 168 
0.300429 -0.590247 -0.00683013 165 
0.300738 -0.590345 -0.00608103 169 
0.30114 -0.590472 -0.00533873 171 
0.300681 -0.590331 -0.00452263 175 
0.300631 -0.590317 -0.00374203 175 
0.30126 -0.590515 -0.00301653 174 
0.301347 -0.590543 -0.00224613 165 
0.30157 -0.590615 -0.00148603 169 
0.301657 -0.590644 -0.000715128 167 
0.301791 -0.590687 5.2572e-05 169 
0.301697 -0.59066 0.000836673 176 
0.301423 -0.590576 0.00163277 171 
0.301876 -0.590719 0.00237897 175 
0.302558 -0.590933 0.00311187 172 
0.302102 -0.590793 0.00391907 170 
0.302193 -0.590823 0.00469087 173 
0.30183 -0.590712 0.00548977 178 
0.302605 -0.590955 0.00622207 173 
0.3032 -0.591142 0.00696717 172 
0.303385 -0.591201 0.00773627 169 
0.303571 -0.591261 0.00850607 166 
0.303711 -0.591307 0.00927857 173 
0.303531 -0.591252 0.0100668 174 
0.303673 -0.591298 0.0108396 178 
0.303815 -0.591344 0.0116128 172 
0.304003 -0.591405 0.0123845 178 
0.303871 -0.591365 0.0131696 174 
0.304429 -0.591541 0.013928 178 
0.305127 -0.59176 0.0146835 176 
0.304672 -0.59162 0.0154806 177 
0.304956 -0.59171 0.0162524 180 
0.305103 -0.591758 0.0170293 182 
0.305435 -0.591863 0.0178015 181 
0.306185 -0.592098 0.0185639 183 
0.30587 -0.592002 0.0193551 182 
0.306158 -0.592093 0.0201314 183 
0.306494 -0.5922 0.0209079 187 
0.30683 -0.592306 0.0216857 185 
0.306377 -0.592167 0.0224778 183 
0.306714 -0.592274 0.0232565 184 
0.307099 -0.592396 0.0240359 185 
0.308282 -0.592765 0.0248083 184 
0.30708 -0.592393 0.0256061 181 
0.30831 -0.592778 0.0263827 185 
0.308794 -0.59293 0.0271676 181 
0.308998 -0.592996 0.0279553 185 
0.30798 -0.592681 0.0287449 182 
0.30903 -0.593009 0.0295326 182 
0.308764 -0.592929 0.0303205 186 
0.308876 -0.592965 0.0311093 186 
0.308988 -0.593002 0.0318985 184 
0.309101 -0.593039 0.0326882 192 
0.30879 -0.592944 0.0334738 184 
0.309375 -0.593128 0.0342695 189 
0.309253 -0.593092 0.0350573 189 
0.309651 -0.593218 0.0358532 190 
0.310193 -0.593388 0.0366533 187 
0.311354 -0.593751 0.0374681 193 
0.311472 -0.59379 0.0382643 189 
0.310734 -0.593562 0.0390403 187 
0.311662 -0.593853 0.039857 189 
0.311162 -0.593699 0.0406373 190 
0.311472 -0.593797 0.0414401 186 
0.311402 -0.593778 0.042232 189 
0.31138 -0.593773 0.0430253 193 
0.311692 -0.593872 0.0438306 190 
0.312484 -0.59412 0.0446553 188 
0.311699 -0.593877 0.0454207 185 
0.312013 -0.593977 0.0462288 187 
0.312042 -0.593988 0.0470258 193 
0.31188 -0.593939 0.0478143 196 
0.312436 -0.594114 0.0486364 196 
0.313426 -0.594425 0.0494822 193 
0.314664 -0.594812 0.0503447 195 
0.314454 -0.594748 0.051135 193 
0.314148 -0.594655 0.0519193 190 
0.314326 -0.594712 0.0527302 185 
0.313924 -0.594589 0.0535078 190 
0.314199 -0.594676 0.0543252 191 
0.314524 -0.594779 0.0551469 191 
0.314559 -0.594792 0.0559513 190 
0.314401 -0.594745 0.0567431 194 
0.31434 -0.594728 0.0575411 192 
0.314232 -0.594696 0.0583357 192 
0.315628 -0.595133 0.0592393 189 
0.314258 -0.594708 0.0599422 192 
0.314975 -0.594933 0.0607997 191 
0.314238 -0.594706 0.0615461 190 
0.314277 -0.59472 0.0623522 195 
0.314414 -0.594764 0.0631667 196 
0.314309 -0.594733 0.0639616 193 
0.314108 -0.594673 0.064748 197 
0.314537 -0.594808 0.0655894 193 
0.314434 -0.594778 0.0663846 194 
0.314186 -0.594703 0.0671664 194 
0.314083 -0.594673 0.0679611 197 
0.314369 -0.594764 0.068793 199 
0.313833 -0.594598 0.0695456 196 
0.314216 -0.59472 0.0703882 196 
0.313487 -0.594495 0.0711194 198 
0.313195 -0.594406 0.0718933 196 
0.312184 -0.594092 0.0725901 199 
0.312326 -0.594139 0.0734076 196 
0.311989 -0.594036 0.0741733 196 
0.311749 -0.593963 0.0749488 192 
0.311653 -0.593935 0.07574 193 
0.311175 -0.593788 0.076487 198 
0.311271 -0.59382 0.0772998 199 
0.311224 -0.593807 0.0780963 198 
0.310416 -0.593557 0.0788003 199 
0.309658 -0.593323 0.0795077 204 
0.309708 -0.59334 0.0803137 203 
0.308765 -0.593048 0.0809937 200 
0.309004 -0.593125 0.0818233 200 
0.308677 -0.593025 0.0825798 201 
0.30854 -0.592984 0.0833605 200 
0.307651 -0.592709 0.0840394 193 
0.307985 -0.592815 0.0848829 198 
0.307944 -0.592804 0.0856758 198 
0.30603 -0.59221 0.0862048 197 
0.305896 -0.59217 0.0869812 195 
0.305484 -0.592044 0.087717 195 
0.305213 -0.591961 0.0884722 192 
0.305267 -0.59198 0.0892752 193 
0.30509 -0.591926 0.0900437 193 
0.304681 -0.591801 0.0907766 192 
0.30432 -0.59169 0.0915156 192 
0.304746 -0.591825 0.0923769 187 
0.303784 -0.591527 0.0930201 190 
0.303749 -0.591518 0.0938086 191 
0.303667 -0.591494 0.0945898 190 
0.303771 -0.591529 0.0954016 189 
0.303644 -0.591491 0.0961758 189 
0.303149 -0.591339 0.0968879 190 
0.30492 -0.591892 0.0979846 186 
0.304979 -0.591913 0.0987937 190 
0.303788 -0.591543 0.0993851 184 
0.303525 -0.591463 0.100136 176 
0.304048 -0.591628 0.101027 180 
0.304527 -0.591779 0.101912 180 
0.303801 -0.591555 0.102579 179 
0.303217 -0.591375 0.10327 173 
0.303972 -0.591612 0.10421 173 
0.303527 -0.591475 0.104926 173 
0.304285 -0.591713 0.10587 169 
0.304535 -0.591793 0.10672 170 
0.304833 -0.591888 0.10758 170 
0.304433 -0.591765 0.108305 171 
0.304964 -0.591933 0.109214 175 
0.304891 -0.591912 0.110004 177 
0.304772 -0.591876 0.110785 177 
0.305072 -0.591972 0.111652 177 
0.305841 -0.592214 0.112617 176 
0.305816 -0.592208 0.11342 174 
0.305933 -0.592246 0.114254 169 
0.305628 -0.592153 0.114998 170 
0.305932 -0.59225 0.115873 171 
0.306191 -0.592332 0.11674 169 
0.306168 -0.592327 0.117546 170 
0.306569 -0.592454 0.118447 168 
0.306406 -0.592405 0.119224 165 
0.306432 -0.592415 0.120043 165 
0.306364 -0.592396 0.120842 164 
0.30658 -0.592465 0.121705 166 
0.306748 -0.592519 0.122559 164 
0.307485 -0.592751 0.123547 164 
0.307655 -0.592806 0.124405 162 
0.307589 -0.592787 0.125209 163 
0.307619 -0.592798 0.126035 164 
0.308171 -0.592972 0.126988 164 
0.308344 -0.593028 0.127852 164 
0.308518 -0.593085 0.128717 164 
0.308359 -0.593037 0.129501 157 
0.30882 -0.593183 0.13044 162 
0.309044 -0.593254 0.131321 163 
0.309125 -0.593281 0.132168 164 
0.309493 -0.593398 0.133089 165 
0.310344 -0.593666 0.134136 166 
0.310331 -0.593663 0.134963 165 
0.310559 -0.593736 0.135853 161 
0.311078 -0.5939 0.136822 161 
0.310631 -0.593763 0.137538 156 
0.310861 -0.593837 0.138432 162 
0.310609 -0.59376 0.139199 157 
0.311518 -0.594045 0.14028 157 
0.311508 -0.594044 0.141114 153 
0.311644 -0.594088 0.14199 154 
0.311295 -0.593982 0.142732 149 
0.312356 -0.594314 0.143866 155 
0.312542 -0.594375 0.14476 148 
0.312096 -0.594237 0.145476 147 
0.312919 -0.594496 0.146552 148 
0.312912 -0.594496 0.147395 146 
0.312759 -0.59445 0.148195 150 
0.313341 -0.594634 0.14921 142 
0.312992 -0.594527 0.149955 142 
0.313772 -0.594772 0.151033 137 
0.314902 -0.595127 0.152218 139 
0.314503 -0.595004 0.152951 138 
0.31549 -0.595314 0.1541 135 
0.315438 -0.5953 0.154939 138 
0.315386 -0.595285 0.155779 138 
0.315682 -0.59538 0.156726 142 
0.315581 -0.59535 0.157552 133 
0.315729 -0.595399 0.158455 133 
0.316376 -0.595603 0.159517 131 
0.316876 -0.59576 0.160536 135 
0.316777 -0.595731 0.161367 131 
0.317279 -0.59589 0.16239 128 
0.318135 -0.596159 0.163531 125 
0.317433 -0.595942 0.16417 126 
0.317586 -0.595992 0.165087 128 
0.317941 -0.596105 0.166071 127 
0.318247 -0.596202 0.16704 125 
0.318605 -0.596316 0.16803 132 
0.319014 -0.596446 0.169038 125 
0.319476 -0.596592 0.170067 123 
0.320041 -0.59677 0.171133 117 
0.319538 -0.596615 0.171839 119 
0.320462 -0.596906 0.173032 115 
0.320162 -0.596814 0.173808 109 
0.32017 -0.596819 0.17469 103 
0.32074 -0.596999 0.175769 107 
0.321261 -0.597163 0.176834 102 
0.321321 -0.597184 0.177739 98 
0.322103 -0.59743 0.178902 95 
0.321083 -0.597114 0.179424 96 
0.321298 -0.597183 0.180387 94 
0.321412 -0.597221 0.181315 102 
0.321577 -0.597275 0.182263 97 
0.322622 -0.597603 0.183535 96 
0.323569 -0.5979 0.184776 94 
0.322906 -0.597696 0.185425 101 
0.321831 -0.597362 0.185919 100 
0.322724 -0.597643 0.187146 107 
0.322842 -0.597682 0.188086 99 
0.323116 -0.597769 0.189086 99 
0.32261 -0.597614 0.189791 101 
0.322313 -0.597523 0.190575 108 
0.323578 -0.59792 0.19196 106 
0.323855 -0.598009 0.192968 112 
0.324185 -0.598114 0.194 111 
0.324097 -0.598089 0.194869 114 
0.324639 -0.59826 0.195987 112 
0.324972 -0.598366 0.197026 115 
0.324622 -0.598259 0.197795 114 
0.325167 -0.598431 0.198922 114 
0.324449 -0.598209 0.199543 111 
0.324206 -0.598135 0.200355 118 
0.323963 -0.598062 0.201166 113 
0.324719 -0.5983 0.202385 112 
0.324528 -0.598242 0.20322 112 
0.32397 -0.59807 0.203903 116 
0.324676 -0.598293 0.205108 106 
0.323645 -0.597973 0.205593 110 
0.324719 -0.598311 0.206958 110 
0.32453 -0.598254 0.207795 116 
0.323185 -0.597836 0.208143 108 
0.323208 -0.597845 0.209068 104 
0.323388 -0.597904 0.210062 106 
0.322729 -0.5977 0.210696 114 
0.32375 -0.598021 0.212055 109 
0.323301 -0.597883 0.21278 108 
0.322643 -0.59768 0.213413 108 
0.322772 -0.597722 0.214389 107 
0.32243 -0.597618 0.215159 107 
0.322088 -0.597513 0.215929 116 
0.32227 -0.597572 0.216931 113 
0.322296 -0.597582 0.217865 112 
0.321589 -0.597364 0.218471 113 
0.321563 -0.597358 0.219382 116 
0.321328 -0.597287 0.220199 112 
0.32125 -0.597264 0.221087 114 
0.320546 -0.597047 0.22169 108 
0.319742 -0.596798 0.222244 116 
0.319976 -0.596873 0.223276 114 
0.319432 -0.596706 0.223948 114 
0.318735 -0.59649 0.224547 124 
0.318711 -0.596485 0.225459 107 
0.318686 -0.596479 0.226373 113 
0.318353 -0.596377 0.22714 114 
0.296531 -0.59208 -0.168821 10 
0.30115 -0.593554 -0.170233 8 
0.299269 -0.592957 -0.16841 15 
0.296293 -0.59201 -0.166057 8 
0.303431 -0.594287 -0.168677 14 
0.297715 -0.592468 -0.164993 13 
0.300501 -0.593357 -0.165465 11 
0.299853 -0.593153 -0.164265 15 
0.297107 -0.59228 -0.162059 12 
0.295779 -0.591859 -0.160546 10 
0.300793 -0.593459 -0.162064 11 
0.297106 -0.592286 -0.15943 12 
0.299643 -0.593097 -0.159754 14 
0.296628 -0.592138 -0.157456 19 
0.303659 -0.594381 -0.159877 13 
0.299925 -0.593193 -0.15725 13 
0.298163 -0.592633 -0.155556 13 
0.295636 -0.59183 -0.153516 8 
0.301105 -0.593575 -0.155163 13 
0.299616 -0.593102 -0.153605 15 
0.301091 -0.593575 -0.153403 13 
0.301723 -0.593778 -0.152814 13 
0.299668 -0.593125 -0.151011 22 
0.301379 -0.593673 -0.150908 19 
0.302676 -0.594088 -0.150613 21 
0.302266 -0.59396 -0.149556 18 
0.30167 -0.593772 -0.148418 16 
0.299761 -0.593165 -0.146706 18 
0.30053 -0.593412 -0.146175 18 
0.301396 -0.593691 -0.145685 20 
0.300851 -0.593519 -0.14458 18 
0.30073 -0.593482 -0.143661 20 
0.300282 -0.593341 -0.142602 24 
0.301806 -0.593829 -0.142389 19 
0.303674 -0.594427 -0.142317 23 
0.302083 -0.593922 -0.140774 20 
0.301303 -0.593675 -0.13958 20 
0.300528 -0.59343 -0.138392 18 
0.30177 -0.593828 -0.138049 22 
0.300759 -0.593508 -0.136768 22 
0.301673 -0.593801 -0.136285 23 
0.299358 -0.593065 -0.134475 21 
0.303228 -0.594301 -0.135198 17 
0.30085 -0.593545 -0.133371 23 
0.299847 -0.593227 -0.132109 25 
0.300851 -0.593549 -0.131658 22 
0.302423 -0.594053 -0.131431 23 
0.300153 -0.593331 -0.129671 23 
0.299295 -0.593059 -0.12848 28 
0.298858 -0.592922 -0.127458 24 
0.298237 -0.592726 -0.126367 25 
0.300068 -0.593312 -0.126233 24 
0.296684 -0.592235 -0.124076 29 
0.296437 -0.592158 -0.123139 26 
0.296693 -0.592242 -0.122397 33 
0.296173 -0.592078 -0.121359 38 
0.297434 -0.592482 -0.120998 34 
0.295729 -0.59194 -0.119517 34 
0.296895 -0.592314 -0.119118 31 
0.29425 -0.591472 -0.117296 32 
0.294144 -0.591441 -0.116426 29 
0.294714 -0.591624 -0.115805 26 
0.292502 -0.590921 -0.114166 29 
0.292666 -0.590975 -0.1134 32 
0.292162 -0.590816 -0.112393 34 
0.293084 -0.591112 -0.111901 37 
0.291072 -0.590472 -0.110358 40 
0.291546 -0.590626 -0.109706 44 
0.291224 -0.590525 -0.108773 51 
0.292586 -0.590961 -0.108432 41 
0.291554 -0.590634 -0.107251 46 
0.292162 -0.59083 -0.106644 45 
0.291929 -0.590758 -0.105745 44 
0.292539 -0.590954 -0.105137 44 
0.291509 -0.590628 -0.103968 49 
0.291632 -0.590669 -0.103194 48 
0.292641 -0.590992 -0.102719 49 
0.293566 -0.591289 -0.102212 47 
0.293199 -0.591174 -0.101272 45 
0.291859 -0.590749 -0.100014 42 
0.293091 -0.591144 -0.0996054 47 
0.293795 -0.59137 -0.0990204 44 
0.293029 -0.591128 -0.0979574 46 
0.292843 -0.591071 -0.0970844 49 
0.293191 -0.591183 -0.0963834 50 
0.292784 -0.591055 -0.0954414 48 
0.292821 -0.591069 -0.0946424 46 
0.292548 -0.590984 -0.0937464 41 
0.294723 -0.59168 -0.0936144 50 
0.293511 -0.591295 -0.0924274 50 
0.293283 -0.591224 -0.0915464 49 
0.294391 -0.59158 -0.0910764 56 
0.293895 -0.591423 -0.0901154 58 
0.294023 -0.591466 -0.0893454 59 
0.295224 -0.591851 -0.0888964 56 
0.295085 -0.591809 -0.0880444 61 
0.294946 -0.591766 -0.0871944 60 
0.295121 -0.591824 -0.0864364 62 
0.294537 -0.59164 -0.0854584 60 
0.295786 -0.59204 -0.0850134 62 
0.295514 -0.591955 -0.0841264 63 
0.295645 -0.591999 -0.0833564 64 
0.295374 -0.591914 -0.0824724 61 
0.295148 -0.591844 -0.0816034 63 
0.295683 -0.592017 -0.0809474 64 
0.295324 -0.591904 -0.0800424 66 
0.295636 -0.592006 -0.0793244 69 
0.296353 -0.592236 -0.0787154 69 
0.296532 -0.592296 -0.0779594 65 
0.297252 -0.592527 -0.0773474 70 
0.296892 -0.592414 -0.0764454 66 
0.297569 -0.592632 -0.0758204 69 
0.295906 -0.592103 -0.0745784 68 
0.29703 -0.592464 -0.0740694 70 
0.296447 -0.59228 -0.0731154 70 
0.296988 -0.592454 -0.0724534 74 
0.296811 -0.5924 -0.0716064 76 
0.297263 -0.592546 -0.0709194 74 
0.297311 -0.592563 -0.0701298 83 
0.297585 -0.592653 -0.0693967 87 
0.298855 -0.59306 -0.0689088 88 
0.298814 -0.593048 -0.0680955 84 
0.299226 -0.593182 -0.067393 86 
0.298099 -0.592824 -0.0663189 85 
0.298104 -0.592828 -0.06552 88 
0.299287 -0.593207 -0.0650002 92 
0.298885 -0.593081 -0.0641044 93 
0.298438 -0.59294 -0.0632004 95 
0.299578 -0.593306 -0.0626644 96 
0.299494 -0.593281 -0.0618446 95 
0.300184 -0.593503 -0.061201 100 
0.299283 -0.593217 -0.0601977 99 
0.300337 -0.593556 -0.0596337 106 
0.300665 -0.593662 -0.0589058 107 
0.300354 -0.593565 -0.0580376 107 
0.30082 -0.593716 -0.0573392 111 
0.300693 -0.593677 -0.0565121 114 
0.30116 -0.593828 -0.0558123 103 
0.301353 -0.593892 -0.0550536 104 
0.301731 -0.594014 -0.0543329 113 
0.30188 -0.594063 -0.0535639 112 
0.302213 -0.594172 -0.0528324 113 
0.301674 -0.594002 -0.0519235 108 
0.303066 -0.594448 -0.0514044 107 
0.302526 -0.594277 -0.0504965 110 
0.303 -0.594431 -0.0497906 110 
0.302784 -0.594363 -0.0489488 123 
0.303259 -0.594517 -0.0482415 116 
0.303689 -0.594656 -0.0475242 124 
0.303843 -0.594707 -0.0467535 124 
0.303904 -0.594729 -0.0459654 123 
0.304059 -0.59478 -0.0451946 125 
0.304122 -0.594802 -0.0444068 133 
0.303907 -0.594736 -0.0435691 134 
0.304387 -0.594891 -0.0428568 140 
0.304823 -0.595032 -0.042135 140 
0.30498 -0.595084 -0.0413633 139 
0.304766 -0.595018 -0.0405273 137 
0.304925 -0.59507 -0.039756 137 
0.305409 -0.595227 -0.0390396 142 
0.306129 -0.595458 -0.0383609 137 
0.306196 -0.595482 -0.0375721 141 
0.305145 -0.595148 -0.0366012 139 
0.305073 -0.595127 -0.0357924 143 
0.305653 -0.595314 -0.035088 141 
0.305164 -0.59516 -0.0342136 145 
0.305233 -0.595184 -0.0334281 145 
0.305396 -0.595237 -0.0326571 143 
0.305419 -0.595247 -0.0318647 144 
0.30484 -0.595064 -0.0309826 145 
0.305561 -0.595296 -0.0302946 148 
0.305726 -0.59535 -0.0295232 149 
0.305472 -0.595271 -0.0286916 156 
0.305498 -0.595281 -0.0279008 150 
0.305385 -0.595247 -0.0270909 151 
0.305598 -0.595317 -0.0263265 151 
0.305579 -0.595313 -0.0255301 147 
0.305328 -0.595235 -0.0247032 146 
0.304615 -0.595009 -0.0238168 139 
0.304783 -0.595064 -0.0230476 134 
0.304535 -0.594987 -0.0222249 141 
0.304564 -0.594998 -0.0214384 145 
0.304041 -0.594833 -0.0205837 153 
0.303841 -0.594771 -0.0197707 153 
0.303826 -0.594768 -0.0189809 155 
0.30372 -0.594736 -0.0181806 158 
0.304397 -0.594954 -0.0174718 163 
0.303601 -0.594701 -0.0165928 163 
0.303221 -0.594582 -0.0157637 171 
0.302979 -0.594507 -0.0149516 166 
0.302327 -0.5943 -0.0140964 168 
0.301814 -0.594138 -0.0132587 165 
0.301258 -0.593962 -0.0124188 161 
0.301066 -0.593903 -0.0116185 162 
0.300694 -0.593786 -0.0108011 166 
0.300866 -0.593842 -0.0100388 158 
0.300767 -0.593813 -0.00924993 161 
0.300985 -0.593884 -0.00849163 165 
0.301159 -0.593942 -0.00772853 170 
0.301152 -0.593941 -0.00694863 168 
0.301145 -0.593941 -0.00616903 171 
0.301184 -0.593955 -0.00539353 169 
0.301224 -0.59397 -0.00461823 169 
0.301582 -0.594086 -0.00386913 174 
0.301623 -0.594101 -0.00309333 173 
0.301346 -0.594014 -0.00229253 173 
0.301478 -0.594058 -0.00152433 174 
0.301793 -0.594161 -0.000769527 172 
0.301926 -0.594205 -4.2771e-07 171 
0.302699 -0.594454 0.000723672 170 
0.302332 -0.594339 0.00152937 173 
0.301875 -0.594194 0.00233937 170 
0.302238 -0.594312 0.00309407 174 
0.302648 -0.594445 0.00384717 169 
0.302329 -0.594345 0.00464637 174 
0.302375 -0.594362 0.00542247 170 
0.302421 -0.594378 0.00619857 170 
0.30256 -0.594424 0.00696967 165 
0.303293 -0.594661 0.00770947 168 
0.303938 -0.594869 0.00845647 173 
0.304493 -0.595048 0.00921037 173 
0.303531 -0.594742 0.0100385 177 
0.30404 -0.594907 0.0107956 175 
0.303585 -0.594763 0.0115967 178 
0.305571 -0.5954 0.012294 180 
0.305484 -0.595374 0.0130815 173 
0.30406 -0.594921 0.0139193 172 
0.304297 -0.594998 0.0146917 178 
0.304626 -0.595105 0.0154619 176 
0.304818 -0.595168 0.0162376 181 
0.305704 -0.595454 0.0169931 181 
0.305898 -0.595517 0.0177715 185 
0.305814 -0.595493 0.0185578 183 
0.306288 -0.595646 0.0193303 176 
0.306112 -0.595591 0.020119 178 
0.306169 -0.595612 0.0209023 177 
0.306087 -0.595587 0.0216883 184 
0.306238 -0.595637 0.0224701 178 
0.306203 -0.595628 0.0232552 183 
0.306309 -0.595664 0.0240383 183 
0.307487 -0.596042 0.0248103 181 
0.308391 -0.596333 0.0255893 181 
0.307048 -0.595906 0.0263871 182 
0.307202 -0.595957 0.0271724 183 
0.307545 -0.596068 0.0279578 185 
0.307935 -0.596195 0.0287444 182 
0.308373 -0.596337 0.0295325 180 
0.308249 -0.596299 0.0303208 177 
0.308877 -0.596502 0.0311122 177 
0.30866 -0.596434 0.0319004 178 
0.309527 -0.596713 0.0326972 181 
0.309593 -0.596736 0.0334888 183 
0.308764 -0.596473 0.0342695 179 
0.309255 -0.596632 0.0350662 180 
0.310174 -0.596928 0.0358718 184 
0.311193 -0.597256 0.0366829 184 
0.310549 -0.597052 0.0374642 188 
0.309766 -0.596803 0.03824 183 
0.310025 -0.596888 0.039038 187 
0.311045 -0.597216 0.039857 185 
0.311022 -0.59721 0.0406507 190 
0.311094 -0.597235 0.0414472 186 
0.3115 -0.597367 0.0422548 193 
0.312387 -0.597653 0.0430804 186 
0.311743 -0.597449 0.0438546 189 
0.311866 -0.59749 0.0446553 184 
0.313092 -0.597884 0.0455005 186 
0.312592 -0.597726 0.0462786 189 
0.312093 -0.597568 0.047055 193 
0.313418 -0.597994 0.0479126 193 
0.313448 -0.598005 0.0487139 193 
0.314299 -0.59828 0.0495561 194 
0.314089 -0.598214 0.0503472 197 
0.314362 -0.598304 0.0511634 196 
0.314056 -0.598207 0.0519487 200 
0.31404 -0.598204 0.0527496 195 
0.314025 -0.598201 0.0535506 195 
0.313625 -0.598075 0.0543281 194 
0.313852 -0.59815 0.0551439 193 
0.313887 -0.598163 0.0559482 193 
0.314164 -0.598253 0.056769 194 
0.314152 -0.598251 0.0575711 192 
0.31385 -0.598157 0.0583528 198 
0.313935 -0.598186 0.0591617 193 
0.314069 -0.598231 0.0599747 202 
0.313963 -0.598198 0.06077 195 
0.314001 -0.598213 0.0615765 191 
0.314331 -0.59832 0.0624068 194 
0.314419 -0.59835 0.0632187 197 
0.314508 -0.598381 0.0640312 197 
0.31421 -0.598287 0.0648107 193 
0.313913 -0.598194 0.0655894 194 
0.3141 -0.598256 0.0664109 196 
0.314046 -0.59824 0.067211 198 
0.314186 -0.598287 0.0680295 200 
0.314181 -0.598287 0.0688349 200 
0.31408 -0.598257 0.069631 201 
0.313737 -0.598149 0.0704028 198 
0.313589 -0.598104 0.0711933 198 
0.31349 -0.598074 0.0719885 197 
0.313633 -0.598122 0.0728094 193 
0.311899 -0.597568 0.0734283 196 
0.312473 -0.597754 0.0742945 196 
0.313002 -0.597925 0.0751582 195 
0.312665 -0.597819 0.0759255 194 
0.311418 -0.597422 0.0765865 193 
0.311084 -0.597317 0.0773504 192 
0.311277 -0.597381 0.0781763 197 
0.311231 -0.597368 0.0789742 198 
0.310708 -0.597202 0.0797132 198 
0.310234 -0.597053 0.0804567 199 
0.309146 -0.596706 0.0811202 193 
0.30863 -0.596543 0.0818539 193 
0.308633 -0.596546 0.0826542 199 
0.307978 -0.596338 0.0833668 198 
0.308218 -0.596417 0.0841986 198 
0.307988 -0.596345 0.0849669 202 
0.307994 -0.596349 0.0857676 198 
0.307483 -0.596187 0.0864955 197 
0.306272 -0.595801 0.0871214 194 
0.305859 -0.595671 0.0878589 200 
0.30554 -0.595571 0.088609 194 
0.305455 -0.595546 0.089393 195 
0.305278 -0.595491 0.090163 195 
0.304683 -0.595302 0.0908688 192 
0.304368 -0.595203 0.091616 193 
0.304007 -0.595089 0.0923551 186 
0.303555 -0.594947 0.0930787 191 
0.30449 -0.595248 0.0940243 188 
0.303992 -0.59509 0.0947402 189 
0.303035 -0.594786 0.0953788 184 
0.303093 -0.594806 0.0961835 188 
0.304213 -0.595167 0.0971684 186 
0.304365 -0.595217 0.0979925 187 
0.303084 -0.594809 0.0985699 185 
0.303329 -0.594889 0.0994093 184 
0.304268 -0.595192 0.100373 186 
0.303173 -0.594843 0.100977 184 
0.303234 -0.594865 0.101786 181 
0.304082 -0.595138 0.10274 181 
0.304098 -0.595145 0.103544 180 
0.304253 -0.595197 0.104374 174 
0.304317 -0.595219 0.105188 179 
0.30401 -0.595123 0.105932 172 
0.304306 -0.595219 0.106791 172 
0.304185 -0.595183 0.107571 182 
0.304437 -0.595265 0.108424 173 
0.304503 -0.595288 0.109242 173 
0.304383 -0.595252 0.110023 175 
0.304822 -0.595394 0.110917 174 
0.304657 -0.595343 0.11169 174 
0.304492 -0.595292 0.112463 171 
0.304793 -0.595391 0.113333 176 
0.306407 -0.595909 0.114481 175 
0.305492 -0.595618 0.115098 174 
0.305937 -0.595763 0.116004 170 
0.305774 -0.595712 0.11678 170 
0.305377 -0.595587 0.117505 171 
0.305167 -0.595522 0.118271 166 
0.305661 -0.595682 0.119192 170 
0.305921 -0.595767 0.120064 168 
0.306748 -0.596034 0.121066 167 
0.306021 -0.595803 0.121716 172 
0.306425 -0.595934 0.122625 168 
0.307492 -0.596278 0.12369 168 
0.306575 -0.595986 0.124294 166 
0.30736 -0.59624 0.125298 168 
0.307342 -0.596236 0.126114 165 
0.30723 -0.596202 0.126908 167 
0.308115 -0.596487 0.127944 169 
0.30805 -0.596469 0.128752 169 
0.307559 -0.596313 0.129454 167 
0.308066 -0.596478 0.130404 165 
0.308623 -0.596658 0.131369 168 
0.308417 -0.596594 0.132144 173 
0.308881 -0.596745 0.133089 167 
0.308963 -0.596773 0.133938 168 
0.308997 -0.596786 0.134776 163 
0.309032 -0.596799 0.135615 162 
0.309067 -0.596812 0.136455 167 
0.311126 -0.597474 0.137832 162 
0.310149 -0.597163 0.138407 163 
0.311104 -0.597471 0.139498 162 
0.310127 -0.59716 0.14007 157 
0.31031 -0.59722 0.140956 158 
0.311122 -0.597483 0.142016 159 
0.311404 -0.597575 0.142933 156 
0.311056 -0.597465 0.143676 155 
0.311242 -0.597527 0.144568 152 
0.311817 -0.597713 0.145572 151 
0.311421 -0.597588 0.146302 149 
0.311803 -0.597713 0.147254 148 
0.311943 -0.597759 0.148139 153 
0.312327 -0.597885 0.149096 148 
0.311785 -0.597713 0.149783 142 
0.312659 -0.597995 0.150887 140 
0.312507 -0.597948 0.151691 144 
0.314173 -0.598485 0.153039 140 
0.314318 -0.598533 0.153936 138 
0.313576 -0.598297 0.154564 133 
0.31313 -0.598156 0.15528 136 
0.314756 -0.598679 0.156634 137 
0.314259 -0.598522 0.157336 137 
0.313617 -0.598318 0.157992 140 
0.314752 -0.598684 0.159205 135 
0.315199 -0.598829 0.160205 142 
0.315547 -0.598943 0.161176 137 
0.314901 -0.598738 0.16183 129 
0.315748 -0.599012 0.162965 129 
0.316549 -0.59927 0.164089 136 
0.316351 -0.599209 0.16489 132 
0.316704 -0.599324 0.165872 132 
0.316808 -0.599359 0.166774 139 
0.316661 -0.599314 0.167594 135 
0.317016 -0.59943 0.168582 133 
0.31702 -0.599434 0.169453 130 
0.316975 -0.599421 0.170309 128 
0.317483 -0.599586 0.171355 125 
0.318449 -0.599898 0.17256 120 
0.318152 -0.599805 0.173334 118 
0.318513 -0.599923 0.174336 121 
0.318926 -0.600057 0.175358 110 
0.31868 -0.59998 0.176151 105 
0.319248 -0.600165 0.177232 107 
0.319002 -0.600088 0.178026 100 
0.319724 -0.600322 0.179167 99 
0.319377 -0.600212 0.179926 107 
0.320204 -0.60048 0.181111 107 
0.319652 -0.600305 0.181796 106 
0.320226 -0.600491 0.182893 99 
0.320288 -0.600513 0.183804 107 
0.320351 -0.600535 0.184717 102 
0.320569 -0.600607 0.185688 103 
0.321045 -0.600762 0.186758 114 
0.321006 -0.600752 0.187637 110 
0.321794 -0.601007 0.18883 110 
0.320673 -0.600649 0.189298 105 
0.321306 -0.600854 0.190436 112 
0.321527 -0.600927 0.191419 113 
0.321543 -0.600934 0.192323 115 
0.321973 -0.601074 0.19339 111 
0.321626 -0.600965 0.194155 110 
0.321798 -0.601023 0.195123 104 
0.32197 -0.60108 0.196094 104 
0.321832 -0.601038 0.196942 104 
0.322005 -0.601095 0.197915 107 
0.322335 -0.601204 0.198954 111 
0.322615 -0.601295 0.199973 111 
0.322738 -0.601337 0.200932 111 
0.322705 -0.601329 0.201827 110 
0.322673 -0.60132 0.202724 108 
0.322536 -0.601279 0.203578 99 
0.3224 -0.601237 0.204433 97 
0.321379 -0.600912 0.204917 102 
0.321712 -0.601021 0.205968 103 
0.321317 -0.600896 0.206713 110 
0.321598 -0.600989 0.207745 103 
0.321256 -0.600881 0.208512 106 
0.321382 -0.600924 0.20948 109 
0.320937 -0.600783 0.210202 113 
0.321636 -0.601009 0.21142 110 
0.321086 -0.600835 0.212098 109 
0.320746 -0.600728 0.212866 109 
0.320769 -0.600738 0.213793 111 
0.32194 -0.601116 0.215229 112 
0.321547 -0.600992 0.215975 115 
0.320842 -0.600768 0.216582 107 
0.320815 -0.600761 0.217491 111 
0.32058 -0.600688 0.218307 113 
0.320242 -0.600582 0.219075 122 
0.32006 -0.600525 0.219915 113 
0.319671 -0.600403 0.22066 119 
0.318869 -0.600148 0.221214 118 
0.319361 -0.600308 0.222363 122 
0.318302 -0.59997 0.222796 112 
0.31838 -0.599997 0.223755 120 
0.31784 -0.599826 0.224426 131 
0.317353 -0.599672 0.22512 117 
0.316815 -0.599502 0.22579 113 
0.317305 -0.599661 0.226945 104 
0.297325 -0.595781 -0.169519 8 
0.300157 -0.59671 -0.170044 9 
0.301879 -0.597276 -0.170007 13 
0.1024 -0.531985 -0.0715954 6 
0.291136 -0.593764 -0.162939 10 
0.293376 -0.594499 -0.163166 10 
0.304518 -0.598148 -0.167721 14 
0.296674 -0.595583 -0.16302 8 
0.298975 -0.596338 -0.163252 12 
0.297261 -0.595779 -0.161546 13 
0.302219 -0.597404 -0.163039 14 
0.296688 -0.595596 -0.159518 11 
0.290144 -0.593456 -0.155542 9 
0.296488 -0.595534 -0.157674 14 
0.296643 -0.595587 -0.156874 14 
0.298425 -0.596173 -0.156835 14 
0.295845 -0.59533 -0.15476 19 
0.298972 -0.596356 -0.155338 11 
0.297684 -0.595936 -0.15387 14 
0.296636 -0.595595 -0.152518 16 
0.296284 -0.595482 -0.151489 16 
0.297876 -0.596005 -0.151346 12 
0.298452 -0.596196 -0.150737 12 
0.302088 -0.597388 -0.151503 18 
0.300971 -0.597025 -0.150126 17 
0.299159 -0.596434 -0.148446 22 
0.300772 -0.596964 -0.148292 18 
0.300273 -0.596803 -0.147201 19 
0.301705 -0.597273 -0.14696 16 
0.299797 -0.596651 -0.145255 18 
0.295881 -0.595371 -0.142686 18 
0.299463 -0.596545 -0.143377 21 
0.29953 -0.596569 -0.142542 16 
0.300204 -0.596792 -0.141967 22 
0.300038 -0.59674 -0.141032 19 
0.299639 -0.596611 -0.139999 23 
0.299567 -0.59659 -0.139107 16 
0.300055 -0.596752 -0.138451 19 
0.298079 -0.596107 -0.136765 20 
0.299819 -0.596679 -0.136632 24 
0.29919 -0.596475 -0.135513 24 
0.299352 -0.59653 -0.134723 22 
0.300494 -0.596906 -0.134333 20 
0.30019 -0.596808 -0.133352 22 
0.299654 -0.596635 -0.132278 25 
0.300611 -0.59695 -0.131808 22 
0.299238 -0.596503 -0.130403 28 
0.297738 -0.596013 -0.128953 28 
0.295931 -0.595423 -0.127389 29 
0.296459 -0.595598 -0.126753 25 
0.296485 -0.595609 -0.125918 27 
0.296694 -0.595679 -0.125156 27 
0.297361 -0.5959 -0.124572 27 
0.298768 -0.596363 -0.12427 25 
0.296728 -0.595696 -0.122642 25 
0.293808 -0.594742 -0.120687 30 
0.297103 -0.595823 -0.121102 29 
0.294721 -0.595045 -0.119364 35 
0.295428 -0.595279 -0.118794 28 
0.295593 -0.595335 -0.11802 25 
0.292339 -0.594271 -0.115978 29 
0.294025 -0.594825 -0.115772 33 
0.290933 -0.593814 -0.113808 34 
0.290743 -0.593753 -0.112916 33 
0.289804 -0.593448 -0.111753 38 
0.290099 -0.593546 -0.11104 40 
0.289866 -0.593472 -0.110137 41 
0.29003 -0.593528 -0.109377 41 
0.29112 -0.593887 -0.108945 41 
0.291461 -0.594001 -0.108245 38 
0.289468 -0.593349 -0.106728 43 
0.291128 -0.593895 -0.106491 42 
0.290324 -0.593634 -0.105395 43 
0.290093 -0.59356 -0.104501 40 
0.291051 -0.593876 -0.104013 46 
0.290688 -0.593759 -0.103075 46 
0.290634 -0.593743 -0.102242 47 
0.291949 -0.594176 -0.10187 42 
0.291983 -0.594189 -0.101066 47 
0.29193 -0.594174 -0.100233 49 
0.292541 -0.594376 -0.0996204 51 
0.292001 -0.594201 -0.0986294 49 
0.291374 -0.593997 -0.0976124 46 
0.29256 -0.594388 -0.0971844 49 
0.292774 -0.59446 -0.0964394 52 
0.2925 -0.594372 -0.0955404 49 
0.291917 -0.594183 -0.0945444 48 
0.292973 -0.594531 -0.0940664 47 
0.293011 -0.594545 -0.0932674 53 
0.294117 -0.59491 -0.0927994 55 
0.293531 -0.59472 -0.0918064 54 
0.292594 -0.594414 -0.0907094 60 
0.292721 -0.594458 -0.0899404 59 
0.29396 -0.594866 -0.0895064 56 
0.294445 -0.595027 -0.0888424 58 
0.292929 -0.594532 -0.0875804 61 
0.294481 -0.595042 -0.0872334 57 
0.293542 -0.594736 -0.0861494 61 
0.293805 -0.594825 -0.0854194 67 
0.293757 -0.594811 -0.0845994 68 
0.293976 -0.594885 -0.0838564 66 
0.294018 -0.5949 -0.0830634 62 
0.29522 -0.595296 -0.0825994 64 
0.295397 -0.595356 -0.0818424 59 
0.294636 -0.595109 -0.0808224 60 
0.294857 -0.595183 -0.0800794 64 
0.295124 -0.595272 -0.0793494 60 
0.295213 -0.595303 -0.0785684 71 
0.29441 -0.595042 -0.0775464 63 
0.295883 -0.595527 -0.0771424 64 
0.295884 -0.595529 -0.0763374 68 
0.296153 -0.595619 -0.0756054 70 
0.295617 -0.595445 -0.0746604 72 
0.2962 -0.595639 -0.0740114 71 
0.296157 -0.595626 -0.0731974 68 
0.295309 -0.59535 -0.0721774 71 
0.29652 -0.595749 -0.0716864 83 
0.296658 -0.595796 -0.0709194 81 
0.29693 -0.595888 -0.0701862 83 
0.297339 -0.596023 -0.0694865 81 
0.297297 -0.596012 -0.0686744 82 
0.296762 -0.595838 -0.0677419 81 
0.297441 -0.596063 -0.0671074 84 
0.296682 -0.595816 -0.0661238 85 
0.297046 -0.595937 -0.0654125 88 
0.297592 -0.596118 -0.0647431 95 
0.297823 -0.596196 -0.0639982 96 
0.298371 -0.596377 -0.0633267 92 
0.29874 -0.5965 -0.062612 100 
0.298566 -0.596445 -0.061772 98 
0.299072 -0.596613 -0.0610875 100 
0.299806 -0.596855 -0.060453 101 
0.299496 -0.596756 -0.059583 110 
0.299686 -0.59682 -0.0588254 112 
0.29965 -0.59681 -0.0580177 112 
0.299795 -0.596859 -0.0572502 109 
0.300033 -0.596939 -0.0565023 103 
0.300134 -0.596974 -0.0557249 99 
0.300783 -0.597189 -0.0550632 107 
0.300976 -0.597254 -0.0543042 107 
0.300805 -0.5972 -0.0534692 105 
0.301045 -0.597281 -0.0527198 108 
0.30179 -0.597527 -0.0520723 110 
0.302491 -0.597759 -0.0514136 110 
0.301999 -0.597599 -0.0505148 109 
0.302932 -0.597907 -0.0498995 115 
0.302577 -0.597793 -0.0490295 119 
0.303375 -0.598056 -0.048384 125 
0.303343 -0.598048 -0.0475772 120 
0.302943 -0.597918 -0.0467012 120 
0.303097 -0.597971 -0.0459309 132 
0.303528 -0.598114 -0.0452117 131 
0.303406 -0.598076 -0.0443899 128 
0.303376 -0.598068 -0.0435858 127 
0.303809 -0.598212 -0.042865 125 
0.303735 -0.598189 -0.042053 125 
0.30454 -0.598456 -0.0413959 126 
0.304883 -0.59857 -0.0406559 127 
0.304763 -0.598532 -0.0398355 130 
0.305154 -0.598663 -0.0391026 132 
0.304431 -0.598427 -0.038182 143 
0.304637 -0.598497 -0.0374183 134 
0.304565 -0.598475 -0.0366087 137 
0.30519 -0.598682 -0.0359123 141 
0.305304 -0.598722 -0.0351324 147 
0.305373 -0.598746 -0.0343452 145 
0.305675 -0.598847 -0.0335943 141 
0.305326 -0.598734 -0.0327426 142 
0.304978 -0.598622 -0.0318928 155 
0.305327 -0.598738 -0.031149 148 
0.305444 -0.598779 -0.03037 147 
0.305283 -0.598728 -0.0295503 146 
0.304845 -0.598586 -0.0286916 145 
0.305103 -0.598672 -0.0279337 149 
0.306526 -0.599141 -0.0273379 151 
0.305388 -0.59877 -0.026384 152 
0.305183 -0.598704 -0.0255616 152 
0.305165 -0.5987 -0.0247652 152 
0.304822 -0.59859 -0.0239265 148 
0.304296 -0.598419 -0.0230656 151 
0.30451 -0.598491 -0.0223017 149 
0.304678 -0.598548 -0.0215315 152 
0.304616 -0.59853 -0.0207323 156 
0.304416 -0.598466 -0.0199168 155 
0.304262 -0.598417 -0.019108 164 
0.304109 -0.598369 -0.0183001 163 
0.303865 -0.598291 -0.0174825 168 
0.30422 -0.598409 -0.0167345 164 
0.304023 -0.598346 -0.0159234 166 
0.30355 -0.598193 -0.015083 164 
0.302758 -0.597935 -0.0142101 160 
0.302289 -0.597783 -0.0133749 156 
0.302644 -0.597901 -0.0126278 157 
0.301311 -0.597466 -0.0117067 158 
0.301075 -0.59739 -0.0109011 160 
0.30102 -0.597374 -0.0101146 163 
0.301102 -0.597402 -0.00934173 167 
0.300641 -0.597253 -0.00851733 165 
0.300769 -0.597297 -0.00774953 169 
0.30058 -0.597237 -0.00695273 169 
0.30071 -0.597281 -0.00618503 167 
0.300613 -0.597251 -0.00539753 167 
0.301015 -0.597385 -0.00465273 168 
0.300873 -0.59734 -0.00386163 173 
0.300552 -0.597237 -0.00305673 168 
0.301091 -0.597415 -0.00232113 170 
0.301042 -0.597401 -0.00153833 176 
0.301401 -0.597521 -0.000786527 171 
0.302811 -0.597986 -0.000110327 170 
0.301396 -0.597523 0.000772272 175 
0.301712 -0.597629 0.00152937 174 
0.301847 -0.597675 0.00229967 172 
0.301664 -0.597617 0.00309117 176 
0.301936 -0.597708 0.00385297 174 
0.30262 -0.597934 0.00459037 174 
0.302895 -0.598026 0.00535467 175 
0.303125 -0.598104 0.00612247 174 
0.302989 -0.598061 0.00691137 173 
0.30322 -0.598138 0.00767997 177 
0.303314 -0.598171 0.00845647 176 
0.303271 -0.598159 0.00923997 174 
0.303366 -0.598192 0.0100166 176 
0.303186 -0.598135 0.0108061 179 
0.303328 -0.598183 0.0115807 180 
0.3037 -0.598307 0.0123461 182 
0.303705 -0.598311 0.0131275 181 
0.304309 -0.598511 0.0138861 179 
0.303626 -0.598288 0.0146934 178 
0.304598 -0.59861 0.0154414 175 
0.304237 -0.598493 0.0162361 176 
0.30466 -0.598634 0.0170056 179 
0.305407 -0.598881 0.0177675 176 
0.305139 -0.598795 0.018559 177 
0.305565 -0.598936 0.0193325 176 
0.305575 -0.598942 0.0201169 181 
0.305817 -0.599023 0.0208966 181 
0.305596 -0.598952 0.0216857 181 
0.306397 -0.599217 0.022457 182 
0.306641 -0.599299 0.0232395 183 
0.305632 -0.59897 0.0240389 182 
0.306388 -0.59922 0.0248153 181 
0.307427 -0.599563 0.0255922 180 
0.306415 -0.599233 0.0263871 178 
0.306849 -0.599377 0.0271711 180 
0.307378 -0.599552 0.0279564 178 
0.307815 -0.599698 0.0287438 185 
0.307597 -0.599628 0.0295324 182 
0.308082 -0.599789 0.0303221 180 
0.308006 -0.599766 0.0311111 180 
0.308211 -0.599836 0.0319017 181 
0.30823 -0.599844 0.0326914 181 
0.309899 -0.600394 0.0334989 182 
0.309682 -0.600324 0.0342891 183 
0.309041 -0.600116 0.0350723 182 
0.309014 -0.600109 0.0358633 185 
0.309649 -0.600319 0.0366663 188 
0.30986 -0.60039 0.0374632 184 
0.310167 -0.600493 0.0382632 191 
0.310427 -0.60058 0.0390633 191 
0.310213 -0.600512 0.039852 188 
0.310807 -0.600709 0.0406627 188 
0.313079 -0.601458 0.0415264 191 
0.311571 -0.600964 0.0422778 191 
0.310739 -0.600693 0.0430463 190 
0.311051 -0.600797 0.0438529 191 
0.311889 -0.601074 0.0446807 187 
0.312972 -0.601432 0.0455216 189 
0.312232 -0.60119 0.0462906 189 
0.311925 -0.601092 0.0470759 193 
0.312433 -0.601261 0.0478972 192 
0.313473 -0.601604 0.048746 194 
0.313552 -0.601632 0.0495513 197 
0.313727 -0.601691 0.0503621 200 
0.313614 -0.601656 0.0511582 196 
0.313261 -0.601542 0.0519407 196 
0.31339 -0.601586 0.0527496 197 
0.313568 -0.601647 0.0535621 194 
0.313891 -0.601755 0.0543843 191 
0.314022 -0.6018 0.0551958 190 
0.314009 -0.601797 0.0559985 192 
0.31516 -0.602177 0.0568796 194 
0.313887 -0.601761 0.0575978 195 
0.314504 -0.601966 0.0584455 195 
0.313864 -0.601757 0.059204 192 
0.314337 -0.601915 0.0600436 192 
0.314327 -0.601913 0.0608481 191 
0.314657 -0.602024 0.0616796 194 
