0.413443,-0.0718201,-0.11003,65
0.413352,-0.0717938,-0.1092,73
0.413666,-0.0718932,-0.10848,71
0.413395,-0.0718112,-0.107603,67
0.413395,-0.0718131,-0.106799,66
0.413531,-0.0718569,-0.106032,67
0.413981,-0.0719987,-0.105348,72
0.414072,-0.0720289,-0.104568,74
0.415112,-0.0723537,-0.104036,69
0.4143,-0.0721036,-0.103022,72
0.414347,-0.0721201,-0.102232,73
0.414666,-0.0722208,-0.101511,75
0.415165,-0.0723779,-0.100835,76
0.415712,-0.0725496,-0.100169,75
0.414675,-0.0722294,-0.0991088,84
0.415311,-0.0724289,-0.0984649,86
0.415315,-0.0724321,-0.0976647,89
0.415094,-0.0723652,-0.0968105,89
0.415959,-0.0726358,-0.0962184,87
0.415873,-0.0726111,-0.0953971,92
0.415788,-0.0725866,-0.0945768,93
0.417067,-0.0729856,-0.0940763,100
0.416754,-0.0728904,-0.0932022,96
0.417491,-0.073121,-0.0925709,98
0.417817,-0.0732244,-0.0918439,99
0.417186,-0.07303,-0.0908994,105
0.417513,-0.0731335,-0.0901728,107
0.417978,-0.0732799,-0.0894759,104
0.418124,-0.0733271,-0.0887074,104
0.41882,-0.0735454,-0.0880589,107
0.418508,-0.0734504,-0.0871902,109
0.419207,-0.0736693,-0.0865395,108
0.419539,-0.0737744,-0.0858088,111
0.419596,-0.0737939,-0.0850193,117
0.419238,-0.0736847,-0.084144,115
0.419388,-0.073733,-0.0833749,116
0.419078,-0.0736386,-0.082512,110
0.419918,-0.0739016,-0.0818832,113
0.420069,-0.0739504,-0.0811136,115
0.41999,-0.0739277,-0.0802981,112
0.420928,-0.0742209,-0.0796829,116
0.420571,-0.074112,-0.0788132,115
0.421141,-0.0742909,-0.0781232,115
0.421295,-0.0743406,-0.0773523,121
0.421171,-0.074304,-0.0765289,114
0.421186,-0.0743107,-0.0757325,118
0.421434,-0.0743896,-0.0749791,122
0.42238,-0.0746855,-0.0743525,131
0.421931,-0.074548,-0.0734711,128
0.422088,-0.0745986,-0.0726998,128
0.422059,-0.0745915,-0.0718956,127
0.42231,-0.0746713,-0.0711406,139
0.422329,-0.074679,-0.0703449,140
0.422907,-0.0748607,-0.0696451,138
0.422321,-0.0746803,-0.068747,134
0.422388,-0.0747029,-0.0679604,141
0.423294,-0.0749866,-0.0673121,136
0.423268,-0.0749804,-0.066509,140
0.422543,-0.074757,-0.065594,137
0.422705,-0.0748091,-0.064823,137
0.422262,-0.0746733,-0.0639569,140
0.42261,-0.0747835,-0.0632153,142
0.422308,-0.0746913,-0.0623734,141
0.422239,-0.0746717,-0.0615681,145
0.42217,-0.0746522,-0.0607635,144
0.422846,-0.0748642,-0.0600688,152
0.422406,-0.0747292,-0.0592101,148
0.422338,-0.0747102,-0.0584067,146
0.422457,-0.0747491,-0.0576302,147
0.422066,-0.0746293,-0.0567827,155
0.42214,-0.074654,-0.0560006,146
0.421426,-0.0744341,-0.0551123,149
0.421362,-0.0744159,-0.0543134,147
0.420698,-0.0742116,-0.0534366,150
0.420819,-0.0742511,-0.052664,147
0.420803,-0.0742477,-0.0518737,152
0.420602,-0.0741873,-0.0510607,153
0.420817,-0.0742559,-0.0502999,160
0.42025,-0.0740815,-0.0494438,158
0.420235,-0.0740788,-0.0486561,163
0.420083,-0.0740334,-0.0478525,165
0.419978,-0.0740025,-0.0470553,165
0.419324,-0.0738011,-0.0461964,166
0.419038,-0.0737139,-0.0453813,164
0.418116,-0.0734291,-0.0444978,166
0.418195,-0.0734556,-0.0437261,161
0.417459,-0.0732285,-0.0428681,159
0.418264,-0.0734808,-0.0421732,164
0.417755,-0.0733244,-0.0413415,160
0.417293,-0.0731826,-0.0405167,161
0.417918,-0.0733787,-0.0398004,164
0.418046,-0.0734202,-0.0390341,169
0.417584,-0.0732787,-0.0382122,162
0.417939,-0.0733908,-0.0374674,168
0.417299,-0.0731934,-0.0366317,165
0.417608,-0.0732916,-0.0358826,169
0.41801,-0.0734183,-0.0351403,171
0.417551,-0.0732776,-0.0343242,175
0.417501,-0.0732637,-0.0335436,175
0.41813,-0.0734612,-0.0328181,174
0.418217,-0.0734899,-0.0320477,165
0.41844,-0.0735612,-0.0312876,169
0.418527,-0.0735902,-0.0305167,167
0.418661,-0.0736336,-0.029749,169
0.418567,-0.0736064,-0.0289649,176
0.418293,-0.0735229,-0.0281688,171
0.418746,-0.0736656,-0.0274226,175
0.419428,-0.0738796,-0.0266897,172
0.418972,-0.0737396,-0.0258825,170
0.419063,-0.0737697,-0.0251107,173
0.4187,-0.0736585,-0.0243118,178
0.419475,-0.0739015,-0.0235795,173
0.42007,-0.0740885,-0.0228344,172
0.420255,-0.0741479,-0.0220653,169
0.420441,-0.0742075,-0.0212955,166
0.420581,-0.074253,-0.020523,173
0.420401,-0.0741989,-0.0197348,174
0.420543,-0.0742447,-0.018962,178
0.420685,-0.0742907,-0.0181888,172
0.420873,-0.0743512,-0.0174171,178
0.420741,-0.0743119,-0.016632,174
0.421299,-0.0744872,-0.0158736,178
0.421997,-0.0747061,-0.0151181,176
0.421542,-0.0745666,-0.014321,177
0.421826,-0.0746568,-0.0135492,180
0.421973,-0.0747042,-0.0127723,182
0.422305,-0.0748093,-0.0120001,181
0.423055,-0.0750446,-0.0112377,183
0.42274,-0.0749484,-0.0104465,182
0.423028,-0.0750399,-0.00967014,183
0.423364,-0.0751462,-0.00889363,187
0.4237,-0.0752528,-0.00811588,185
0.423247,-0.0751135,-0.00732381,183
0.423584,-0.0752204,-0.00654506,184
0.423969,-0.0753421,-0.00576564,185
0.425152,-0.0757118,-0.00499328,184
0.42395,-0.0753397,-0.00419545,181
0.42518,-0.0757242,-0.00341891,185
0.425664,-0.0758768,-0.00263397,181
0.425868,-0.075942,-0.00184632,185
0.42485,-0.0756274,-0.00105663,182
0.4259,-0.0759558,-0.000268998,182
0.425634,-0.0758751,0.000518969,186
0.425746,-0.0759116,0.00130772,186
0.425858,-0.0759483,0.00209693,184
0.425971,-0.0759853,0.0028866,192
0.42566,-0.0758905,0.00367225,184
0.426245,-0.0760743,0.00446795,189
0.426123,-0.0760384,0.00525573,189
0.426521,-0.0761642,0.0060516,190
0.427063,-0.0763345,0.00685169,187
0.428224,-0.0766979,0.00766649,193
0.428342,-0.0767364,0.00846268,189
0.427604,-0.0765086,0.00923871,187
0.428532,-0.0767992,0.0100554,189
0.428032,-0.0766455,0.0108357,190
0.428342,-0.0767439,0.0116385,186
0.428272,-0.076724,0.0124304,189
0.42825,-0.076719,0.0132237,193
0.428562,-0.0768181,0.014029,190
0.429354,-0.0770665,0.0148537,188
0.428569,-0.0768239,0.0156191,185
0.428883,-0.0769236,0.0164272,187
0.428912,-0.0769344,0.0172242,193
0.42875,-0.0768858,0.0180127,196
0.429306,-0.0770607,0.0188348,196
0.430296,-0.077371,0.0196806,193
0.431534,-0.0777583,0.0205431,195
0.431324,-0.0776947,0.0213334,193
0.431018,-0.0776012,0.0221177,190
0.431196,-0.0776585,0.0229286,185
0.430794,-0.0775353,0.0237062,190
0.431069,-0.0776229,0.0245236,191
0.431394,-0.0777259,0.0253453,191
0.431429,-0.0777387,0.0261497,190
0.431271,-0.0776914,0.0269415,194
0.43121,-0.0776743,0.0277395,192
0.431102,-0.0776424,0.0285341,192
0.432498,-0.078079,0.0294377,189
0.431128,-0.0776544,0.0301406,192
0.431845,-0.0778795,0.0309981,191
0.431108,-0.0776521,0.0317445,190
0.431147,-0.0776662,0.0325506,195
0.431284,-0.0777106,0.0333651,196
0.431179,-0.0776799,0.03416,193
0.430978,-0.0776192,0.0349464,197
0.431407,-0.0777546,0.0357878,193
0.431304,-0.0777243,0.036583,194
0.431056,-0.077649,0.0373648,194
0.430953,-0.0776191,0.0381595,197
0.431239,-0.07771,0.0389914,199
0.430703,-0.0775448,0.039744,196
0.431086,-0.077666,0.0405866,196
0.430357,-0.0774411,0.0413178,198
0.430065,-0.0773521,0.0420917,196
0.429054,-0.0770389,0.0427885,199
0.429196,-0.0770851,0.043606,196
0.428859,-0.076982,0.0443717,196
0.428619,-0.0769091,0.0451472,192
0.428523,-0.0768811,0.0459384,193
0.428045,-0.0767342,0.0466854,198
0.428141,-0.0767661,0.0474982,199
0.428094,-0.0767535,0.0482947,198
0.427286,-0.0765035,0.0489987,199
0.426528,-0.0762693,0.0497061,204
0.426578,-0.0762868,0.0505121,203
0.425635,-0.0759949,0.0511921,200
0.425874,-0.0760714,0.0520217,200
0.425547,-0.0759715,0.0527782,201
0.42541,-0.0759307,0.0535589,200
0.424521,-0.0756555,0.0542378,193
0.424855,-0.0757615,0.0550813,198
0.424814,-0.0757506,0.0558742,198
0.4229,-0.0751562,0.0564032,197
0.422766,-0.0751166,0.0571796,195
0.422354,-0.0749901,0.0579154,195
0.422083,-0.0749074,0.0586706,192
0.422137,-0.0749262,0.0594736,193
0.42196,-0.0748728,0.0602421,193
0.421551,-0.0747473,0.060975,192
0.42119,-0.0746366,0.061714,192
0.421616,-0.0747713,0.0625753,187
0.420654,-0.0744737,0.0632185,190
0.420619,-0.0744644,0.064007,191
0.420537,-0.0744409,0.0647882,190
0.420641,-0.074475,0.0656,189
0.420514,-0.0744374,0.0663742,189
0.420019,-0.0742851,0.0670863,190
0.42179,-0.0748386,0.068183,186
0.421849,-0.0748592,0.0689921,190
0.420658,-0.0744899,0.0695835,184
0.420395,-0.0744098,0.0703345,176
0.420918,-0.0745746,0.071225,180
0.421397,-0.0747257,0.07211,180
0.420671,-0.0745015,0.0727777,179
0.420087,-0.0743212,0.0734689,173
0.420842,-0.0745586,0.074408,173
0.420397,-0.0744216,0.0751243,173
0.421155,-0.0746598,0.0760684,169
0.421405,-0.0747396,0.0769181,170
0.421703,-0.0748342,0.0777786,170
0.421303,-0.0747116,0.0785038,171
0.421834,-0.074879,0.0794125,175
0.421761,-0.0748581,0.0802026,177
0.421642,-0.0748228,0.0809837,177
0.421942,-0.0749184,0.0818504,177
0.422711,-0.07516,0.0828155,176
0.422686,-0.0751542,0.0836188,174
0.422803,-0.0751923,0.0844521,169
0.422498,-0.0750992,0.0851969,170
0.422802,-0.075196,0.0860716,171
0.423061,-0.0752785,0.0869381,169
0.423038,-0.0752734,0.0877447,170
0.423439,-0.0754003,0.088645,168
0.423276,-0.0753515,0.0894222,165
0.423302,-0.0753614,0.0902415,165
0.423234,-0.0753422,0.0910402,164
0.42345,-0.0754112,0.0919037,166
0.423618,-0.0754657,0.0927579,164
0.424355,-0.0756972,0.0937453,164
0.424525,-0.0757523,0.0946035,162
0.424459,-0.0757337,0.095407,163
0.424489,-0.0757448,0.0962336,164
0.425041,-0.0759189,0.0971864,164
0.425214,-0.0759748,0.0980501,164
0.425388,-0.076031,0.0989153,164
0.425229,-0.0759834,0.0996997,157
0.42569,-0.076129,0.100638,162
0.425914,-0.0762007,0.101519,163
0.425995,-0.0762279,0.102366,164
0.426363,-0.0763448,0.103287,165
0.427214,-0.076612,0.104334,166
0.427201,-0.0766098,0.105161,165
0.427429,-0.0766829,0.106051,161
0.427948,-0.0768466,0.10702,161
0.427501,-0.0767094,0.107736,156
0.427731,-0.0767831,0.10863,162
0.427479,-0.0767063,0.109397,157
0.428388,-0.0769916,0.110478,157
0.428378,-0.0769905,0.111312,153
0.428514,-0.0770349,0.112188,154
0.428165,-0.0769281,0.11293,149
0.429226,-0.0772609,0.114064,155
0.429412,-0.0773211,0.114958,148
0.428966,-0.0771839,0.115674,147
0.429789,-0.0774424,0.11675,148
0.429782,-0.0774423,0.117593,146
0.429629,-0.0773965,0.118393,150
0.430211,-0.07758,0.119408,142
0.429862,-0.0774733,0.120153,142
0.430642,-0.0777186,0.121231,137
0.431772,-0.0780731,0.122416,139
0.431373,-0.0779506,0.123149,138
0.43236,-0.0782604,0.124298,135
0.432308,-0.0782461,0.125137,138
0.432256,-0.0782319,0.125977,138
0.432552,-0.0783262,0.126924,142
0.432451,-0.0782968,0.12775,133
0.432599,-0.078345,0.128653,133
0.433246,-0.078549,0.129715,131
0.433746,-0.0787069,0.130734,135
0.433647,-0.0786779,0.131565,131
0.434149,-0.0788366,0.132588,128
0.435005,-0.0791058,0.133729,125
0.434303,-0.0788887,0.134368,126
0.434456,-0.0789385,0.135285,128
0.434811,-0.0790513,0.136269,127
0.435117,-0.0791488,0.137238,125
0.435475,-0.0792625,0.138228,132
0.435884,-0.0793923,0.139236,125
0.436346,-0.0795384,0.140265,123
0.436911,-0.0797169,0.141331,117
0.436408,-0.0795619,0.142037,119
0.437332,-0.0798523,0.14323,115
0.437032,-0.0797608,0.144006,109
0.43704,-0.0797652,0.144888,103
0.43761,-0.0799452,0.145967,107
0.438131,-0.0801099,0.147032,102
0.438191,-0.0801308,0.147937,98
0.438973,-0.0803768,0.1491,95
0.437953,-0.0800606,0.149622,96
0.438168,-0.0801299,0.150585,94
0.438282,-0.0801674,0.151513,102
0.438447,-0.080221,0.152461,97
0.439492,-0.0805492,0.153733,96
0.440439,-0.0808469,0.154974,94
0.439776,-0.080642,0.155623,101
0.438701,-0.0803086,0.156117,100
0.439594,-0.0805895,0.157344,107
0.439712,-0.0806283,0.158284,99
0.439986,-0.0807159,0.159284,99
0.43948,-0.0805603,0.159989,101
0.439183,-0.0804698,0.160773,108
0.440448,-0.0808664,0.162158,106
0.440725,-0.080955,0.163166,112
0.441055,-0.0810603,0.164198,111
0.440967,-0.081035,0.165067,114
0.441509,-0.0812062,0.166185,112
0.441842,-0.0813124,0.167224,115
0.441492,-0.0812053,0.167993,114
0.442037,-0.0813776,0.16912,114
0.441319,-0.0811556,0.169741,111
0.441076,-0.0810817,0.170553,118
0.440833,-0.081008,0.171364,113
0.441589,-0.0812461,0.172583,112
0.441398,-0.0811889,0.173418,112
0.44084,-0.0810169,0.174101,116
0.441546,-0.0812392,0.175306,106
0.440515,-0.0809196,0.175791,110
0.441589,-0.0812571,0.177156,110
0.4414,-0.0812003,0.177993,116
0.440055,-0.0807827,0.178341,108
0.440078,-0.0807918,0.179266,104
0.440258,-0.0808502,0.18026,106
0.439599,-0.0806468,0.180894,114
0.44062,-0.0809676,0.182253,109
0.440171,-0.0808295,0.182978,108
0.439513,-0.0806263,0.183611,108
0.439642,-0.0806688,0.184587,107
0.4393,-0.0805641,0.185357,107
0.438958,-0.0804596,0.186127,116
0.43914,-0.0805186,0.187129,113
0.439166,-0.0805288,0.188063,112
0.438459,-0.0803103,0.188669,113
0.438433,-0.0803043,0.18958,116
0.438198,-0.0802331,0.190397,112
0.43812,-0.0802109,0.191285,114
0.437416,-0.0799935,0.191888,108
0.436612,-0.0797444,0.192442,116
0.436846,-0.0798198,0.193474,114
0.436302,-0.0796522,0.194146,114
0.435605,-0.0794366,0.194745,124
0.435581,-0.0794312,0.195657,107
0.435556,-0.0794258,0.196571,113
0.435223,-0.0793238,0.197338,114
0.413401,-0.0750263,-0.198623,10
0.41802,-0.0765,-0.200035,8
0.416139,-0.075903,-0.198212,15
0.413163,-0.0749566,-0.195859,8
0.420301,-0.0772332,-0.198479,14
0.414585,-0.0754141,-0.194795,13
0.417371,-0.0763038,-0.195267,11
0.416723,-0.0760995,-0.194067,15
0.413977,-0.0752264,-0.191861,12
0.412649,-0.0748055,-0.190348,10
0.417663,-0.0764051,-0.191866,11
0.413976,-0.0752324,-0.189232,12
0.416513,-0.0760431,-0.189556,14
0.413498,-0.0750844,-0.187258,19
0.420529,-0.0773271,-0.189679,13
0.416795,-0.0761392,-0.187052,13
0.415033,-0.0755798,-0.185358,13
0.412506,-0.0747762,-0.183318,8
0.417975,-0.0765213,-0.184965,13
0.416486,-0.0760489,-0.183407,15
0.417961,-0.0765211,-0.183205,13
0.418593,-0.0767245,-0.182616,13
0.416538,-0.0760718,-0.180813,22
0.418249,-0.0766192,-0.18071,19
0.419546,-0.0770345,-0.180415,21
0.419136,-0.0769062,-0.179358,18
0.41854,-0.076718,-0.17822,16
0.416631,-0.0761117,-0.176508,18
0.4174,-0.0763589,-0.175977,18
0.418266,-0.076637,-0.175487,20
0.417721,-0.0764653,-0.174382,18
0.4176,-0.0764288,-0.173463,20
0.417152,-0.0762879,-0.172404,24
0.418676,-0.0767758,-0.172191,19
0.420544,-0.0773733,-0.172119,23
0.418953,-0.0768682,-0.170576,20
0.418173,-0.0766218,-0.169382,20
0.417398,-0.0763765,-0.168194,18
0.41864,-0.0767746,-0.167851,22
0.417629,-0.0764543,-0.16657,22
0.418543,-0.0767477,-0.166087,23
0.416228,-0.0760119,-0.164277,21
0.420098,-0.0772476,-0.165,17
0.41772,-0.0764916,-0.163173,23
0.416717,-0.0761739,-0.161911,25
0.417721,-0.0764958,-0.16146,22
0.419293,-0.0769993,-0.161233,23
0.417023,-0.0762774,-0.159473,23
0.416165,-0.0760059,-0.158282,28
0.415728,-0.0758684,-0.15726,24
0.415107,-0.0756726,-0.156169,25
0.416938,-0.0762583,-0.156035,24
0.413554,-0.0751814,-0.153878,29
0.413307,-0.0751046,-0.152941,26
0.413563,-0.075188,-0.152199,33
0.413043,-0.0750243,-0.151161,38
0.414304,-0.0754282,-0.1508,34
0.412599,-0.0748866,-0.149319,34
0.413765,-0.0752605,-0.14892,31
0.41112,-0.0744188,-0.147098,32
0.411014,-0.074387,-0.146228,29
0.411584,-0.0745707,-0.145607,26
0.409372,-0.0738672,-0.143968,29
0.409536,-0.0739215,-0.143202,32
0.409032,-0.0737628,-0.142195,34
0.409954,-0.0740589,-0.141703,37
0.407942,-0.0734189,-0.14016,40
0.408416,-0.073572,-0.139508,44
0.408094,-0.0734712,-0.138575,51
0.409456,-0.0739079,-0.138234,41
0.408424,-0.0735804,-0.137053,46
0.409032,-0.0737765,-0.136446,45
0.408799,-0.0737041,-0.135547,44
0.409409,-0.0739007,-0.134939,44
0.408379,-0.073574,-0.13377,49
0.408502,-0.073615,-0.132996,48
0.409511,-0.0739388,-0.132521,49
0.410436,-0.0742358,-0.132014,47
0.410069,-0.0741208,-0.131074,45
0.408729,-0.0736951,-0.129816,42
0.409961,-0.0740903,-0.129407,47
0.410665,-0.0743168,-0.128822,44
0.409899,-0.0740744,-0.127759,46
0.409713,-0.074017,-0.126886,49
0.410061,-0.0741298,-0.126185,50
0.409654,-0.0740018,-0.125243,48
0.409691,-0.0740155,-0.124444,46
0.409418,-0.0739304,-0.123548,41
0.411593,-0.0746262,-0.123416,50
0.410381,-0.0742416,-0.122229,50
0.410153,-0.0741707,-0.121348,49
0.411261,-0.074526,-0.120878,56
0.410765,-0.0743696,-0.119917,58
0.410893,-0.0744125,-0.119147,59
0.412094,-0.0747977,-0.118698,56
0.411955,-0.0747552,-0.117846,61
0.411816,-0.0747129,-0.116996,60
0.411991,-0.0747706,-0.116238,62
0.411407,-0.074586,-0.11526,60
0.412656,-0.0749866,-0.114815,62
0.412384,-0.0749016,-0.113928,63
0.412515,-0.0749455,-0.113158,64
0.412244,-0.0748609,-0.112274,61
0.412018,-0.0747908,-0.111405,63
0.412553,-0.0749635,-0.110749,64
0.412194,-0.0748507,-0.109844,66
0.412506,-0.0749522,-0.109126,69
0.413223,-0.0751828,-0.108517,69
0.413402,-0.075242,-0.107761,65
0.414122,-0.0754737,-0.107149,70
0.413762,-0.0753606,-0.106247,66
0.414439,-0.0755785,-0.105622,69
0.412776,-0.0750497,-0.10438,68
0.4139,-0.0754102,-0.103871,70
0.413317,-0.0752262,-0.102917,70
0.413858,-0.0754008,-0.102255,74
0.413681,-0.0753461,-0.101408,76
0.414133,-0.0754924,-0.100721,74
0.414181,-0.0755097,-0.0999314,83
0.414455,-0.075599,-0.0991983,87
0.415725,-0.0760063,-0.0987104,88
0.415684,-0.0759949,-0.0978971,84
0.416096,-0.0761286,-0.0971946,86
0.414969,-0.0757705,-0.0961205,85
0.414974,-0.0757741,-0.0953216,88
0.416157,-0.0761537,-0.0948018,92
0.415755,-0.0760271,-0.093906,93
0.415308,-0.0758865,-0.093002,95
0.416448,-0.0762523,-0.092466,96
0.416364,-0.0762275,-0.0916462,95
0.417054,-0.0764496,-0.0910026,100
0.416153,-0.0761637,-0.0899993,99
0.417207,-0.0765022,-0.0894353,106
0.417535,-0.0766087,-0.0887074,107
0.417224,-0.0765115,-0.0878392,107
0.41769,-0.0766621,-0.0871408,111
0.417563,-0.0766234,-0.0863137,114
0.41803,-0.0767744,-0.0856139,103
0.418223,-0.0768381,-0.0848552,104
0.418601,-0.0769605,-0.0841345,113
0.41875,-0.0770099,-0.0833655,112
0.419083,-0.0771182,-0.082634,113
0.418544,-0.0769481,-0.0817251,108
0.419936,-0.0773944,-0.081206,107
0.419396,-0.0772239,-0.0802981,110
0.41987,-0.0773771,-0.0795922,110
0.419654,-0.0773099,-0.0787504,123
0.420129,-0.0774635,-0.0780431,116
0.420559,-0.0776028,-0.0773258,124
0.420713,-0.0776538,-0.0765551,124
0.420774,-0.0776754,-0.075767,123
0.420929,-0.0777267,-0.0749962,125
0.420992,-0.0777486,-0.0742084,133
0.420777,-0.077682,-0.0733707,134
0.421257,-0.0778373,-0.0726584,140
0.421693,-0.0779781,-0.0719366,140
0.42185,-0.0780303,-0.0711649,139
0.421636,-0.077964,-0.0703289,137
0.421795,-0.0780164,-0.0695576,137
0.422279,-0.0781731,-0.0688412,142
0.422999,-0.0784047,-0.0681625,137
0.423066,-0.0784281,-0.0673737,141
0.422015,-0.0780943,-0.0664028,139
0.421943,-0.0780733,-0.065594,143
0.422523,-0.0782604,-0.0648896,141
0.422034,-0.078106,-0.0640152,145
0.422103,-0.07813,-0.0632297,145
0.422266,-0.0781838,-0.0624587,143
0.422289,-0.0781932,-0.0616663,144
0.42171,-0.07801,-0.0607842,145
0.422431,-0.0782423,-0.0600962,148
0.422596,-0.0782968,-0.0593248,149
0.422342,-0.0782177,-0.0584932,156
0.422368,-0.0782279,-0.0577024,150
0.422255,-0.0781937,-0.0568925,151
0.422468,-0.0782636,-0.0561281,151
0.422449,-0.0782593,-0.0553317,147
0.422198,-0.0781811,-0.0545048,146
0.421485,-0.0779552,-0.0536184,139
0.421653,-0.0780106,-0.0528492,134
0.421405,-0.0779332,-0.0520265,141
0.421434,-0.0779446,-0.05124,145
0.420911,-0.0777792,-0.0503853,153
0.420711,-0.0777173,-0.0495723,153
0.420696,-0.0777144,-0.0487825,155
0.42059,-0.0776823,-0.0479822,158
0.421267,-0.0779006,-0.0472734,163
0.420471,-0.0776479,-0.0463944,163
0.420091,-0.0775283,-0.0455653,171
0.419849,-0.077453,-0.0447532,166
0.419197,-0.0772465,-0.043898,168
0.418684,-0.0770844,-0.0430603,165
0.418128,-0.0769085,-0.0422204,161
0.417936,-0.0768491,-0.0414201,162
0.417564,-0.0767321,-0.0406027,166
0.417736,-0.0767889,-0.0398404,158
0.417637,-0.0767591,-0.0390515,161
0.417855,-0.0768307,-0.0382932,165
0.418029,-0.0768881,-0.0375301,170
0.418022,-0.0768876,-0.0367502,168
0.418015,-0.0768873,-0.0359706,171
0.418054,-0.0769017,-0.0351951,169
0.418094,-0.0769162,-0.0344198,169
0.418452,-0.0770324,-0.0336707,174
0.418493,-0.0770472,-0.0328949,173
0.418216,-0.0769606,-0.0320941,173
0.418348,-0.0770047,-0.0313259,174
0.418663,-0.0771072,-0.0305711,172
0.418796,-0.0771517,-0.029802,171
0.419569,-0.0774005,-0.0290779,170
0.419202,-0.077285,-0.0282722,173
0.418745,-0.0771408,-0.0274622,170
0.419108,-0.0772588,-0.0267075,174
0.419518,-0.0773917,-0.0259544,169
0.419199,-0.0772914,-0.0251552,174
0.419245,-0.077308,-0.0243791,170
0.419291,-0.0773247,-0.023603,170
0.41943,-0.0773708,-0.0228319,165
0.420163,-0.0776071,-0.0220921,168
0.420808,-0.077815,-0.0213451,173
0.421363,-0.0779942,-0.0205912,173
0.420401,-0.0776886,-0.0197631,177
0.42091,-0.0778532,-0.019006,175
0.420455,-0.0777096,-0.0182049,178
0.422441,-0.0783466,-0.0175076,180
0.422354,-0.0783205,-0.0167201,173
0.42093,-0.0778671,-0.0158823,172
0.421167,-0.0779445,-0.0151099,178
0.421496,-0.0780516,-0.0143397,176
0.421688,-0.0781148,-0.013564,181
0.422574,-0.0784001,-0.0128085,181
0.422768,-0.0784639,-0.0120301,185
0.422684,-0.078439,-0.0112438,183
0.423158,-0.0785923,-0.0104713,176
0.422982,-0.0785379,-0.00968259,178
0.423039,-0.078558,-0.00889932,177
0.422957,-0.0785336,-0.0081133,184
0.423108,-0.0785837,-0.00733149,178
0.423073,-0.0785746,-0.00654642,183
0.423179,-0.0786102,-0.00576328,183
0.424357,-0.0789888,-0.00499127,181
0.425261,-0.0792796,-0.0042123,181
0.423918,-0.0788521,-0.00341443,182
0.424072,-0.0789034,-0.00262914,183
0.424415,-0.0790147,-0.00184381,185
0.424805,-0.0791413,-0.00105721,182
0.425243,-0.0792834,-0.000269041,180
0.425119,-0.0792456,0.000519236,177
0.425747,-0.0794484,0.00131065,177
0.42553,-0.0793808,0.00209883,178
0.426397,-0.0796598,0.00289558,181
0.426463,-0.0796829,0.00368724,183
0.425634,-0.0794197,0.00446795,179
0.426125,-0.0795786,0.0052646,180
0.427044,-0.0798743,0.00607024,184
0.428063,-0.080202,0.00688132,184
0.427419,-0.079998,0.00766263,188
0.426636,-0.0797494,0.0084384,183
0.426895,-0.0798343,0.00923642,187
0.427915,-0.0801625,0.0100554,185
0.427892,-0.0801568,0.0108491,190
0.427964,-0.0801818,0.0116456,186
0.42837,-0.0803137,0.0124532,193
0.429257,-0.080599,0.0132788,186
0.428613,-0.0803951,0.014053,189
0.428736,-0.0804362,0.0148537,184
0.429962,-0.0808302,0.0156989,186
0.429462,-0.0806721,0.016477,189
0.428963,-0.0805146,0.0172534,193
0.430288,-0.0809404,0.018111,193
0.430318,-0.0809519,0.0189123,193
0.431169,-0.0812261,0.0197545,194
0.430959,-0.0811606,0.0205456,197
0.431232,-0.08125,0.0213618,196
0.430926,-0.0811539,0.0221471,200
0.43091,-0.0811508,0.022948,195
0.430895,-0.0811479,0.023749,195
0.430495,-0.0810216,0.0245265,194
0.430722,-0.0810962,0.0253423,193
0.430757,-0.0811092,0.0261466,193
0.431034,-0.0811998,0.0269674,194
0.431022,-0.0811978,0.0277695,192
0.43072,-0.0811031,0.0285512,198
0.430805,-0.0811323,0.0293601,193
0.430939,-0.0811772,0.0301731,202
0.430833,-0.0811449,0.0309684,195
0.430871,-0.0811592,0.0317749,191
0.431201,-0.0812666,0.0326052,194
0.431289,-0.0812968,0.0334171,197
0.431378,-0.0813271,0.0342296,197
0.43108,-0.0812336,0.0350091,193
0.430783,-0.0811404,0.0357878,194
0.43097,-0.0812022,0.0366093,196
0.430916,-0.0811868,0.0374094,198
0.431056,-0.0812334,0.0382279,200
0.431051,-0.0812338,0.0390333,200
0.43095,-0.0812034,0.0398294,201
0.430607,-0.0810957,0.0406012,198
0.430459,-0.0810502,0.0413917,198
0.43036,-0.0810204,0.0421869,197
0.430503,-0.081068,0.0430078,193
0.428769,-0.0805149,0.0436267,196
0.429343,-0.0807007,0.0444929,196
0.429872,-0.0808718,0.0453566,195
0.429535,-0.0807658,0.0461239,194
0.428288,-0.0803686,0.0467849,193
0.427954,-0.0802637,0.0475488,192
0.428147,-0.0803272,0.0483747,197
0.428101,-0.0803144,0.0491726,198
0.427578,-0.0801489,0.0499116,198
0.427104,-0.0799992,0.0506551,199
0.426016,-0.0796528,0.0513186,193
0.4255,-0.0794894,0.0520523,193
0.425503,-0.0794925,0.0528526,199
0.424848,-0.0792846,0.0535652,198
0.425088,-0.0793634,0.054397,198
0.424858,-0.0792916,0.0551653,202
0.424864,-0.0792954,0.055966,198
0.424353,-0.0791337,0.0566939,197
0.423142,-0.0787479,0.0573198,194
0.422729,-0.0786176,0.0580573,200
0.42241,-0.0785174,0.0588074,194
0.422325,-0.0784921,0.0595914,195
0.422148,-0.0784371,0.0603614,195
0.421553,-0.0782485,0.0610672,192
0.421238,-0.0781495,0.0618144,193
0.420877,-0.0780359,0.0625535,186
0.420425,-0.0778932,0.0632771,191
0.42136,-0.0781945,0.0642227,188
0.420862,-0.0780369,0.0649386,189
0.419905,-0.0777322,0.0655772,184
0.419963,-0.0777526,0.0663819,188
0.421083,-0.0781133,0.0673668,186
0.421235,-0.0781638,0.0681909,187
0.419954,-0.0777556,0.0687683,185
0.420199,-0.0778357,0.0696077,184
0.421138,-0.0781383,0.0705715,186
0.420043,-0.0777895,0.0711755,184
0.420104,-0.077811,0.0719846,181
0.420952,-0.0780844,0.0729383,181
0.420968,-0.0780915,0.0737421,180
0.421123,-0.0781432,0.0745724,174
0.421187,-0.0781655,0.0753863,179
0.42088,-0.078069,0.0761302,172
0.421176,-0.0781658,0.0769897,172
0.421055,-0.078129,0.0777695,182
0.421307,-0.0782114,0.0786225,173
0.421373,-0.0782344,0.0794402,173
0.421253,-0.078198,0.0802213,175
0.421692,-0.0783406,0.0811157,174
0.421527,-0.0782896,0.0818885,174
0.421362,-0.0782387,0.0826612,171
0.421663,-0.0783371,0.0835311,176
0.423277,-0.0788559,0.0846793,175
0.422362,-0.0785648,0.0852964,174
0.422807,-0.0787093,0.0862024,170
0.422644,-0.0786589,0.0869787,170
0.422247,-0.0785335,0.0877037,171
0.422037,-0.0784685,0.0884692,166
0.422531,-0.0786284,0.0893908,170
0.422791,-0.0787138,0.0902626,168
0.423618,-0.0789804,0.0912643,167
0.422891,-0.0787496,0.0919145,172
0.423295,-0.0788809,0.0928231,168
0.424362,-0.0792246,0.0938884,168
0.423445,-0.0789329,0.0944926,166
0.42423,-0.0791863,0.0954967,168
0.424212,-0.0791825,0.0963127,165
0.4241,-0.0791485,0.0971065,167
0.424985,-0.0794339,0.0981425,169
0.42492,-0.0794153,0.0989502,169
0.424429,-0.0792599,0.0996528,167
0.424936,-0.0794243,0.100602,165
0.425493,-0.0796046,0.101567,168
0.425287,-0.0795407,0.102342,173
0.425751,-0.0796911,0.103287,167
0.425833,-0.0797192,0.104136,168
0.425867,-0.0797323,0.104974,163
0.425902,-0.0797454,0.105813,162
0.425937,-0.0797588,0.106653,167
0.427996,-0.0804202,0.10803,162
0.427019,-0.0801092,0.108605,163
0.427974,-0.0804171,0.109696,162
0.426997,-0.0801062,0.110268,157
0.42718,-0.0801668,0.111154,158
0.427992,-0.080429,0.112214,159
0.428274,-0.0805214,0.113131,156
0.427926,-0.0804118,0.113874,155
0.428112,-0.0804733,0.114766,152
0.428687,-0.0806597,0.11577,151
0.428291,-0.0805347,0.1165,149
0.428673,-0.0806591,0.117452,148
0.428813,-0.0807059,0.118337,153
0.429197,-0.0808311,0.119294,148
0.428655,-0.0806594,0.119981,142
0.429529,-0.0809414,0.121085,140
0.429377,-0.0808949,0.121889,144
0.431043,-0.081431,0.123237,140
0.431188,-0.0814794,0.124134,138
0.430446,-0.0812434,0.124762,133
0.43,-0.0811027,0.125478,136
0.431626,-0.0816257,0.126832,137
0.431129,-0.0814687,0.127534,137
0.430487,-0.0812646,0.12819,140
0.431622,-0.0816307,0.129403,135
0.432069,-0.0817758,0.130403,142
0.432417,-0.0818895,0.131374,137
0.431771,-0.0816846,0.132028,129
0.432618,-0.0819581,0.133163,129
0.433419,-0.0822169,0.134287,136
0.433221,-0.0821555,0.135088,132
0.433574,-0.0822707,0.13607,132
0.433678,-0.0823059,0.136972,139
0.433531,-0.0822608,0.137792,135
0.433886,-0.0823768,0.13878,133
0.43389,-0.0823803,0.139651,130
0.433845,-0.0823677,0.140507,128
0.434353,-0.0825328,0.141553,125
0.435319,-0.0828446,0.142758,120
0.435022,-0.0827513,0.143532,118
0.435383,-0.0828692,0.144534,121
0.435796,-0.0830038,0.145556,110
0.43555,-0.0829269,0.146349,105
0.436118,-0.083111,0.14743,107
0.435872,-0.0830342,0.148224,100
0.436594,-0.0832681,0.149365,99
0.436247,-0.0831586,0.150124,107
0.437074,-0.0834262,0.151309,107
0.436522,-0.0832511,0.151994,106
0.437096,-0.0834372,0.153091,99
0.437158,-0.0834594,0.154002,107
0.437221,-0.0834817,0.154915,102
0.437439,-0.0835536,0.155886,103
0.437915,-0.0837083,0.156956,114
0.437876,-0.0836981,0.157835,110
0.438664,-0.083953,0.159028,110
0.437543,-0.0835954,0.159496,105
0.438176,-0.0838006,0.160634,112
0.438397,-0.0838737,0.161617,113
0.438413,-0.0838807,0.162521,115
0.438843,-0.0840208,0.163588,111
0.438496,-0.0839117,0.164353,110
0.438668,-0.083969,0.165321,104
0.43884,-0.0840265,0.166292,104
0.438702,-0.0839842,0.16714,104
0.438875,-0.0840419,0.168113,107
0.439205,-0.08415,0.169152,111
0.439485,-0.0842416,0.170171,111
0.439608,-0.0842834,0.17113,111
0.439575,-0.084275,0.172025,110
0.439543,-0.0842667,0.172922,108
0.439406,-0.0842251,0.173776,99
0.43927,-0.0841836,0.174631,97
0.438249,-0.0838583,0.175115,102
0.438582,-0.0839672,0.176166,103
0.438187,-0.0838426,0.176911,110
0.438468,-0.0839351,0.177943,103
0.438126,-0.0838274,0.17871,106
0.438252,-0.08387,0.179678,109
0.437807,-0.0837292,0.1804,113
0.438506,-0.0839557,0.181618,110
0.437956,-0.0837816,0.182296,109
0.437616,-0.0836745,0.183064,109
0.437639,-0.0836842,0.183991,111
0.43881,-0.0840621,0.185427,112
0.438417,-0.0839382,0.186173,115
0.437712,-0.0837142,0.18678,107
0.437685,-0.0837077,0.187689,111
0.43745,-0.0836345,0.188505,113
0.437112,-0.0835281,0.189273,122
0.43693,-0.0834719,0.190113,113
0.436541,-0.0833492,0.190858,119
0.435739,-0.0830941,0.191412,118
0.436231,-0.0832541,0.192561,122
0.435172,-0.0829165,0.192994,112
0.43525,-0.0829438,0.193953,120
0.43471,-0.0827727,0.194624,131
0.434223,-0.0826185,0.195318,117
0.433685,-0.0824481,0.195988,113
0.434175,-0.0826074,0.197143,104
0.414195,-0.0787275,-0.199321,8
0.417027,-0.0796566,-0.199846,9
0.418749,-0.0802226,-0.199809,13
0.21927,-0.0149312,-0.101397,6
0.408006,-0.0767104,-0.192741,10
0.410246,-0.0774457,-0.192968,10
0.421388,-0.0810949,-0.197523,14
0.413544,-0.0785293,-0.192822,8
0.415845,-0.0792845,-0.193054,12
0.414131,-0.0787255,-0.191348,13
0.419089,-0.0803506,-0.192841,14
0.413558,-0.0785421,-0.18932,11
0.407014,-0.076402,-0.185344,9
0.413358,-0.0784809,-0.187476,14
0.413513,-0.0785337,-0.186676,14
0.415295,-0.0791193,-0.186637,14
0.412715,-0.0782767,-0.184562,19
0.415842,-0.0793024,-0.18514,11
0.414554,-0.0788827,-0.183672,14
0.413506,-0.0785416,-0.18232,16
0.413154,-0.0784287,-0.181291,16
0.414746,-0.0789517,-0.181148,12
0.415322,-0.0791424,-0.180539,12
0.418958,-0.0803349,-0.181305,18
0.417841,-0.0799713,-0.179928,17
0.416029,-0.0793803,-0.178248,22
0.417642,-0.0799103,-0.178094,18
0.417143,-0.0797492,-0.177003,19
0.418575,-0.0802199,-0.176762,16
0.416667,-0.0795972,-0.175057,18
0.412751,-0.078317,-0.172488,18
0.416333,-0.0794919,-0.173179,21
0.4164,-0.0795159,-0.172344,16
0.417074,-0.0797389,-0.171769,22
0.416908,-0.0796865,-0.170834,19
0.416509,-0.0795578,-0.169801,23
0.416437,-0.0795363,-0.168909,16
0.416925,-0.0796982,-0.168253,19
0.414949,-0.0790531,-0.166567,20
0.416689,-0.079625,-0.166434,24
0.41606,-0.079421,-0.165315,24
0.416222,-0.0794762,-0.164525,22
0.417364,-0.0798521,-0.164135,20
0.41706,-0.0797547,-0.163154,22
0.416524,-0.0795813,-0.16208,25
0.417481,-0.0798965,-0.16161,22
0.416108,-0.079449,-0.160205,28
0.414608,-0.0789597,-0.158755,28
0.412801,-0.0783699,-0.157191,29
0.413329,-0.0785448,-0.156555,25
0.413355,-0.0785552,-0.15572,27
0.413564,-0.0786257,-0.154958,27
0.414231,-0.0788463,-0.154374,27
0.415638,-0.0793092,-0.154072,25
0.413598,-0.0786429,-0.152444,25
0.410678,-0.0776886,-0.150489,30
0.413973,-0.0787696,-0.150904,29
0.411591,-0.0779915,-0.149166,35
0.412298,-0.0782251,-0.148596,28
0.412463,-0.078281,-0.147822,25
0.409209,-0.0772171,-0.14578,29
0.410895,-0.0777715,-0.145574,33
0.407803,-0.0767604,-0.14361,34
0.407613,-0.0766999,-0.142718,33
0.406674,-0.0763943,-0.141555,38
0.406969,-0.0764929,-0.140842,40
0.406736,-0.0764187,-0.139939,41
0.4069,-0.0764742,-0.139179,41
0.40799,-0.0768332,-0.138747,41
0.408331,-0.0769471,-0.138047,38
0.406338,-0.0762959,-0.13653,43
0.407998,-0.0768419,-0.136293,42
0.407194,-0.0765802,-0.135197,43
0.406963,-0.0765067,-0.134303,40
0.407921,-0.0768225,-0.133815,46
0.407558,-0.0767055,-0.132877,46
0.407504,-0.0766898,-0.132044,47
0.408819,-0.0771224,-0.131672,42
0.408853,-0.0771357,-0.130868,47
0.4088,-0.0771201,-0.130035,49
0.409411,-0.0773223,-0.129422,51
0.408871,-0.0771471,-0.128431,49
0.408244,-0.0769437,-0.127414,46
0.40943,-0.0773342,-0.126986,49
0.409644,-0.0774062,-0.126241,52
0.40937,-0.0773184,-0.125342,49
0.408787,-0.0771295,-0.124346,48
0.409843,-0.0774775,-0.123868,47
0.409881,-0.0774917,-0.123069,53
0.410987,-0.0778562,-0.122601,55
0.410401,-0.0776662,-0.121608,54
0.409464,-0.0773608,-0.120511,60
0.409591,-0.0774045,-0.119742,59
0.41083,-0.0778123,-0.119308,56
0.411315,-0.0779734,-0.118644,58
0.409799,-0.0774782,-0.117382,61
0.411351,-0.0779888,-0.117035,57
0.410412,-0.0776829,-0.115951,61
0.410675,-0.0777711,-0.115221,67
0.410627,-0.0777574,-0.114401,68
0.410846,-0.0778312,-0.113658,66
0.410888,-0.0778468,-0.112865,62
0.41209,-0.0782428,-0.112401,64
0.412267,-0.0783026,-0.111644,59
0.411506,-0.078055,-0.110624,60
0.411727,-0.0781296,-0.109881,64
0.411994,-0.0782189,-0.109151,60
0.412083,-0.0782499,-0.10837,71
0.41128,-0.0779886,-0.107348,63
0.412753,-0.0784736,-0.106944,64
0.412754,-0.0784756,-0.106139,68
0.413023,-0.0785659,-0.105407,70
0.412487,-0.0783919,-0.104462,72
0.41307,-0.0785851,-0.103813,71
0.413027,-0.0785728,-0.102999,68
0.412179,-0.0782968,-0.101979,71
0.41339,-0.0786957,-0.101488,83
0.413528,-0.0787427,-0.100721,81
0.4138,-0.078834,-0.0999878,83
0.414209,-0.0789698,-0.0992881,81
0.414167,-0.0789582,-0.098476,82
0.413632,-0.0787845,-0.0975435,81
0.414311,-0.0790091,-0.096909,84
0.413552,-0.078762,-0.0959254,85
0.413916,-0.0788834,-0.0952141,88
0.414462,-0.0790642,-0.0945447,95
0.414693,-0.079142,-0.0937998,96
0.415241,-0.0793236,-0.0931283,92
0.41561,-0.0794464,-0.0924136,100
0.415436,-0.0793913,-0.0915736,98
0.415942,-0.079559,-0.0908891,100
0.416676,-0.0798018,-0.0902546,101
0.416366,-0.079702,-0.0893846,110
0.416556,-0.0797663,-0.088627,112
0.41652,-0.0797562,-0.0878193,112
0.416665,-0.0798059,-0.0870518,109
0.416903,-0.0798856,-0.0863039,103
0.417004,-0.0799206,-0.0855265,99
0.417653,-0.0801354,-0.0848648,107
0.417846,-0.0802008,-0.0841058,107
0.417675,-0.0801464,-0.0832708,105
0.417915,-0.0802271,-0.0825214,108
0.41866,-0.0804732,-0.0818739,110
0.419361,-0.0807053,-0.0812152,110
0.418869,-0.0805456,-0.0803164,109
0.419802,-0.0808536,-0.0797011,115
0.419447,-0.0807391,-0.0788311,119
0.420245,-0.0810028,-0.0781856,125
0.420213,-0.0809943,-0.0773788,120
0.419813,-0.0808649,-0.0765028,120
0.419967,-0.0809172,-0.0757325,132
0.420398,-0.0810606,-0.0750133,131
0.420276,-0.0810224,-0.0741915,128
0.420246,-0.0810146,-0.0733874,127
0.420679,-0.0811585,-0.0726666,125
0.420605,-0.0811359,-0.0718546,125
0.42141,-0.081402,-0.0711975,126
0.421753,-0.0815166,-0.0704575,127
0.421633,-0.0814789,-0.0696371,130
0.422024,-0.0816092,-0.0689042,132
0.421301,-0.0813739,-0.0679836,143
0.421507,-0.0814433,-0.0672199,134
0.421435,-0.0814215,-0.0664103,137
0.42206,-0.0816285,-0.0657139,141
0.422174,-0.081668,-0.064934,147
0.422243,-0.0816924,-0.0641468,145
0.422545,-0.0817934,-0.0633959,141
0.422196,-0.0816807,-0.0625442,142
0.421848,-0.0815683,-0.0616944,155
0.422197,-0.0816848,-0.0609506,148
0.422314,-0.0817253,-0.0601716,147
0.422153,-0.0816744,-0.0593519,146
0.421715,-0.0815323,-0.0584932,145
0.421973,-0.0816188,-0.0577353,149
0.423396,-0.0820879,-0.0571395,151
0.422258,-0.0817163,-0.0561856,152
0.422053,-0.0816509,-0.0553632,152
0.422035,-0.0816467,-0.0545668,152
0.421692,-0.0815362,-0.0537281,148
0.421166,-0.0813653,-0.0528672,151
0.42138,-0.0814375,-0.0521033,149
0.421548,-0.0814947,-0.0513331,152
0.421486,-0.0814761,-0.0505339,156
0.421286,-0.0814122,-0.0497184,155
0.421132,-0.0813637,-0.0489096,164
0.420979,-0.0813154,-0.0481017,163
0.420735,-0.081237,-0.0472841,168
0.42109,-0.0813555,-0.0465361,164
0.420893,-0.0812926,-0.045725,166
0.42042,-0.0811392,-0.0448846,164
0.419628,-0.0808812,-0.0440117,160
0.419159,-0.0807292,-0.0431765,156
0.419514,-0.0808476,-0.0424294,157
0.418181,-0.080412,-0.0415083,158
0.417945,-0.0803361,-0.0407027,160
0.41789,-0.0803201,-0.0399162,163
0.417972,-0.0803489,-0.0391433,167
0.417511,-0.0801992,-0.0383189,165
0.417639,-0.0802432,-0.0375511,169
0.41745,-0.0801832,-0.0367543,169
0.41758,-0.0802274,-0.0359866,167
0.417483,-0.0801975,-0.0351991,167
0.417885,-0.0803313,-0.0344543,168
0.417743,-0.0802868,-0.0336632,173
0.417422,-0.080183,-0.0328583,168
0.417961,-0.0803618,-0.0321227,170
0.417912,-0.0803475,-0.0313399,176
0.418271,-0.0804674,-0.0305881,171
0.419681,-0.0809322,-0.0299119,170
0.418266,-0.0804694,-0.0290293,175
0.418582,-0.080575,-0.0282722,174
0.418717,-0.0806212,-0.0275019,172
0.418534,-0.080563,-0.0267104,176
0.418806,-0.0806543,-0.0259486,174
0.41949,-0.0808807,-0.0252112,174
0.419765,-0.0809727,-0.0244469,175
0.419995,-0.08105,-0.0236791,174
0.419859,-0.0810072,-0.0228902,173
0.42009,-0.0810848,-0.0221216,177
0.420184,-0.0811176,-0.0213451,176
0.420141,-0.0811053,-0.0205616,174
0.420236,-0.0811384,-0.019785,176
0.420056,-0.0810813,-0.0189955,179
0.420198,-0.0811297,-0.0182209,180
0.42057,-0.0812537,-0.0174555,182
0.420575,-0.0812573,-0.0166741,181
0.421179,-0.0814573,-0.0159155,179
0.420496,-0.0812349,-0.0151082,178
0.421468,-0.0815562,-0.0143602,175
0.421107,-0.0814394,-0.0135655,176
0.42153,-0.0815801,-0.012796,179
0.422277,-0.0818275,-0.0120341,176
0.422009,-0.0817411,-0.0112426,177
0.422435,-0.0818828,-0.0104691,176
0.422445,-0.081888,-0.00968467,181
0.422687,-0.0819694,-0.00890502,181
0.422466,-0.0818987,-0.00811588,181
0.423267,-0.0821636,-0.00734459,182
0.423511,-0.0822458,-0.00656207,183
0.422502,-0.0819161,-0.00576269,182
0.423258,-0.0821662,-0.00498626,181
0.424297,-0.0825096,-0.00420941,180
0.423285,-0.0821791,-0.00341443,178
0.423719,-0.0823234,-0.00263052,180
0.424248,-0.0824989,-0.00184521,178
0.424685,-0.0826443,-0.00105774,185
0.424467,-0.0825746,-0.000269169,182
0.424952,-0.0827359,0.000520574,180
0.424876,-0.0827127,0.00130952,180
0.425081,-0.0827821,0.00210009,181
0.4251,-0.08279,0.00288986,181
0.426769,-0.0833401,0.00369729,182
0.426552,-0.0832707,0.00448751,183
0.425911,-0.0830621,0.00527076,182
0.425884,-0.0830553,0.00606168,185
0.426519,-0.0832657,0.00686473,188
0.42673,-0.0833369,0.00766167,184
0.427037,-0.0834395,0.00846162,191
0.427297,-0.0835268,0.00926169,191
0.427083,-0.0834585,0.0100504,188
0.427677,-0.0836555,0.0108611,188
0.429949,-0.084404,0.0117248,191
0.428441,-0.0839104,0.0124762,191
0.427609,-0.083639,0.0132447,190
0.427921,-0.0837433,0.0140513,191
0.428759,-0.0840206,0.0148791,187
0.429842,-0.0843781,0.01572,189
0.429102,-0.0841369,0.016489,189
0.428795,-0.0840381,0.0172743,193
0.429303,-0.084207,0.0180956,192
0.430343,-0.0845505,0.0189444,194
0.430422,-0.0845782,0.0197497,197
0.430597,-0.0846379,0.0205605,200
0.430484,-0.0846026,0.0213566,196
0.430131,-0.0844883,0.0221391,196
0.43026,-0.0845326,0.022948,197
0.430438,-0.084593,0.0237605,194
0.430761,-0.0847012,0.0245827,191
0.430892,-0.0847462,0.0253942,190
0.430879,-0.0847437,0.0261969,192
0.43203,-0.0851238,0.027078,194
0.430757,-0.0847074,0.0277962,195
0.431374,-0.0849123,0.0286439,195
0.430734,-0.0847037,0.0294024,192
0.431207,-0.0848611,0.030242,192
0.431197,-0.0848597,0.0310465,191
0.431527,-0.08497,0.031878,194
0.43215,-0.0851767,0.0327346,194
0.431025,-0.0848088,0.0334491,197
0.430968,-0.0847921,0.0342501,192
0.432809,-0.0853991,0.0352155,195
0.431051,-0.0848231,0.0358692,195
0.430705,-0.0847116,0.0366443,199
0.430603,-0.0846798,0.0374407,193
0.430598,-0.0846799,0.0382462,193
0.430786,-0.0847439,0.0390706,193
0.430976,-0.0848081,0.0398961,195
0.430682,-0.0847133,0.0406739,197
0.430872,-0.0847779,0.0415005,196
0.430434,-0.0846358,0.0422625,195
0.430771,-0.0847483,0.0431053,193
0.430818,-0.0847657,0.0439184,199
0.430575,-0.0846877,0.0447,201
0.430139,-0.0845464,0.0454593,196
0.430042,-0.0845166,0.0462558,199
0.430043,-0.0845187,0.0470635,196
0.428505,-0.084015,0.0476898,198
0.429997,-0.0845075,0.0486742,197
0.42846,-0.0840041,0.0492951,198
0.427697,-0.0837552,0.0500062,196
0.427414,-0.083664,0.050775,197
0.427131,-0.083573,0.051543,199
0.427088,-0.0835605,0.0523413,198
0.426997,-0.0835325,0.0531335,197
0.426194,-0.0832704,0.0538304,195
0.425064,-0.0829008,0.0544801,202
0.424881,-0.0828425,0.055256,200
0.424416,-0.0826916,0.0559922,197
0.424,-0.0825566,0.0567338,199
0.424147,-0.0826071,0.057555,200
0.423967,-0.0825496,0.0583295,202
0.423366,-0.0823537,0.0590413,197
0.423748,-0.0824816,0.0598985,196
0.422775,-0.0821633,0.0605518,191
0.423017,-0.0822449,0.0613884,192
0.42284,-0.0821885,0.0621611,192
0.421222,-0.0816583,0.0627064,192
0.420769,-0.0815113,0.0634316,188
0.420965,-0.0815775,0.06426,191
0.420744,-0.081507,0.0650217,189
0.420571,-0.0814518,0.0657906,186
0.420768,-0.0815185,0.0666211,186
0.420642,-0.0814788,0.0673981,189
0.420608,-0.0814698,0.0681909,190
0.42076,-0.0815217,0.0690162,189
0.420358,-0.0813913,0.0697452,186
0.420789,-0.0815348,0.0706207,183
0.419833,-0.0812224,0.0712498,184
0.420079,-0.0813051,0.0720933,180
0.420279,-0.0813729,0.0729298,181
0.420665,-0.0815018,0.0738021,183
0.420589,-0.0814787,0.0745897,182
0.420514,-0.0814558,0.0753776,177
0.420856,-0.0815702,0.0762454,178
0.420827,-0.0815628,0.0770435,173
0.42066,-0.0815097,0.0778148,177
0.420818,-0.0815636,0.07865,173
0.420513,-0.0814652,0.079394,172
0.420951,-0.081611,0.0802867,174
0.421157,-0.0816807,0.0811346,175
0.421457,-0.0817814,0.0820031,177
0.422038,-0.0819745,0.0829315,175
0.421594,-0.0818302,0.083648,176
0.421476,-0.0817934,0.0844324,172
0.421826,-0.0819103,0.0853163,174
0.421756,-0.0818892,0.0861118,171
0.421639,-0.0818529,0.0868975,172
0.421944,-0.081955,0.0877755,171
0.421641,-0.0818575,0.0885208,175
0.422462,-0.0821294,0.0895164,174
0.422207,-0.0820473,0.0902731,172
0.421905,-0.08195,0.0910189,169
0.422166,-0.0820377,0.091893,169
0.422662,-0.082203,0.0928231,165
0.42316,-0.0823688,0.0937563,165
0.42253,-0.0821634,0.0944262,166
0.422747,-0.0822366,0.0952952,169
0.423624,-0.0825273,0.096324,168
0.423088,-0.0823527,0.0970153,167
0.423826,-0.0825977,0.0980155,164
0.424047,-0.0826721,0.098892,164
0.423841,-0.0826064,0.0996645,163
0.42411,-0.0826968,0.100555,166
0.423905,-0.0826313,0.101328,168
0.424697,-0.082894,0.102354,169
0.424445,-0.0828131,0.103116,168
0.424764,-0.0829201,0.104026,164
0.425228,-0.0830745,0.104974,166
0.426989,-0.0836561,0.106265,171
0.425489,-0.0831645,0.106703,165
0.4261,-0.0833674,0.107697,170
0.426232,-0.083413,0.108566,165
0.425359,-0.0831275,0.109164,164
0.426211,-0.0834099,0.110229,156
0.425721,-0.0832506,0.11093,156
0.426191,-0.0834073,0.111895,163
0.425941,-0.0833272,0.112662,160
0.427426,-0.083818,0.113915,158
0.426983,-0.0836741,0.11463,151
0.427072,-0.0837053,0.115495,149
0.427596,-0.08388,0.116486,153
0.428075,-0.0840394,0.117466,151
0.428214,-0.0840873,0.118351,148
0.428354,-0.0841354,0.119237,153
0.428738,-0.0842639,0.120196,142
0.429173,-0.0844089,0.121172,139
0.428631,-0.0842326,0.12186,140
0.428432,-0.084169,0.122648,138
0.428867,-0.0843143,0.123629,133
0.429843,-0.0846377,0.124777,134
0.429252,-0.0844451,0.125448,134
0.429152,-0.0844141,0.126269,136
0.429689,-0.0845931,0.127289,137
0.430623,-0.0849025,0.128437,138
0.430425,-0.0848393,0.129231,141
0.431116,-0.0850689,0.130308,139
0.430178,-0.084762,0.130868,138
0.430326,-0.0848128,0.131774,136
0.430672,-0.0849289,0.132746,128
0.430921,-0.0850127,0.133687,138
0.431368,-0.0851622,0.134696,131
0.431818,-0.0853122,0.135708,133
0.431671,-0.085266,0.136525,129
0.432421,-0.0855151,0.137641,132
0.431628,-0.0852559,0.138242,132
0.432229,-0.0854561,0.139313,139
0.432784,-0.0856406,0.140371,136
0.433189,-0.0857763,0.141381,126
0.432994,-0.0857141,0.142186,128
0.43305,-0.0857346,0.143078,127
0.433962,-0.0860368,0.14427,117
0.433666,-0.0859416,0.145042,121
0.435139,-0.0864286,0.146439,106
0.434488,-0.0862165,0.147088,102
0.434244,-0.0861381,0.14788,108
0.435063,-0.0864098,0.149055,99
0.435834,-0.0866661,0.150216,96
0.434929,-0.0863701,0.150772,101
0.434129,-0.0861085,0.151362,102
0.433987,-0.086064,0.152193,103
0.436285,-0.0868229,0.153926,97
0.435684,-0.086627,0.154592,101
0.434779,-0.0863313,0.155142,103
0.434995,-0.0864042,0.15611,99
0.435007,-0.0864104,0.157003,98
0.4365,-0.0869044,0.158461,105
0.435899,-0.0867086,0.159124,102
0.43735,-0.0871885,0.160575,103
0.436439,-0.0868907,0.161119,102
0.436095,-0.0867795,0.161881,110
0.435854,-0.0867022,0.162682,109
0.436433,-0.086895,0.163806,111
0.4365,-0.0869193,0.16473,110
0.436825,-0.0870283,0.165758,115
0.438443,-0.0875637,0.167306,115
0.437839,-0.0873668,0.167968,112
0.437495,-0.0872555,0.168733,115
0.437513,-0.0872636,0.169645,114
0.437066,-0.0871187,0.170367,116
0.437395,-0.0872291,0.171407,118
0.437517,-0.0872716,0.172365,106
0.437692,-0.0873313,0.173345,111
0.43704,-0.0871184,0.173982,111
0.436543,-0.0869571,0.174682,108
0.43677,-0.0870339,0.175686,107
0.437101,-0.087145,0.176736,110
0.436708,-0.0870179,0.17748,104
0.436833,-0.0870611,0.178444,106
0.436751,-0.0870363,0.179321,109
0.436566,-0.0869776,0.180154,111
0.436434,-0.086936,0.18101,108
0.436198,-0.0868606,0.181822,109
0.436221,-0.0868703,0.182746,104
0.436347,-0.0869141,0.183717,109
0.435494,-0.086635,0.184256,104
0.43593,-0.0867809,0.185365,105
0.435902,-0.086774,0.18627,107
0.435308,-0.0865803,0.186922,106
0.435745,-0.0867265,0.188037,109
0.435563,-0.0866689,0.188874,116
0.435382,-0.0866114,0.189712,118
0.434584,-0.0863504,0.190267,113
0.435176,-0.0865477,0.19146,105
0.434738,-0.0864057,0.192179,109
0.434302,-0.086264,0.192898,117
0.433763,-0.0860888,0.193569,123
0.433687,-0.0860659,0.194455,138
0.433868,-0.0861277,0.195463,115
0.433947,-0.0861558,0.196425,110
0.432387,-0.085644,0.196608,112
0.41389,-0.0820877,-0.199485,10
0.414182,-0.0821881,-0.198744,9
0.414615,-0.0823357,-0.198073,7
0.417169,-0.0831959,-0.19845,12
0.411166,-0.0811809,-0.194601,9
0.412979,-0.0817922,-0.194613,15
0.414527,-0.0823146,-0.194489,14
0.414028,-0.0821491,-0.193363,12
0.414835,-0.0824223,-0.192873,11
0.412205,-0.0815406,-0.190724,10
0.411347,-0.0812543,-0.189438,9
0.415112,-0.0825218,-0.190362,9
0.418615,-0.0837011,-0.191147,10
0.415096,-0.0825205,-0.188596,14
0.41293,-0.0817945,-0.186698,11
0.419134,-0.0838819,-0.188733,13
0.415657,-0.0827154,-0.186226,15
0.412197,-0.0815545,-0.183743,17
0.411252,-0.081239,-0.182439,12
0.415707,-0.0827383,-0.183621,10
0.412986,-0.0818259,-0.181502,12
0.413696,-0.0820666,-0.180958,16
0.412884,-0.0817957,-0.179722,20
0.413179,-0.0818969,-0.178989,17
0.414029,-0.0821846,-0.178505,17
0.413816,-0.0821152,-0.177544,22
0.416814,-0.0831248,-0.178011,21
0.417161,-0.0832436,-0.177293,16
0.416056,-0.0828743,-0.175936,17
0.414125,-0.0822273,-0.174223,19
0.416562,-0.0830486,-0.174422,20
0.414027,-0.0821984,-0.172456,18
0.414648,-0.0824094,-0.171863,21
0.41569,-0.0827615,-0.171449,23
0.41432,-0.0823032,-0.170001,22
0.413742,-0.082111,-0.168896,24
0.414825,-0.0824771,-0.168497,18
0.41494,-0.0825176,-0.167687,23
0.415936,-0.0828545,-0.167245,21
0.415772,-0.0828014,-0.166318,27
0.416539,-0.0830613,-0.165777,25
0.414752,-0.0824627,-0.164182,22
0.414176,-0.0822711,-0.163091,25
0.413786,-0.0821419,-0.162079,28
0.41294,-0.0818594,-0.160885,27
0.415447,-0.0827045,-0.161048,29
0.414502,-0.0823888,-0.159816,27
0.413288,-0.0819825,-0.15848,27
0.414092,-0.0822549,-0.157953,28
0.415962,-0.0828857,-0.157844,25
0.412043,-0.0815698,-0.155452,28
0.413162,-0.0819481,-0.155047,22
0.41205,-0.0815763,-0.153772,26
0.41326,-0.0819852,-0.153399,31
0.412058,-0.0815831,-0.152094,31
0.411091,-0.0812596,-0.150885,35
0.410039,-0.0809079,-0.149649,28
0.410471,-0.0810552,-0.148978,31
0.409916,-0.0808706,-0.147936,29
0.408783,-0.0804917,-0.146681,31
0.408057,-0.0802494,-0.145582,37
0.409065,-0.0805903,-0.145128,30
0.406659,-0.0797831,-0.143416,32
0.405286,-0.0793234,-0.142093,37
0.406368,-0.0796892,-0.141667,38
0.407633,-0.0801164,-0.141303,36
0.40709,-0.0799359,-0.140286,43
0.40743,-0.0800522,-0.139587,41
0.405618,-0.0794446,-0.138124,49
0.406044,-0.0795898,-0.137458,44
0.406865,-0.0798682,-0.13693,47
0.407162,-0.0799698,-0.136216,44
0.406975,-0.0799088,-0.135334,45
0.406701,-0.0798185,-0.134423,42
0.407261,-0.0800091,-0.1338,47
0.406768,-0.079845,-0.132817,40
0.40667,-0.0798142,-0.13197,46
0.407231,-0.0800048,-0.131346,45
0.407354,-0.080048,-0.130573,49
0.408137,-0.0803135,-0.13002,41
0.407248,-0.0800163,-0.128913,50
0.408252,-0.0803559,-0.128431,48
0.408023,-0.0802809,-0.127543,50
0.407751,-0.0801913,-0.126643,54
0.40726,-0.0800281,-0.125675,56
0.408132,-0.0803234,-0.125144,51
0.407993,-0.0802785,-0.12429,48
0.409532,-0.0807983,-0.123966,51
0.409215,-0.0806936,-0.123055,51
0.409032,-0.0806338,-0.122187,51
0.408364,-0.080411,-0.121171,51
0.408799,-0.0805594,-0.120497,56
0.409679,-0.0808572,-0.119958,56
0.409054,-0.0806489,-0.118959,59
0.409049,-0.0806493,-0.118151,59
0.409753,-0.0808879,-0.117554,65
0.410014,-0.0809779,-0.116824,62
0.410454,-0.0811279,-0.116147,58
