ply
format ascii 1.0
comment Created by CloudCompare v2.11 alpha (Anoia)
comment Created 2025/12/9 20:01
obj_info Generated by CloudCompare!
element vertex 1388
property float x
property float y
property float z
property float scalar_Scalar_field
end_header
0.42143 -0.0313584 -0.413848 19 
0.418375 -0.0307097 -0.411639 18 
0.420588 -0.0311832 -0.411692 12 
0.422719 -0.0316393 -0.411702 18 
0.421444 -0.0313698 -0.410264 17 
0.418243 -0.0306897 -0.408022 20 
0.42277 -0.0316564 -0.409029 17 
0.42367 -0.0318502 -0.408507 15 
0.420029 -0.0310764 -0.4061 24 
0.421226 -0.0313335 -0.405704 16 
0.421862 -0.0314711 -0.405074 21 
0.419577 -0.0309862 -0.40325 24 
0.421695 -0.0314396 -0.403224 20 
0.419261 -0.030923 -0.401352 22 
0.419129 -0.030897 -0.400415 25 
0.420066 -0.0310987 -0.399907 23 
0.421879 -0.031487 -0.399744 22 
0.420058 -0.031101 -0.398137 26 
0.417146 -0.0304824 -0.396109 19 
0.417772 -0.0306179 -0.395479 26 
0.416841 -0.0304214 -0.39424 21 
0.417165 -0.0304925 -0.393492 23 
0.415391 -0.0301162 -0.391936 25 
0.415465 -0.030134 -0.391096 30 
0.415539 -0.0301519 -0.390256 23 
0.412258 -0.0294545 -0.388145 23 
0.412382 -0.0294829 -0.387332 27 
0.411334 -0.0292615 -0.38608 25 
0.41039 -0.029062 -0.384871 28 
0.410853 -0.0291629 -0.384189 28 
0.408468 -0.0286562 -0.382456 29 
0.410763 -0.0291475 -0.382448 29 
0.410403 -0.0290728 -0.381465 27 
0.408553 -0.0286803 -0.379943 26 
0.409351 -0.0288523 -0.379384 28 
0.40585 -0.0281077 -0.377282 33 
0.406116 -0.0281665 -0.376538 35 
0.405438 -0.0280238 -0.375458 41 
0.407221 -0.028406 -0.375248 47 
0.407062 -0.028374 -0.374352 43 
0.405578 -0.0280595 -0.372997 42 
0.405704 -0.0280883 -0.372205 43 
0.406587 -0.0282785 -0.371673 41 
0.40643 -0.0282469 -0.370783 43 
0.406084 -0.0281751 -0.369831 43 
0.406306 -0.0282243 -0.369072 44 
0.406481 -0.0282636 -0.368297 48 
0.406042 -0.0281719 -0.367317 45 
0.407211 -0.0284232 -0.366873 47 
0.40644 -0.0282607 -0.365786 46 
0.406192 -0.0282096 -0.364873 50 
0.406462 -0.0282692 -0.364131 49 
0.407065 -0.0283997 -0.363496 53 
0.406722 -0.0283284 -0.362556 45 
0.40671 -0.0283279 -0.361723 52 
0.406983 -0.0283879 -0.360981 51 
0.407824 -0.0285694 -0.360418 50 
0.407434 -0.0284881 -0.359466 51 
0.407329 -0.0284676 -0.358606 52 
0.407698 -0.0285482 -0.357893 52 
0.408163 -0.0286492 -0.357209 45 
0.408154 -0.0286491 -0.356378 44 
0.407955 -0.0286086 -0.355491 51 
0.408326 -0.0286897 -0.354777 57 
0.409078 -0.0288522 -0.354177 60 
0.409499 -0.0289439 -0.353475 59 
0.409253 -0.0288932 -0.352575 54 
0.409007 -0.0288427 -0.351677 51 
0.410433 -0.0291488 -0.351268 57 
0.409899 -0.0290369 -0.350287 52 
0.409749 -0.0290068 -0.349418 59 
0.410125 -0.0290889 -0.348701 63 
0.410024 -0.0290692 -0.347848 63 
0.409971 -0.0290597 -0.347009 58 
0.409918 -0.0290503 -0.346171 62 
0.410726 -0.0292247 -0.345573 66 
0.411297 -0.0293485 -0.344907 64 
0.411053 -0.0292983 -0.344016 65 
0.411337 -0.0293608 -0.34327 68 
0.411237 -0.0293415 -0.342421 65 
0.411474 -0.029394 -0.341662 70 
0.411616 -0.029426 -0.340878 70 
0.411998 -0.0295096 -0.340157 74 
0.412478 -0.0296139 -0.339461 84 
0.412669 -0.0296566 -0.338688 80 
0.412813 -0.0296891 -0.337903 78 
0.411752 -0.0294647 -0.33681 81 
0.41373 -0.0298888 -0.336493 78 
0.413536 -0.0298493 -0.335622 75 
0.413585 -0.0298615 -0.334812 73 
0.414507 -0.0300604 -0.33422 79 
0.413925 -0.029938 -0.333254 84 
0.414412 -0.0300438 -0.332552 86 
0.41456 -0.0300772 -0.331767 90 
0.415634 -0.0303084 -0.331204 92 
0.415538 -0.03029 -0.330359 87 
0.415541 -0.0302925 -0.329538 91 
0.41574 -0.0303367 -0.328763 90 
0.416624 -0.0305275 -0.328148 91 
0.416432 -0.0304884 -0.327281 95 
0.416927 -0.0305959 -0.326573 99 
0.417472 -0.0307143 -0.325874 105 
0.418019 -0.030833 -0.325175 100 
0.418618 -0.0309627 -0.324485 96 
0.419416 -0.0311352 -0.323838 103 
0.41863 -0.0309691 -0.322841 107 
0.419231 -0.0310993 -0.322148 109 
0.419685 -0.0311981 -0.321423 108 
0.420439 -0.0313611 -0.320759 107 
0.420596 -0.0313966 -0.319968 110 
0.421154 -0.0315176 -0.31926 112 
0.421413 -0.0315748 -0.318488 115 
0.422325 -0.0317715 -0.31785 105 
0.421782 -0.0316575 -0.316913 106 
0.422596 -0.0318332 -0.316252 112 
0.422405 -0.0317944 -0.315388 111 
0.42398 -0.0321327 -0.314873 116 
0.424498 -0.0322452 -0.314147 116 
0.424408 -0.032228 -0.313301 121 
0.42437 -0.0322217 -0.312465 110 
0.424738 -0.0323022 -0.311708 118 
0.425208 -0.0324047 -0.310969 121 
0.425324 -0.0324312 -0.310162 123 
0.425746 -0.0325233 -0.309412 122 
0.426629 -0.0327139 -0.308744 128 
0.426746 -0.0327409 -0.307936 126 
0.427789 -0.0329655 -0.307292 131 
0.428011 -0.0330148 -0.3065 128 
0.427513 -0.0329104 -0.305582 130 
0.428044 -0.0330259 -0.304844 140 
0.429509 -0.0333407 -0.304264 135 
0.429164 -0.033269 -0.303373 133 
0.429546 -0.0333524 -0.302605 132 
0.430656 -0.0335916 -0.301956 125 
0.430155 -0.0334865 -0.30104 138 
0.430384 -0.0335372 -0.300245 133 
0.430145 -0.0334881 -0.299374 134 
0.430894 -0.0336502 -0.29866 133 
0.431438 -0.0337683 -0.297912 135 
0.431199 -0.0337193 -0.297042 134 
0.432007 -0.0338937 -0.296332 141 
0.432345 -0.0339678 -0.295548 139 
0.432474 -0.0339973 -0.294734 142 
0.432551 -0.0340158 -0.293911 139 
0.432839 -0.0340792 -0.293118 143 
0.432549 -0.0340193 -0.292244 139 
0.433206 -0.0341616 -0.291502 140 
0.432708 -0.034057 -0.2906 139 
0.433629 -0.0342559 -0.289892 145 
0.434503 -0.0344445 -0.289175 140 
0.434161 -0.0343734 -0.288295 131 
0.433821 -0.0343026 -0.287416 126 
0.434062 -0.0343561 -0.286613 132 
0.434621 -0.0344775 -0.28585 129 
0.435554 -0.0346788 -0.285132 133 
0.435214 -0.034608 -0.284254 135 
0.435299 -0.0346282 -0.28343 141 
0.435067 -0.0345805 -0.282567 142 
0.435259 -0.0346235 -0.281756 142 
0.436304 -0.0348488 -0.281041 146 
0.435434 -0.0346648 -0.280107 140 
0.435416 -0.0346629 -0.279271 144 
0.435824 -0.034752 -0.278482 148 
0.435382 -0.0346595 -0.277601 149 
0.435685 -0.0347261 -0.276799 153 
0.435457 -0.0346793 -0.275942 156 
0.435708 -0.0347348 -0.275135 151 
0.4358 -0.0347564 -0.274311 154 
0.436158 -0.034835 -0.273513 155 
0.435826 -0.0347659 -0.272648 155 
0.435867 -0.0347765 -0.27182 152 
0.435536 -0.0347078 -0.270957 154 
0.435366 -0.0346733 -0.27011 161 
0.434985 -0.0345937 -0.269245 156 
0.434499 -0.0344918 -0.268374 158 
0.433647 -0.0343114 -0.267473 162 
0.433481 -0.0342778 -0.266632 167 
0.433421 -0.0342668 -0.265801 166 
0.433413 -0.0342672 -0.264974 168 
0.432987 -0.0341779 -0.264115 169 
0.432876 -0.0341561 -0.263282 164 
0.432348 -0.034045 -0.262419 161 
0.431978 -0.0339677 -0.261569 164 
0.430829 -0.033724 -0.260667 171 
0.43036 -0.0336254 -0.259815 171 
0.430047 -0.0335604 -0.258975 173 
0.42958 -0.0334624 -0.258127 176 
0.429372 -0.0334199 -0.257297 169 
0.42896 -0.0333335 -0.256456 173 
0.429011 -0.0333463 -0.255643 178 
0.429114 -0.0333703 -0.254833 178 
0.427373 -0.0329998 -0.253923 182 
0.428603 -0.0332646 -0.253174 178 
0.426867 -0.0328953 -0.252272 176 
0.427227 -0.032974 -0.251478 180 
0.427026 -0.032933 -0.250657 179 
0.426877 -0.032903 -0.249839 183 
0.426272 -0.0327754 -0.249002 178 
0.42572 -0.0326591 -0.24817 174 
0.425574 -0.0326297 -0.247356 176 
0.425378 -0.0325896 -0.24654 181 
0.424276 -0.0323557 -0.245694 180 
0.423781 -0.0322518 -0.244872 181 
0.423739 -0.0322446 -0.244066 183 
0.423497 -0.0321947 -0.243254 184 
0.423506 -0.0321984 -0.24245 182 
0.423316 -0.0321595 -0.241641 184 
0.422826 -0.0320566 -0.240826 185 
0.422787 -0.0320501 -0.240023 182 
0.422848 -0.0320651 -0.239222 184 
0.422611 -0.0320161 -0.238415 180 
0.422673 -0.0320313 -0.237614 187 
0.423185 -0.0321428 -0.236819 187 
0.42275 -0.0320513 -0.236011 187 
0.422415 -0.0319815 -0.235205 190 
0.421833 -0.0318588 -0.234399 188 
0.421898 -0.0318745 -0.233599 189 
0.422212 -0.0319436 -0.2328 186 
0.422427 -0.0319916 -0.231999 185 
0.422295 -0.0319651 -0.231197 186 
0.422462 -0.0320027 -0.230396 192 
0.42238 -0.0319871 -0.229595 189 
0.4222 -0.0319503 -0.228794 187 
0.421672 -0.0318393 -0.227996 185 
0.421692 -0.0318453 -0.227196 189 
0.422907 -0.0321073 -0.226383 181 
0.422679 -0.0320602 -0.225583 182 
0.422053 -0.0319281 -0.22479 185 
0.422623 -0.0320519 -0.22398 180 
0.423394 -0.032219 -0.223164 181 
0.42412 -0.0323761 -0.222346 187 
0.422792 -0.0320938 -0.22157 182 
0.422368 -0.0320048 -0.220777 180 
0.422343 -0.0320013 -0.219976 183 
0.422568 -0.0320513 -0.219168 182 
0.423293 -0.0322084 -0.218344 181 
0.42357 -0.0322696 -0.217532 182 
0.422847 -0.0321167 -0.216751 185 
0.423225 -0.0321994 -0.215935 186 
0.422554 -0.0320577 -0.215155 182 
0.423583 -0.0322798 -0.214313 178 
0.423412 -0.0322451 -0.213515 183 
0.423192 -0.0321998 -0.21272 178 
0.424175 -0.0324123 -0.211872 181 
0.423906 -0.0323563 -0.211078 184 
0.423737 -0.0323221 -0.21028 181 
0.42392 -0.0323632 -0.209465 182 
0.424355 -0.0324582 -0.208636 181 
0.424238 -0.032435 -0.207835 183 
0.424675 -0.0325305 -0.207004 185 
0.424408 -0.0324752 -0.206211 184 
0.424092 -0.0324093 -0.205422 182 
0.424279 -0.0324512 -0.204604 182 
0.424819 -0.0325688 -0.203762 188 
0.424857 -0.0325787 -0.20295 184 
0.424139 -0.0324268 -0.202189 182 
0.424731 -0.0325556 -0.20134 180 
0.42568 -0.0327607 -0.200464 186 
0.426278 -0.0328907 -0.199609 188 
0.426268 -0.0328904 -0.198797 190 
0.425802 -0.0327924 -0.19802 187 
0.426911 -0.0330319 -0.19712 187 
0.42543 -0.0327164 -0.196425 187 
0.42664 -0.0329776 -0.195514 192 
0.426786 -0.0330107 -0.194687 190 
0.426118 -0.0328694 -0.19393 189 
0.427181 -0.0330991 -0.193023 191 
0.426869 -0.0330343 -0.192235 189 
0.427068 -0.0330788 -0.191401 191 
0.427371 -0.0331454 -0.190556 191 
0.427162 -0.0331027 -0.189759 192 
0.427466 -0.0331696 -0.188912 186 
0.426902 -0.0330506 -0.188151 185 
0.427206 -0.0331177 -0.187303 183 
0.427767 -0.0332398 -0.186427 184 
0.427459 -0.0331757 -0.185641 186 
0.42751 -0.0331885 -0.184817 187 
0.42751 -0.0331905 -0.183997 187 
0.427511 -0.0331926 -0.183178 189 
0.428796 -0.0334699 -0.182213 187 
0.427822 -0.033263 -0.181503 188 
0.428801 -0.0334747 -0.180567 186 
0.428393 -0.0333891 -0.179793 190 
0.428706 -0.033458 -0.178933 187 
0.428813 -0.033483 -0.178096 186 
0.429644 -0.033663 -0.177169 181 
0.429702 -0.0336773 -0.176336 183 
0.428727 -0.0334702 -0.175634 182 
0.428734 -0.0334736 -0.174809 189 
0.429671 -0.0336764 -0.17386 183 
0.430042 -0.0337578 -0.172983 182 
0.430154 -0.0337838 -0.17214 186 
0.43006 -0.0337655 -0.171324 186 
0.430381 -0.0338363 -0.17045 186 
0.430236 -0.033807 -0.169641 188 
0.430351 -0.0338336 -0.168794 185 
0.430155 -0.0337935 -0.167992 181 
0.430583 -0.0338872 -0.167098 179 
0.431065 -0.0339924 -0.166195 184 
0.43087 -0.0339525 -0.165391 187 
0.430884 -0.0339574 -0.164556 184 
0.430898 -0.0339625 -0.16372 185 
0.430757 -0.0339341 -0.162909 183 
0.431295 -0.0340514 -0.161989 185 
0.431468 -0.0340904 -0.161126 187 
0.43138 -0.0340736 -0.160304 180 
0.432132 -0.0342366 -0.159344 182 
0.43173 -0.0341525 -0.158572 179 
0.432432 -0.0343048 -0.157616 179 
0.433242 -0.0344805 -0.156638 183 
0.433897 -0.0346229 -0.155684 182 
0.433918 -0.0346293 -0.154837 178 
0.434045 -0.0346586 -0.15397 181 
0.433909 -0.0346312 -0.15315 177 
0.43409 -0.0346722 -0.152273 179 
0.434432 -0.0347475 -0.151365 180 
0.434882 -0.0348459 -0.150436 178 
0.434747 -0.0348189 -0.149613 178 
0.434772 -0.0348263 -0.14876 176 
0.434745 -0.0348224 -0.147916 173 
0.435091 -0.0348986 -0.147001 176 
0.435492 -0.0349866 -0.146073 180 
0.43552 -0.0349945 -0.145216 175 
0.436406 -0.0351865 -0.144189 176 
0.436381 -0.0351832 -0.14334 172 
0.436895 -0.0352954 -0.142381 174 
0.436334 -0.035177 -0.14164 174 
0.437226 -0.0353704 -0.140601 171 
0.437636 -0.0354603 -0.139658 174 
0.437344 -0.0353997 -0.13886 168 
0.437918 -0.0355248 -0.137879 173 
0.437519 -0.0354411 -0.137104 171 
0.437932 -0.0355317 -0.136154 175 
0.438292 -0.035611 -0.135214 174 
0.438328 -0.0356206 -0.134344 166 
0.438581 -0.035677 -0.133424 169 
0.43889 -0.0357452 -0.13249 172 
0.439254 -0.0358254 -0.131542 175 
0.440442 -0.0360822 -0.130406 176 
0.439222 -0.0358225 -0.129815 176 
0.439425 -0.0358681 -0.1289 174 
0.440506 -0.036102 -0.127779 167 
0.440492 -0.036101 -0.126911 168 
0.441083 -0.03623 -0.125898 167 
0.441401 -0.0363002 -0.124948 167 
0.441831 -0.0363945 -0.123969 172 
0.441157 -0.0362517 -0.123257 170 
0.441753 -0.0363817 -0.122235 169 
0.441853 -0.0364052 -0.121332 172 
0.442397 -0.0365241 -0.120318 174 
0.441999 -0.0364407 -0.119538 172 
0.442601 -0.0365719 -0.118506 169 
0.442871 -0.0366318 -0.117555 168 
0.443532 -0.0367758 -0.116502 169 
0.44319 -0.0367045 -0.115706 169 
0.442793 -0.0366214 -0.114925 165 
0.442899 -0.036646 -0.114012 167 
0.442949 -0.0366588 -0.113113 166 
0.442832 -0.0366359 -0.112258 160 
0.442939 -0.0366609 -0.111343 165 
0.442657 -0.0366023 -0.110532 162 
0.4431 -0.0366993 -0.109524 167 
0.442094 -0.0364855 -0.108911 167 
0.442536 -0.0365826 -0.1079 166 
0.442869 -0.036656 -0.106918 164 
0.442589 -0.0365979 -0.106106 170 
0.442867 -0.0366597 -0.105137 162 
0.442309 -0.0365419 -0.104404 164 
0.442142 -0.0365081 -0.10356 164 
0.441753 -0.0364266 -0.102781 160 
0.441365 -0.0363454 -0.102002 161 
0.442368 -0.0365628 -0.100816 154 
0.440813 -0.036231 -0.10038 156 
0.440705 -0.0362098 -0.09952 154 
0.44032 -0.0361292 -0.098743 153 
0.440378 -0.0361438 -0.097833 163 
0.440216 -0.0361109 -0.096989 159 
0.439998 -0.0360663 -0.096162 165 
0.439892 -0.0360456 -0.095301 168 
0.438904 -0.0358355 -0.094711 162 
0.438579 -0.0357678 -0.093919 164 
0.438915 -0.0358419 -0.092921 165 
0.438426 -0.0357389 -0.092181 161 
0.437938 -0.0356362 -0.091441 159 
0.437451 -0.0355337 -0.090702 157 
0.43642 -0.0353144 -0.090139 157 
0.437028 -0.0354469 -0.089051 161 
0.436817 -0.0354037 -0.088225 165 
0.435789 -0.035185 -0.087666 162 
0.434875 -0.0349906 -0.087074 161 
0.434883 -0.0349945 -0.086179 159 
0.434459 -0.0349054 -0.085428 154 
0.434306 -0.0348745 -0.084586 155 
0.433829 -0.0347741 -0.083854 148 
0.433839 -0.0347783 -0.082957 139 
0.433363 -0.0346782 -0.082226 132 
0.43332 -0.034671 -0.081347 133 
0.432685 -0.0345366 -0.080672 128 
0.431089 -0.0341958 -0.080332 124 
0.431367 -0.0342576 -0.079344 128 
0.431058 -0.0341932 -0.07856 127 
0.430164 -0.0340031 -0.077984 130 
0.42975 -0.0339164 -0.077239 125 
0.430774 -0.0341384 -0.075982 135 
0.430627 -0.0341088 -0.07514 137 
0.429098 -0.0337823 -0.074798 132 
0.428265 -0.0336053 -0.074208 129 
0.428119 -0.0335762 -0.07337 139 
0.427922 -0.0335358 -0.072551 133 
0.427251 -0.0333936 -0.071906 136 
0.427581 -0.0334666 -0.070892 133 
0.426701 -0.0332795 -0.070327 134 
0.426191 -0.033172 -0.069627 140 
0.426101 -0.0331547 -0.068769 144 
0.426063 -0.0331487 -0.06789 146 
0.425033 -0.0329294 -0.06739 147 
0.424996 -0.0329235 -0.066513 143 
0.424699 -0.0328617 -0.065735 140 
0.424872 -0.0329008 -0.064775 139 
0.423899 -0.0326938 -0.06426 141 
0.4248 -0.0328896 -0.063013 139 
0.423465 -0.0326045 -0.062645 142 
0.423482 -0.0326102 -0.061744 135 
0.423291 -0.0325714 -0.060926 131 
0.423205 -0.0325549 -0.060065 124 
0.422705 -0.0324494 -0.059371 117 
0.422723 -0.0324554 -0.058468 117 
0.423104 -0.0325394 -0.057417 115 
0.422812 -0.0324786 -0.056638 121 
0.422106 -0.032329 -0.05603 118 
0.422436 -0.0324019 -0.054996 118 
0.422611 -0.0324417 -0.054024 123 
0.423254 -0.032582 -0.052855 122 
0.423119 -0.032555 -0.05201 118 
0.422984 -0.0325281 -0.051163 113 
0.422745 -0.0324789 -0.050361 106 
0.422403 -0.0324074 -0.049602 105 
0.422685 -0.03247 -0.048577 104 
0.423019 -0.032544 -0.047528 103 
0.422781 -0.032495 -0.046723 106 
0.423639 -0.0326814 -0.045443 105 
0.423767 -0.0327111 -0.044476 105 
0.423477 -0.0326509 -0.043692 105 
0.424182 -0.0328046 -0.042469 102 
0.424312 -0.0328347 -0.041497 105 
0.42439 -0.0328536 -0.040547 115 
0.424416 -0.0328612 -0.039619 98 
0.423864 -0.0327447 -0.038949 101 
0.424626 -0.0329108 -0.037687 96 
0.424864 -0.032964 -0.03666 99 
0.425472 -0.033097 -0.035461 121 
0.424866 -0.0329688 -0.034815 105 
0.424947 -0.0329884 -0.033854 104 
0.425982 -0.0332131 -0.032451 94 
0.420192 -0.034528 -0.437074 9 
0.41809 -0.0340654 -0.435134 8 
0.41718 -0.0338662 -0.43378 9 
0.417904 -0.0340284 -0.433216 7 
0.418118 -0.0340779 -0.432407 9 
0.409368 -0.0321446 -0.427326 7 
0.421747 -0.0348847 -0.432305 6 
0.423164 -0.0352004 -0.432057 7 
0.417649 -0.0339827 -0.428544 11 
0.419863 -0.0344743 -0.428673 8 
0.420544 -0.0346271 -0.428079 8 
1.19069 -0.20499 -0.786397 7 
0.417748 -0.0340128 -0.424966 12 
0.422339 -0.0350306 -0.426172 8 
0.418487 -0.0341804 -0.423498 10 
0.423196 -0.0352243 -0.424737 11 
0.417647 -0.0339989 -0.421311 14 
0.416597 -0.0337687 -0.419938 13 
0.420384 -0.0346086 -0.42074 14 
1.34038 -0.238157 -0.833329 8 
0.423467 -0.0352949 -0.420303 9 
0.41772 -0.0340253 -0.416851 14 
0.419671 -0.0344592 -0.416815 15 
0.419891 -0.03451 -0.416012 18 
0.418223 -0.034143 -0.414386 17 
0.419513 -0.0344305 -0.414051 16 
0.420913 -0.0347424 -0.413759 17 
0.420467 -0.0346457 -0.412669 17 
0.418798 -0.0342784 -0.411059 17 
0.418155 -0.0341382 -0.409893 16 
0.422061 -0.0350047 -0.410657 19 
0.419819 -0.0345105 -0.408815 19 
0.419888 -0.0345278 -0.407952 25 
0.420725 -0.0347151 -0.407409 18 
0.420129 -0.0345853 -0.40627 22 
0.418874 -0.0343097 -0.404862 25 
0.418184 -0.034159 -0.403691 21 
0.420544 -0.0346833 -0.403771 17 
0.418123 -0.0341496 -0.401898 18 
0.417035 -0.0339108 -0.400575 17 
0.41867 -0.0342748 -0.400354 20 
0.418641 -0.0342703 -0.39946 22 
0.416898 -0.0338866 -0.397884 20 
0.41657 -0.0338158 -0.396877 17 
0.415792 -0.0336458 -0.395695 22 
0.415815 -0.0336529 -0.394831 22 
0.413311 -0.0331005 -0.392982 21 
0.415116 -0.033502 -0.392815 19 
0.411204 -0.032638 -0.390437 22 
0.41201 -0.0328185 -0.389885 22 
0.411108 -0.0326208 -0.38868 22 
0.412501 -0.0329312 -0.388349 26 
0.412233 -0.0328739 -0.387387 24 
0.410555 -0.0325042 -0.385897 31 
0.410001 -0.0323835 -0.384835 30 
0.408631 -0.0320821 -0.383473 29 
0.408418 -0.0320371 -0.382544 32 
0.409745 -0.0323328 -0.382182 23 
0.406946 -0.0317151 -0.380309 29 
0.405837 -0.0314713 -0.379062 28 
0.405583 -0.0314169 -0.378129 34 
0.405093 -0.0313106 -0.377113 34 
0.405265 -0.0313505 -0.376336 34 
0.405201 -0.0313382 -0.375475 33 
0.405232 -0.031347 -0.374648 39 
0.404558 -0.0311996 -0.373575 42 
0.405012 -0.0313021 -0.372898 42 
0.405514 -0.0314153 -0.372237 42 
0.404934 -0.0312888 -0.371202 42 
0.40417 -0.0311214 -0.370107 43 
0.404858 -0.0312758 -0.36951 44 
0.405267 -0.0313683 -0.368817 42 
0.406101 -0.0315549 -0.368265 45 
0.405616 -0.0314494 -0.36727 48 
0.406026 -0.0315422 -0.366575 49 
0.406958 -0.0317505 -0.366051 46 
0.407087 -0.031781 -0.365261 47 
0.406129 -0.0315708 -0.364116 48 
0.406589 -0.0316746 -0.363435 49 
0.40653 -0.0316634 -0.362586 53 
0.40633 -0.031621 -0.361693 50 
0.409644 -0.0323571 -0.361919 54 
0.406402 -0.0316408 -0.36006 54 
0.408142 -0.0320283 -0.359779 48 
0.407231 -0.0318283 -0.358665 49 
0.408835 -0.0321856 -0.358335 47 
0.409015 -0.0322275 -0.35756 50 
0.407675 -0.0319325 -0.35632 49 
0.406816 -0.0317439 -0.355232 51 
0.407894 -0.0319848 -0.354734 51 
0.408312 -0.0320794 -0.354034 53 
0.407641 -0.0319326 -0.353008 59 
0.409343 -0.0323116 -0.352688 65 
0.410531 -0.0325767 -0.352211 52 
0.410044 -0.0324708 -0.35124 62 
0.409321 -0.0323125 -0.350204 58 
0.409219 -0.0322918 -0.349349 62 
0.410502 -0.0325781 -0.348893 62 
0.409541 -0.0323669 -0.347793 59 
0.409345 -0.0323254 -0.346915 64 
0.40953 -0.0323684 -0.346144 66 
0.408955 -0.0322428 -0.345162 63 
0.410189 -0.0325182 -0.344682 62 
0.410615 -0.0326145 -0.343977 62 
0.410324 -0.032552 -0.343075 64 
0.410943 -0.032691 -0.342421 66 
0.410988 -0.0327029 -0.341611 70 
0.411081 -0.0327254 -0.340814 71 
0.411462 -0.0328118 -0.340093 76 
0.411748 -0.0328772 -0.339347 73 
0.412613 -0.0330708 -0.338751 73 
0.411554 -0.0328378 -0.337654 70 
0.411937 -0.0329246 -0.336933 70 
0.412803 -0.0331186 -0.336333 74 
0.413625 -0.0333026 -0.335719 77 
0.41377 -0.0333368 -0.334933 76 
0.41319 -0.03321 -0.333967 76 
0.413723 -0.0333301 -0.333278 83 
0.414938 -0.0336015 -0.332755 91 
0.414259 -0.0334528 -0.331767 84 
0.414164 -0.0334336 -0.330923 82 
0.414167 -0.0334361 -0.330104 83 
0.414655 -0.0335463 -0.3294 90 
0.415681 -0.0337757 -0.32882 93 
0.415978 -0.0338434 -0.328068 92 
0.415493 -0.0337379 -0.327134 94 
0.415791 -0.0338057 -0.326382 102 
0.416872 -0.0340474 -0.325808 103 
0.417516 -0.0341921 -0.325131 105 
0.418508 -0.0344139 -0.324529 102 
0.41802 -0.0343076 -0.323597 102 
0.418718 -0.0344643 -0.322927 98 
0.418675 -0.0344567 -0.322095 103 
0.419226 -0.0345809 -0.32139 103 
0.420078 -0.0347717 -0.320749 108 
0.420335 -0.0348306 -0.319978 105 
0.420592 -0.0348896 -0.319207 108 
0.42115 -0.0350153 -0.318498 110 
0.421159 -0.0350192 -0.317675 116 
0.42192 -0.0351898 -0.317005 113 
0.42193 -0.0351939 -0.316181 114 
0.422292 -0.0352761 -0.315428 120 
0.422403 -0.0353027 -0.314624 114 
0.422917 -0.0354187 -0.313899 117 
0.423383 -0.0355239 -0.313164 123 
0.423951 -0.0356518 -0.312446 114 
0.424724 -0.0358252 -0.311766 117 
0.424534 -0.035785 -0.310902 120 
0.425106 -0.0359139 -0.310181 118 
0.425273 -0.0359528 -0.309383 119 
0.426154 -0.0361502 -0.308716 131 
0.426374 -0.0362008 -0.307926 132 
0.426645 -0.0362629 -0.307146 131 
0.427225 -0.0363934 -0.306418 122 
0.427446 -0.0364446 -0.305627 129 
0.428699 -0.0367245 -0.305013 128 
0.428511 -0.0366845 -0.304149 128 
0.428838 -0.0367592 -0.303373 129 
0.429271 -0.0368571 -0.302613 140 
0.428825 -0.03676 -0.301708 134 
0.42962 -0.0369385 -0.301007 130 
0.429744 -0.0369679 -0.300195 130 
0.430336 -0.0371012 -0.299457 136 
0.430461 -0.0371309 -0.298644 134 
0.431213 -0.0372995 -0.297928 139 
0.431078 -0.0372717 -0.297074 131 
0.430997 -0.0372556 -0.296229 139 
0.431647 -0.0374017 -0.295494 138 
0.43188 -0.0374554 -0.294695 140 
0.432009 -0.037486 -0.29388 139 
0.432192 -0.0375284 -0.293073 143 
0.432165 -0.0375244 -0.292236 139 
0.432873 -0.0376835 -0.291502 142 
0.432795 -0.0376681 -0.290658 141 
0.432875 -0.0376878 -0.289835 145 
0.433218 -0.037766 -0.289048 137 
0.433563 -0.0378443 -0.28826 134 
0.433487 -0.0378294 -0.287416 133 
0.433833 -0.0379081 -0.286627 135 
0.43381 -0.0379051 -0.28579 132 
0.434 -0.037949 -0.28498 137 
0.434084 -0.0379696 -0.284157 134 
0.434327 -0.0380256 -0.283353 137 
0.434149 -0.0379879 -0.282498 139 
0.434235 -0.0380089 -0.281675 145 
0.434269 -0.0380184 -0.280846 145 
0.434568 -0.0380866 -0.280047 150 
0.435185 -0.0382257 -0.279283 148 
0.434956 -0.0381767 -0.278424 150 
0.434516 -0.038081 -0.277544 146 
0.434712 -0.0381263 -0.276732 146 
0.43512 -0.0382189 -0.275942 152 
0.434629 -0.0381118 -0.27506 149 
0.434826 -0.0381575 -0.274248 155 
0.434601 -0.0381095 -0.273394 153 
0.434061 -0.0379914 -0.272511 156 
0.434206 -0.0380257 -0.271695 163 
0.433984 -0.0379782 -0.270845 166 
0.434184 -0.0380245 -0.270034 162 
0.433963 -0.0379773 -0.269185 161 
0.433742 -0.0379303 -0.268337 165 
0.432736 -0.0377088 -0.267424 161 
0.432885 -0.0377437 -0.26661 165 
0.432511 -0.0376625 -0.265754 168 
0.432138 -0.0375816 -0.2649 173 
0.431038 -0.0373392 -0.263991 172 
0.429842 -0.0370753 -0.263079 175 
0.430146 -0.0371449 -0.262282 164 
0.430142 -0.0371458 -0.261462 166 
0.429467 -0.0369978 -0.260595 169 
0.429103 -0.0369189 -0.259753 175 
0.429203 -0.036943 -0.258942 175 
0.428944 -0.0368873 -0.258108 179 
0.427406 -0.0365476 -0.257196 178 
0.427405 -0.0365493 -0.256382 178 
0.426947 -0.0364493 -0.255542 177 
0.427151 -0.0364965 -0.254741 179 
0.426693 -0.0363968 -0.253903 171 
0.426238 -0.0362974 -0.253068 183 
0.425784 -0.0361985 -0.252234 182 
0.426243 -0.0363023 -0.251446 183 
0.425436 -0.0361249 -0.250598 183 
0.424432 -0.0359036 -0.249744 179 
0.424839 -0.0359959 -0.248955 183 
0.424844 -0.0359989 -0.248147 180 
0.423594 -0.035723 -0.247291 176 
0.42295 -0.0355818 -0.246462 180 
0.422807 -0.0355519 -0.245653 181 
0.422565 -0.0355 -0.244842 184 
0.422373 -0.0354593 -0.244033 184 
0.422133 -0.0354077 -0.243223 181 
0.422192 -0.0354226 -0.242423 183 
0.422102 -0.0354045 -0.241618 189 
0.421963 -0.0353755 -0.240813 188 
0.421973 -0.0353797 -0.240012 184 
0.421241 -0.0352187 -0.239196 183 
0.421005 -0.0351682 -0.238392 185 
0.421711 -0.0353269 -0.237604 184 
0.421625 -0.0353096 -0.236801 188 
0.421341 -0.0352484 -0.235997 192 
0.420514 -0.0350665 -0.235188 188 
0.420184 -0.0349949 -0.234387 191 
0.420989 -0.0351756 -0.233595 190 
0.421499 -0.035291 -0.232798 192 
0.421318 -0.0352524 -0.231997 190 
0.421285 -0.035247 -0.231197 190 
0.421451 -0.0352858 -0.230397 193 
0.421419 -0.0352806 -0.229596 190 
0.420894 -0.0351656 -0.228799 190 
0.420419 -0.0350619 -0.228002 190 
0.42113 -0.0352219 -0.227198 193 
0.420459 -0.0350744 -0.226405 188 
0.420775 -0.0351467 -0.225603 184 
0.420698 -0.0351313 -0.224805 185 
0.420769 -0.035149 -0.224005 188 
0.420594 -0.0351119 -0.223209 186 
0.42042 -0.035075 -0.222413 183 
0.420295 -0.0350492 -0.221617 186 
0.420714 -0.0351442 -0.220809 187 
0.420591 -0.0351185 -0.220013 183 
0.420715 -0.035148 -0.21921 187 
0.42074 -0.0351555 -0.21841 179 
0.421063 -0.0352292 -0.2176 182 
0.421041 -0.0352261 -0.2168 180 
0.420969 -0.035212 -0.216003 179 
0.4208 -0.0351761 -0.215209 181 
0.421076 -0.0352393 -0.214398 177 
0.421353 -0.0353028 -0.213586 176 
0.421283 -0.0352892 -0.212787 179 
0.421115 -0.0352538 -0.211993 180 
0.421741 -0.0353948 -0.211163 187 
0.421872 -0.0354258 -0.210355 184 
0.421557 -0.0353575 -0.209568 176 
0.421937 -0.035444 -0.208745 178 
0.421623 -0.0353759 -0.207959 183 
0.421806 -0.0354184 -0.207146 182 
0.422437 -0.0355608 -0.206307 182 
0.422423 -0.0355594 -0.205503 177 
0.422309 -0.0355359 -0.204705 183 
0.421947 -0.0354572 -0.203923 183 
0.422033 -0.0354783 -0.203114 181 
0.423569 -0.0358218 -0.202206 176 
0.423007 -0.0356985 -0.201437 178 
0.423496 -0.0358092 -0.200596 179 
0.423385 -0.0357864 -0.199796 185 
0.423224 -0.0357526 -0.199001 181 
0.423566 -0.0358303 -0.198167 181 
0.423858 -0.0358972 -0.197335 181 
0.424302 -0.0359978 -0.19649 184 
0.424042 -0.035942 -0.195701 188 
0.424135 -0.0359646 -0.194884 186 
0.42428 -0.0359986 -0.194061 189 
0.424122 -0.0359655 -0.193264 189 
0.424268 -0.0359997 -0.19244 184 
0.424615 -0.0360789 -0.191597 182 
0.424762 -0.0361135 -0.190771 185 
0.42491 -0.0361482 -0.189944 181 
0.424503 -0.0360595 -0.18917 179 
0.425106 -0.0361956 -0.188298 179 
0.426016 -0.0363999 -0.187391 180 
0.425355 -0.0362548 -0.186643 178 
0.425152 -0.0362114 -0.18585 181 
0.42581 -0.0363598 -0.184964 188 
0.425912 -0.0363843 -0.184136 187 
0.426116 -0.0364316 -0.183297 178 
0.426168 -0.0364451 -0.182473 181 
0.426577 -0.036538 -0.181608 180 
0.426631 -0.0365518 -0.180783 181 
0.426379 -0.0364977 -0.179993 179 
0.426535 -0.0365344 -0.179155 179 
0.426641 -0.03656 -0.178322 176 
0.427208 -0.036688 -0.177431 177 
0.427265 -0.0367025 -0.176602 179 
0.427783 -0.0368197 -0.175714 179 
0.427892 -0.036846 -0.174876 182 
0.427541 -0.0367696 -0.174098 176 
0.428061 -0.0368874 -0.173205 181 
0.427967 -0.0368683 -0.172392 187 
0.428285 -0.0369409 -0.171523 184 
0.429533 -0.0372207 -0.170522 183 
0.428304 -0.0369491 -0.169868 187 
0.428779 -0.0370567 -0.168973 181 
0.42941 -0.0371992 -0.168052 187 
0.429629 -0.0372499 -0.16719 182 
0.429746 -0.0372777 -0.166342 184 
0.429707 -0.037271 -0.165517 187 
0.42998 -0.0373338 -0.164644 185 
0.430151 -0.0373736 -0.163785 186 
0.430062 -0.0373558 -0.162966 178 
0.430077 -0.0373612 -0.16213 180 
0.43025 -0.0374014 -0.161269 176 
0.430527 -0.037465 -0.160389 178 
0.430544 -0.0374708 -0.159551 176 
0.430771 -0.0375232 -0.158677 176 
0.430998 -0.0375758 -0.157802 178 
0.431122 -0.0376053 -0.156943 174 
0.431089 -0.0376 -0.156111 172 
0.432 -0.0378048 -0.155113 177 
0.431916 -0.037788 -0.154287 176 
0.433202 -0.0380763 -0.153216 172 
0.432591 -0.0379423 -0.152483 173 
0.433459 -0.0381375 -0.151481 173 
0.433801 -0.0382155 -0.150573 170 
0.433825 -0.0382229 -0.149722 170 
0.434115 -0.0382895 -0.14882 169 
0.434619 -0.0384037 -0.147876 172 
0.434327 -0.0383405 -0.147083 172 
0.434833 -0.0384551 -0.146135 173 
0.434967 -0.038487 -0.145258 179 
0.435048 -0.0385072 -0.14439 180 
0.435184 -0.0385393 -0.143511 180 
0.43516 -0.0385359 -0.142663 174 
0.435404 -0.0385922 -0.14176 172 
0.435809 -0.0386845 -0.140822 174 
0.437293 -0.039017 -0.139658 171 
0.437109 -0.0389781 -0.138837 174 
0.437466 -0.0390596 -0.137902 177 
0.437392 -0.039045 -0.137058 174 
0.437858 -0.039151 -0.136096 171 
0.43811 -0.039209 -0.135179 171 
0.437929 -0.0391706 -0.134356 174 
0.438127 -0.0392169 -0.133448 172 
0.438327 -0.0392633 -0.132539 171 
0.438473 -0.0392978 -0.131641 173 
0.438511 -0.0393083 -0.130766 170 
0.43844 -0.0392946 -0.129915 172 
0.438642 -0.0393416 -0.129001 171 
0.440212 -0.0396934 -0.127766 168 
0.440198 -0.0396923 -0.126898 167 
0.440569 -0.0397769 -0.125937 175 
0.440446 -0.0397516 -0.125093 169 
0.440819 -0.0398366 -0.124129 175 
0.440312 -0.0397258 -0.123377 169 
0.440465 -0.039762 -0.122464 173 
0.441447 -0.0399827 -0.121346 173 
0.441326 -0.0399578 -0.120497 172 
0.441925 -0.0400933 -0.119468 169 
0.441473 -0.0399947 -0.118702 171 
0.441908 -0.0400936 -0.117711 171 
0.441678 -0.0400445 -0.116888 167 
0.443841 -0.0405285 -0.115446 166 
0.441941 -0.0401072 -0.115055 168 
0.44199 -0.0401202 -0.114158 169 
0.442429 -0.04022 -0.113158 168 
0.442758 -0.0402953 -0.112184 165 
0.442865 -0.0403212 -0.111268 165 
0.442249 -0.0401859 -0.110547 164 
0.442245 -0.0401872 -0.10966 163 
0.442409 -0.0402258 -0.108727 163 
0.442574 -0.0402646 -0.107792 164 
0.44246 -0.0402414 -0.106934 162 
0.442292 -0.0402059 -0.106091 158 
0.44218 -0.0401829 -0.105232 159 
0.442291 -0.0402097 -0.104309 162 
0.442179 -0.0401869 -0.103448 161 
0.442124 -0.0401767 -0.102572 160 
0.441181 -0.0399684 -0.101953 155 
0.441293 -0.0399955 -0.101028 155 
0.440907 -0.0399114 -0.100249 153 
0.441575 -0.0400625 -0.099158 159 
0.440468 -0.0398178 -0.098594 157 
0.44014 -0.0397466 -0.0978 158 
0.439977 -0.0397125 -0.096956 158 
0.439485 -0.0396046 -0.096212 160 
0.438883 -0.0394726 -0.095504 166 
0.439659 -0.0396477 -0.094371 163 
0.439278 -0.0395649 -0.093594 164 
0.4378 -0.0392373 -0.093162 164 
0.43808 -0.0393018 -0.092181 157 
0.438031 -0.039293 -0.091302 161 
0.43749 -0.0391743 -0.09058 159 
0.436841 -0.0390316 -0.089894 157 
0.437012 -0.0390719 -0.088945 159 
0.436202 -0.0388931 -0.088314 158 
0.43621 -0.038897 -0.087417 155 
0.435456 -0.0387311 -0.08677 150 
0.434977 -0.0386261 -0.086035 146 
0.434552 -0.0385335 -0.085283 148 
0.434183 -0.0384532 -0.084514 146 
0.43403 -0.0384213 -0.083671 149 
0.433555 -0.0383172 -0.082939 145 
0.433781 -0.0383697 -0.081968 135 
0.43207 -0.0379902 -0.081661 133 
0.433371 -0.0382824 -0.080319 130 
0.43279 -0.0381548 -0.079625 128 
0.432157 -0.0380157 -0.078951 127 
0.431045 -0.0377697 -0.078448 130 
0.430364 -0.0376197 -0.077795 135 
0.429525 -0.0374348 -0.077201 130 
0.428902 -0.0372977 -0.076533 134 
0.429709 -0.0374799 -0.075351 130 
0.429351 -0.037402 -0.074587 132 
0.428147 -0.0371355 -0.074132 134 
0.427949 -0.0370934 -0.073312 137 
0.428279 -0.0371692 -0.072298 138 
0.427766 -0.0370566 -0.071594 135 
0.427358 -0.0369678 -0.070852 143 
0.426008 -0.0366686 -0.070465 149 
0.426075 -0.0366855 -0.069548 148 
0.426037 -0.0366792 -0.06867 148 
0.425739 -0.0366146 -0.06789 150 
0.425545 -0.0365734 -0.067071 147 
0.423946 -0.0362186 -0.066793 138 
0.423546 -0.0361315 -0.066056 142 
0.423251 -0.0360677 -0.065279 137 
0.42275 -0.0359578 -0.064584 134 
0.422404 -0.0358828 -0.063828 138 
0.422214 -0.0358424 -0.063012 133 
0.422799 -0.035975 -0.061888 127 
0.422609 -0.0359347 -0.06107 133 
0.422471 -0.035906 -0.060231 130 
0.422179 -0.0358428 -0.059454 120 
0.422507 -0.0359181 -0.058426 119 
0.422215 -0.035855 -0.057649 121 
0.421306 -0.0356541 -0.057125 108 
0.420656 -0.0355112 -0.056496 111 
0.421395 -0.0356781 -0.055295 120 
0.421672 -0.035742 -0.054282 119 
0.421485 -0.0357024 -0.053461 120 
0.421299 -0.0356629 -0.05264 124 
0.422249 -0.0358772 -0.051339 124 
0.421701 -0.0357569 -0.050668 117 
0.422136 -0.0358561 -0.04958 109 
0.422002 -0.0358283 -0.048733 111 
0.422024 -0.0358353 -0.047818 114 
0.421995 -0.0358309 -0.046925 109 
0.423317 -0.0361283 -0.045443 112 
0.422976 -0.0360541 -0.044682 106 
0.422896 -0.0360383 -0.043806 107 
0.422816 -0.0360225 -0.04293 106 
0.422944 -0.0360534 -0.041961 104 
0.422813 -0.0360261 -0.041106 113 
0.423308 -0.0361387 -0.039971 110 
0.422602 -0.0359834 -0.039372 104 
0.423307 -0.0361429 -0.038138 99 
0.423438 -0.0361743 -0.037161 110 
0.423727 -0.0362409 -0.03611 121 
0.424227 -0.0363547 -0.03496 100 
0.424676 -0.0364572 -0.03383 92 
0.425022 -0.0365365 -0.032746 93 
0.411952 -0.0361345 -0.433216 11 
0.420277 -0.0380465 -0.436359 9 
0.418586 -0.0376606 -0.43462 11 
0.411489 -0.0360344 -0.430286 7 
0.419323 -0.037834 -0.433144 12 
0.414454 -0.036719 -0.429904 11 
0.420683 -0.0381502 -0.431961 11 
0.455036 -0.0460346 -0.44731 10 
0.422885 -0.0386597 -0.431166 7 
0.424835 -0.0391093 -0.431162 9 
0.423741 -0.0388604 -0.429728 8 
0.423385 -0.0387807 -0.428644 10 
0.417823 -0.0375067 -0.425155 12 
0.409163 -0.0355215 -0.420265 11 
0.41846 -0.0376569 -0.423638 10 
0.415937 -0.0370802 -0.421583 13 
0.41575 -0.0370392 -0.4206 11 
0.415111 -0.0368946 -0.419415 10 
0.421284 -0.0383134 -0.421296 12 
0.419191 -0.0378351 -0.419452 12 
0.416918 -0.0373156 -0.417539 19 
0.418913 -0.0377756 -0.417527 13 
0.417049 -0.0373499 -0.415806 16 
0.418231 -0.0376231 -0.41543 16 
0.419571 -0.0379329 -0.41512 14 
0.417654 -0.0374949 -0.413388 17 
0.417114 -0.037373 -0.412262 19 
0.415672 -0.0370441 -0.41075 16 
0.419534 -0.0379326 -0.411517 17 
0.417015 -0.0373564 -0.409549 13 
0.416579 -0.0372585 -0.408476 19 
0.420608 -0.0381854 -0.409289 23 
0.416014 -0.0371328 -0.406466 21 
0.418858 -0.0377878 -0.40677 20 
0.417107 -0.0373878 -0.405153 18 
0.416975 -0.0373597 -0.404214 17 
0.415942 -0.0371244 -0.402905 25 
0.416513 -0.0372576 -0.402259 27 
0.418853 -0.0377969 -0.402331 22 
0.416153 -0.0371791 -0.400352 18 
0.415675 -0.0370713 -0.399281 18 
0.414254 -0.0367471 -0.397834 21 
0.415818 -0.0371082 -0.397585 21 
0.413212 -0.0365119 -0.395675 18 
0.414124 -0.0367232 -0.395166 20 
0.413357 -0.0365492 -0.393994 19 
0.413233 -0.0365227 -0.393078 26 
0.412177 -0.0362822 -0.391801 18 
0.410252 -0.0358422 -0.390193 23 
0.411981 -0.0362413 -0.389998 19 
0.410206 -0.0358355 -0.388457 27 
0.409893 -0.0357656 -0.38748 24 
0.408186 -0.0353755 -0.385979 32 
0.407638 -0.0352517 -0.384921 29 
0.409008 -0.0355683 -0.384583 30 
0.408171 -0.035378 -0.383419 29 
0.406339 -0.0349593 -0.381892 34 
0.4067 -0.0350441 -0.381179 26 
0.405591 -0.0347914 -0.379928 29 
0.405195 -0.0347025 -0.378942 32 
0.40466 -0.0345814 -0.377908 28 
0.404314 -0.0345039 -0.376944 31 
0.404438 -0.0345343 -0.376151 36 
0.40522 -0.034716 -0.375592 30 
0.404499 -0.0345522 -0.374499 31 
0.405282 -0.0347339 -0.373938 37 
0.404608 -0.0345811 -0.372866 38 
0.404265 -0.0345042 -0.371912 36 
0.404859 -0.0346427 -0.371283 41 
0.406163 -0.034944 -0.370897 42 
0.405582 -0.0348126 -0.369863 43 
0.406039 -0.0349194 -0.369184 41 
0.405789 -0.034864 -0.368265 43 
0.406058 -0.0349277 -0.367522 43 
0.405856 -0.0348832 -0.366622 43 
0.407829 -0.0353387 -0.366443 49 
0.406301 -0.0349894 -0.365105 50 
0.405488 -0.0348046 -0.364008 48 
0.405946 -0.0349118 -0.363328 51 
0.405841 -0.0348893 -0.362464 48 
0.406253 -0.034986 -0.361768 50 
0.406053 -0.034942 -0.360876 51 
0.406702 -0.0350931 -0.360254 51 
0.406503 -0.0350492 -0.359363 48 
0.407342 -0.035244 -0.358798 54 
0.407948 -0.0353851 -0.358158 51 
0.406897 -0.0351456 -0.357004 56 
0.406935 -0.0351562 -0.35619 54 
0.407493 -0.0352864 -0.355534 58 
0.407532 -0.0352971 -0.35472 59 
0.407854 -0.0353732 -0.353991 58 
0.407704 -0.0353407 -0.353121 62 
0.40836 -0.0354932 -0.352491 64 
0.408352 -0.0354934 -0.351663 53 
0.408061 -0.0354284 -0.350753 55 
0.408956 -0.0356359 -0.35019 59 
0.409235 -0.035702 -0.349446 60 
0.409038 -0.0356587 -0.348565 60 
0.409508 -0.0357687 -0.347875 61 
0.409027 -0.0356599 -0.346915 63 
0.409117 -0.0356825 -0.346117 66 
0.409779 -0.0358365 -0.34548 62 
0.409869 -0.0358594 -0.344682 59 
0.409913 -0.0358713 -0.343872 57 
0.410196 -0.0359381 -0.343127 60 
0.410861 -0.0360931 -0.342486 67 
0.411529 -0.0362486 -0.341843 67 
0.411143 -0.0361617 -0.340916 67 
0.411093 -0.036152 -0.340081 75 
0.411522 -0.0362526 -0.339372 70 
0.411616 -0.0362762 -0.338575 73 
0.411471 -0.0362448 -0.337716 68 
0.41248 -0.0364785 -0.337155 71 
0.411374 -0.0362262 -0.336051 67 
0.411854 -0.0363384 -0.335354 68 
0.412527 -0.0364952 -0.334703 71 
0.412528 -0.0364972 -0.333883 80 
0.412818 -0.0365658 -0.333135 87 
0.412723 -0.0365459 -0.332292 91 
0.413642 -0.0367591 -0.331696 83 
0.413644 -0.0367615 -0.330877 85 
0.414276 -0.0369088 -0.330208 82 
0.41457 -0.0369783 -0.329457 89 
0.413943 -0.036836 -0.328489 92 
0.415599 -0.0372188 -0.328057 98 
0.415847 -0.0372777 -0.327292 97 
0.416095 -0.0373368 -0.326528 103 
0.416247 -0.0373735 -0.325741 102 
0.417183 -0.0375908 -0.325131 106 
0.416453 -0.0374248 -0.324145 98 
0.416998 -0.037552 -0.323445 96 
0.417152 -0.0375893 -0.322657 96 
0.418143 -0.0378191 -0.322052 101 
0.418544 -0.0379134 -0.321316 101 
0.419294 -0.0380878 -0.320653 108 
0.41955 -0.0381486 -0.319884 108 
0.419261 -0.038084 -0.318999 104 
0.419915 -0.0382363 -0.318312 101 
0.420172 -0.0382975 -0.317542 115 
0.421029 -0.0384965 -0.316893 114 
0.420939 -0.0384778 -0.31605 119 
0.4215 -0.0386086 -0.315338 110 
0.422664 -0.0388784 -0.314743 116 
0.422625 -0.0388714 -0.313909 114 
0.423645 -0.0391079 -0.313281 114 
0.423354 -0.0390429 -0.312398 113 
0.423821 -0.0391523 -0.31166 121 
0.423986 -0.0391922 -0.310864 119 
0.425217 -0.0394773 -0.310266 124 
0.424926 -0.0394123 -0.309383 115 
0.424941 -0.0394176 -0.308558 119 
0.425566 -0.0395634 -0.307844 122 
0.425989 -0.0396627 -0.307091 129 
0.426823 -0.0398565 -0.306409 125 
0.427403 -0.039992 -0.305681 124 
0.427677 -0.040057 -0.304898 122 
0.427901 -0.0401103 -0.304105 125 
0.428691 -0.0402942 -0.303408 125 
0.428813 -0.0403242 -0.302596 134 
0.428832 -0.0403305 -0.301767 131 
0.429162 -0.0404083 -0.30099 132 
0.429596 -0.0405102 -0.300228 132 
0.42941 -0.0404692 -0.299366 138 
0.429224 -0.0404284 -0.298505 130 
0.429816 -0.0405665 -0.297767 133 
0.430409 -0.040705 -0.297026 134 
0.43012 -0.0406404 -0.29615 140 
0.431393 -0.0409353 -0.295509 134 
0.430739 -0.0407868 -0.294579 138 
0.430972 -0.0408423 -0.293781 140 
0.430945 -0.040838 -0.292945 139 
0.431597 -0.0409899 -0.292206 135 
0.431153 -0.0408898 -0.291312 135 
0.431963 -0.0410782 -0.290592 139 
0.432724 -0.0412553 -0.289864 139 
0.432019 -0.0410948 -0.288935 133 
0.432414 -0.0411877 -0.288155 136 
0.432757 -0.0412687 -0.287368 135 
0.432735 -0.0412654 -0.286532 134 
0.43329 -0.0413953 -0.28577 130 
0.433953 -0.0415498 -0.28502 135 
0.433037 -0.0413409 -0.284073 135 
0.433332 -0.0414107 -0.283276 137 
0.433522 -0.0414565 -0.282467 136 
0.433503 -0.0414539 -0.281632 137 
0.433747 -0.0415121 -0.280828 141 
0.434944 -0.0417895 -0.280131 143 
0.433922 -0.0415563 -0.279183 141 
0.43438 -0.0416636 -0.278401 142 
0.434311 -0.0416495 -0.277561 134 
0.434084 -0.0415992 -0.276704 139 
0.433594 -0.0414885 -0.275822 142 
0.433422 -0.0414507 -0.274974 155 
0.433408 -0.0414494 -0.274143 148 
0.433658 -0.0415088 -0.273337 153 
0.43312 -0.0413868 -0.272456 158 
0.433107 -0.0413859 -0.271626 158 
0.432781 -0.0413127 -0.270767 156 
0.432404 -0.0412278 -0.269906 161 
0.432499 -0.0412514 -0.269087 158 
0.431446 -0.0410108 -0.26817 159 
0.431281 -0.0409747 -0.267331 162 
0.431533 -0.0410346 -0.266528 169 
0.431629 -0.0410587 -0.265712 168 
0.430428 -0.0407839 -0.264793 167 
0.429956 -0.0406771 -0.263935 164 
0.42928 -0.0405233 -0.263064 165 
0.428504 -0.0403464 -0.262188 164 
0.428243 -0.0402882 -0.261352 171 
0.428547 -0.0403601 -0.260556 168 
0.427877 -0.0402078 -0.259694 172 
0.427926 -0.0402209 -0.258881 171 
0.426598 -0.0399169 -0.257981 179 
0.426699 -0.0399419 -0.257174 179 
0.425987 -0.0397798 -0.256318 179 
0.425886 -0.0397583 -0.255501 183 
0.425532 -0.0396786 -0.25467 176 
0.42533 -0.0396342 -0.253848 176 
0.424878 -0.0395318 -0.253015 177 
0.423925 -0.039314 -0.252158 176 
0.423677 -0.0392587 -0.251339 175 
0.42313 -0.0391345 -0.250507 179 
0.422784 -0.0390567 -0.249686 185 
0.422589 -0.0390137 -0.248873 183 
0.422494 -0.0389937 -0.248065 181 
0.4224 -0.0389739 -0.247258 181 
0.42186 -0.0388511 -0.246434 174 
0.420777 -0.0386034 -0.245594 173 
0.42108 -0.0386753 -0.244804 176 
0.421286 -0.0387246 -0.244009 176 
0.421097 -0.0386827 -0.243203 179 
0.42002 -0.0384364 -0.242372 184 
0.419833 -0.0383951 -0.241569 182 
0.41945 -0.0383087 -0.240762 181 
0.41897 -0.0382 -0.239954 180 
0.418883 -0.0381818 -0.239156 178 
0.418944 -0.0381976 -0.238361 182 
0.41876 -0.0381571 -0.237561 182 
0.418528 -0.0381056 -0.236762 193 
0.418542 -0.0381105 -0.235967 188 
0.418702 -0.0381493 -0.235173 190 
0.418863 -0.0381883 -0.234379 189 
0.418781 -0.0381711 -0.233582 188 
0.418601 -0.0381314 -0.232785 188 
0.418665 -0.0381482 -0.23199 187 
0.418291 -0.0380638 -0.231194 184 
0.418553 -0.0381259 -0.230399 185 
0.418473 -0.0381093 -0.229604 186 
0.418003 -0.0380028 -0.228811 180 
0.417778 -0.0379528 -0.228018 179 
0.418041 -0.0380153 -0.227221 187 
0.418207 -0.0380554 -0.226425 184 
0.417935 -0.0379945 -0.225634 185 
0.418053 -0.0380237 -0.224837 182 
0.418221 -0.0380642 -0.22404 185 
0.418781 -0.0381951 -0.223235 186 
0.419097 -0.0382699 -0.222433 180 
0.419219 -0.0382998 -0.221633 175 
0.418069 -0.0380365 -0.220863 181 
0.418337 -0.0381002 -0.220061 181 
0.418704 -0.0381867 -0.219256 183 
0.419171 -0.038296 -0.218446 181 
0.41954 -0.0383831 -0.217637 183 
0.420157 -0.0385273 -0.216818 182 
0.420037 -0.0385013 -0.216023 187 
0.419082 -0.038283 -0.215259 184 
0.419454 -0.0383706 -0.214447 184 
0.418796 -0.0382208 -0.213676 182 
0.419414 -0.0383651 -0.212853 181 
0.418954 -0.0382608 -0.212075 177 
0.419426 -0.0383715 -0.211255 183 
0.418819 -0.0382334 -0.210486 179 
0.419783 -0.0384577 -0.20964 179 
0.419619 -0.0384216 -0.208848 187 
0.419799 -0.0384651 -0.208039 175 
0.420227 -0.0385655 -0.207215 186 
0.42031 -0.0385866 -0.20641 183 
0.419803 -0.0384714 -0.205639 177 
0.420429 -0.0386179 -0.2048 177 
0.420613 -0.0386622 -0.203986 178 
0.420749 -0.0386952 -0.203175 180 
0.420637 -0.0386714 -0.20238 177 
0.421319 -0.0388304 -0.20153 181 
0.421258 -0.0388182 -0.200731 177 
0.421098 -0.0387833 -0.199938 183 
0.421435 -0.0388629 -0.199109 184 
0.42257 -0.0391266 -0.198217 183 
0.422511 -0.0391148 -0.197414 182 
0.422004 -0.0389998 -0.196648 184 
0.422245 -0.0390573 -0.195821 177 
0.422337 -0.0390804 -0.195006 181 
0.422331 -0.0390807 -0.194199 182 
0.422774 -0.0391848 -0.193352 180 
0.422718 -0.0391738 -0.192549 187 
0.422863 -0.0392091 -0.191726 184 
0.422858 -0.0392099 -0.190917 188 
0.423204 -0.0392917 -0.190074 188 
0.423351 -0.0393275 -0.189249 184 
0.422948 -0.0392362 -0.188478 181 
0.423346 -0.0393301 -0.187627 177 
0.423395 -0.0393431 -0.18681 181 
0.423093 -0.0392753 -0.18603 181 
0.423393 -0.0393465 -0.185186 183 
0.423292 -0.0393252 -0.184385 183 
0.423896 -0.0394663 -0.183505 184 
0.424501 -0.0396079 -0.182622 184 
0.424402 -0.0395869 -0.181818 179 
0.425112 -0.0397526 -0.18092 177 
0.425824 -0.039919 -0.180018 179 
0.425726 -0.0398983 -0.17921 177 
0.42568 -0.0398894 -0.178397 172 
0.425431 -0.0398338 -0.177609 175 
0.425284 -0.0398018 -0.176809 173 
0.42595 -0.0399574 -0.175904 176 
0.426261 -0.0400313 -0.175042 175 
0.426676 -0.040129 -0.174166 178 
0.426531 -0.0400973 -0.173363 180 
0.426386 -0.0400658 -0.17256 175 
0.426752 -0.0401521 -0.171686 184 
0.426966 -0.0402034 -0.170832 182 
0.427334 -0.0402903 -0.169955 184 
0.427703 -0.0403775 -0.169076 185 
0.427715 -0.040382 -0.168248 179 
0.42788 -0.0404222 -0.167396 179 
0.428871 -0.040653 -0.16642 179 
0.427854 -0.04042 -0.165744 181 
0.42895 -0.0406749 -0.164747 184 
0.428242 -0.0405134 -0.164026 181 
0.428721 -0.0406259 -0.163121 176 
0.428788 -0.0406433 -0.162279 182 
0.428855 -0.0406608 -0.161436 182 
0.429596 -0.0408339 -0.160482 184 
0.429562 -0.0408278 -0.159654 183 
0.429839 -0.0408938 -0.158773 180 
0.429754 -0.040876 -0.157952 182 
0.430032 -0.0409423 -0.157068 181 
0.430364 -0.0410209 -0.156174 178 
0.430906 -0.041148 -0.155241 175 
0.431293 -0.0412393 -0.154333 175 
0.430896 -0.0411496 -0.153564 178 
0.431441 -0.0412774 -0.152625 175 
0.432304 -0.0414786 -0.151626 177 
0.43238 -0.0414982 -0.150768 175 
0.432089 -0.0414328 -0.149978 174 
0.432851 -0.0416108 -0.14899 170 
0.43314 -0.0416796 -0.148088 170 
0.433219 -0.0416998 -0.147226 167 
0.434892 -0.0420881 -0.146052 175 
0.435079 -0.0421334 -0.145164 176 
0.433831 -0.0418469 -0.144559 175 
0.434231 -0.0419414 -0.143628 179 
0.434101 -0.0419132 -0.142803 182 
0.434662 -0.042045 -0.141836 180 
0.43512 -0.0421526 -0.140888 176 
0.435739 -0.0422978 -0.139904 175 
0.43529 -0.0421958 -0.139142 175 
0.436556 -0.0424903 -0.138017 175 
0.436804 -0.0425498 -0.137104 173 
0.436623 -0.0425098 -0.136283 169 
0.436711 -0.0425322 -0.135403 173 
0.437124 -0.0426296 -0.134451 168 
0.43716 -0.0426398 -0.13358 167 
0.437034 -0.0426128 -0.132745 166 
0.43772 -0.0427732 -0.131726 169 
0.438137 -0.0428717 -0.130766 172 
0.43823 -0.0428951 -0.129878 167 
0.439249 -0.0431326 -0.128774 167 
0.438308 -0.0429172 -0.128124 170 
0.438566 -0.0429788 -0.127194 172 
0.439206 -0.0431289 -0.126172 174 
0.439412 -0.0431784 -0.125251 173 
0.439181 -0.043127 -0.124434 172 
0.439606 -0.0432273 -0.123457 172 
0.43965 -0.0432394 -0.122572 168 
0.439748 -0.0432642 -0.121673 166 
0.439574 -0.0432259 -0.12084 163 
0.439783 -0.0432763 -0.119912 161 
0.440984 -0.0435559 -0.11873 167 
0.441251 -0.0436198 -0.117782 173 
0.441631 -0.0437094 -0.116803 170 
0.441457 -0.0436714 -0.115965 168 
0.441561 -0.0436975 -0.115055 165 
0.44161 -0.0437109 -0.114158 169 
0.441993 -0.0438013 -0.113172 170 
0.441766 -0.0437509 -0.112347 165 
0.443096 -0.0440605 -0.111103 165 
0.441757 -0.043753 -0.110577 168 
0.441754 -0.0437543 -0.109691 163 
0.441695 -0.0437428 -0.108819 167 
0.442137 -0.043847 -0.107808 163 
0.441968 -0.0438101 -0.106965 164 
0.4418 -0.0437733 -0.106122 165 
0.441799 -0.0437751 -0.105232 163 
0.442021 -0.0438285 -0.104277 164 
0.442467 -0.0439336 -0.103256 161 
0.441799 -0.0437813 -0.102556 157 
0.440359 -0.0434504 -0.102082 154 
0.441357 -0.0436833 -0.100898 155 
0.440805 -0.0435576 -0.100168 155 
0.440143 -0.0434067 -0.099471 159 
0.440035 -0.0433838 -0.098611 159 
0.439818 -0.0433355 -0.097783 161 
0.439987 -0.0433767 -0.096838 159 
0.439219 -0.0432012 -0.096179 156 
0.439058 -0.043166 -0.095334 155 
0.439118 -0.0431819 -0.094422 166 
0.439123 -0.0431852 -0.093525 163 
0.438798 -0.0431122 -0.092732 163 
0.438694 -0.0430903 -0.091869 161 
0.438646 -0.0430811 -0.090988 157 
0.437446 -0.0428056 -0.090475 157 
0.436797 -0.0426576 -0.089789 159 
0.436368 -0.0425605 -0.089033 154 
0.436158 -0.0425139 -0.088207 163 
0.436166 -0.0425179 -0.08731 161 
0.435739 -0.0424212 -0.086555 160 
0.435367 -0.0423373 -0.085783 159 
0.434617 -0.0421659 -0.085139 155 
0.434302 -0.0420951 -0.08435 155 
0.434258 -0.0420869 -0.083471 148 
0.43335 -0.0418791 -0.082884 149 
0.43293 -0.0417839 -0.082134 144 
0.433587 -0.0419379 -0.081013 131 
0.433059 -0.0418179 -0.0803 128 
0.431461 -0.0414503 -0.079961 127 
0.433082 -0.0418274 -0.078499 129 
0.430151 -0.0411514 -0.078635 128 
0.430535 -0.0412423 -0.077607 129 
0.429803 -0.0410749 -0.076974 125 
0.429603 -0.0410307 -0.076153 135 
0.428927 -0.0408763 -0.075504 133 
0.427936 -0.0406491 -0.07497 134 
0.42816 -0.040703 -0.073997 133 
0.427909 -0.0406471 -0.073196 137 
0.427449 -0.0405426 -0.072473 140 
0.427463 -0.0405479 -0.071575 150 
0.427056 -0.0404558 -0.070833 142 
0.425969 -0.0402065 -0.070347 146 
0.425201 -0.0400306 -0.069745 144 
0.425059 -0.0399998 -0.068907 145 
0.424501 -0.0398728 -0.068228 141 
0.424256 -0.0398182 -0.06743 139 
0.424531 -0.0398839 -0.066432 140 
0.424495 -0.0398776 -0.065553 143 
0.42249 -0.0394158 -0.06544 137 
0.422197 -0.0393499 -0.064665 131 
0.422625 -0.0394511 -0.063605 127 
0.42228 -0.0393733 -0.062849 130 
0.421628 -0.0392243 -0.062216 125 
0.421336 -0.0391588 -0.061441 122 
0.42161 -0.0392243 -0.060438 122 
0.420959 -0.0390758 -0.059808 121 
0.420515 -0.0389751 -0.059095 118 
0.420789 -0.0390406 -0.05809 117 
