0.438708,-0.0461593,0.193999,118
0.437586,-0.0459016,0.194404,106
0.439182,-0.0462734,0.19606,100
0.440052,-0.0464771,0.197387,103
0.434927,-0.04786,-0.206966,9
0.4306,-0.0468335,-0.203939,10
0.431469,-0.0470422,-0.20345,11
0.429914,-0.0466748,-0.201789,9
0.438753,-0.048778,-0.20513,11
0.425315,-0.0455857,-0.197778,8
0.432372,-0.0472653,-0.200242,9
0.431926,-0.0471613,-0.199122,10
0.433871,-0.047626,-0.199133,12
0.431594,-0.0470867,-0.197153,11
0.435741,-0.0480748,-0.198187,10
0.428956,-0.0464638,-0.194117,6
0.435918,-0.048121,-0.196444,12
0.430535,-0.0468432,-0.193051,11
0.43277,-0.0473768,-0.193178,11
0.428712,-0.0464141,-0.190422,15
0.432492,-0.0473149,-0.191247,14
0.431092,-0.0469842,-0.189713,11
0.431459,-0.0470735,-0.188982,12
0.432939,-0.0474275,-0.188749,13
0.431489,-0.0470847,-0.187203,14
0.432159,-0.0472462,-0.186606,10
0.431671,-0.0471321,-0.185495,12
0.432645,-0.0473659,-0.18503,14
0.432358,-0.0472996,-0.18401,15
0.432829,-0.0474137,-0.183321,15
0.431786,-0.0471677,-0.181976,19
0.432306,-0.0472936,-0.18131,12
0.432727,-0.0473958,-0.1806,12
0.431586,-0.0471265,-0.179222,16
0.433774,-0.0476489,-0.179265,19
0.431773,-0.0471751,-0.177527,22
0.43044,-0.0468601,-0.17608,21
0.429613,-0.0466654,-0.174852,19
0.431529,-0.0471231,-0.174769,22
0.431749,-0.0471774,-0.173977,17
0.432623,-0.0473874,-0.173455,16
0.430589,-0.0469056,-0.171736,16
0.428379,-0.046382,-0.169956,17
0.428697,-0.0464595,-0.169211,19
0.430104,-0.0467965,-0.168907,17
0.428987,-0.0465327,-0.167582,20
0.429999,-0.0467755,-0.167114,20
0.429032,-0.0465474,-0.165856,22
0.42866,-0.0464609,-0.164838,21
0.429621,-0.0466916,-0.164347,20
0.425143,-0.0456281,-0.161724,26
0.42478,-0.045544,-0.160722,23
0.425192,-0.0456439,-0.160022,22
0.423435,-0.0452278,-0.158487,22
0.423317,-0.0452017,-0.157587,27
0.42234,-0.0449712,-0.156361,27
0.424185,-0.0454123,-0.156209,27
0.422822,-0.0450899,-0.154842,20
0.423758,-0.0453147,-0.154342,25
0.423402,-0.0452319,-0.153357,24
0.420674,-0.0445845,-0.151496,27
0.423123,-0.0451694,-0.151555,29
0.421439,-0.0447707,-0.15009,30
0.419536,-0.0443198,-0.148552,28
0.420129,-0.0444628,-0.147928,36
0.419783,-0.0443824,-0.146963,34
0.420377,-0.0445256,-0.146337,33
0.420266,-0.0445012,-0.145459,34
0.420108,-0.0444656,-0.144565,42
0.419343,-0.0442853,-0.143458,44
0.419748,-0.0443838,-0.142765,38
0.420437,-0.0445496,-0.14217,43
0.419017,-0.0442136,-0.140843,47
0.420172,-0.0444904,-0.140408,43
0.421144,-0.0447238,-0.139907,48
0.420377,-0.0445432,-0.138811,45
0.420082,-0.0444749,-0.137879,49
0.420913,-0.0446747,-0.137326,41
0.420571,-0.0445951,-0.136379,45
0.419902,-0.0444379,-0.135326,47
0.420592,-0.044604,-0.134725,49
0.420393,-0.0445584,-0.133829,46
0.420756,-0.0446468,-0.133119,50
0.421261,-0.0447689,-0.132453,50
0.420639,-0.0446228,-0.131424,48
0.42152,-0.0448345,-0.130878,45
0.421415,-0.0448114,-0.130016,49
0.422678,-0.045114,-0.129587,48
0.422289,-0.0450234,-0.128635,49
0.422515,-0.0450791,-0.127877,52
0.422081,-0.0449776,-0.126915,53
0.422921,-0.0451797,-0.126347,50
0.423385,-0.0452921,-0.125661,58
0.423329,-0.0452806,-0.124816,57
0.4228,-0.0451566,-0.12383,59
0.423123,-0.0452354,-0.123101,58
0.422784,-0.0451567,-0.122175,60
0.422871,-0.0451793,-0.121377,61
0.424476,-0.0455634,-0.121023,57
0.424041,-0.0454618,-0.120071,57
0.423892,-0.0454282,-0.119203,56
0.424218,-0.0455078,-0.118472,60
0.424593,-0.0455988,-0.117755,60
0.42397,-0.0454524,-0.116755,59
0.424012,-0.0454644,-0.115944,61
0.42434,-0.0455443,-0.115214,60
0.425049,-0.045715,-0.114589,65
0.424521,-0.0455914,-0.113621,60
0.424993,-0.0457057,-0.112929,64
0.425562,-0.045843,-0.112262,68
0.425225,-0.0457647,-0.111349,66
0.425842,-0.0459136,-0.110694,64
0.425649,-0.0458695,-0.109821,72
0.426125,-0.0459847,-0.109126,66
0.426219,-0.046009,-0.10833,74
0.426888,-0.0461703,-0.107683,72
0.426743,-0.0461377,-0.106824,73
0.427078,-0.0462195,-0.10609,65
0.42703,-0.0462099,-0.105257,70
0.427318,-0.0462805,-0.10451,72
0.428281,-0.0465118,-0.10393,76
0.427752,-0.0463877,-0.102978,81
0.428428,-0.0465506,-0.102325,79
0.428526,-0.0465759,-0.101528,81
0.429108,-0.0467164,-0.100849,86
0.430032,-0.0469384,-0.100249,83
0.429597,-0.0468369,-0.0993241,90
0.430524,-0.0470595,-0.0987218,82
0.42975,-0.046877,-0.0977191,88
0.430142,-0.0469723,-0.0969901,90
0.430292,-0.04701,-0.0962045,96
0.430491,-0.0470594,-0.0954301,99
0.431227,-0.0472367,-0.0947765,103
0.431428,-0.0472865,-0.0940008,100
0.43256,-0.0475582,-0.0934314,104
0.432911,-0.0476435,-0.0926861,101
0.432672,-0.0475885,-0.0918115,105
0.433269,-0.0477327,-0.0911189,103
0.433868,-0.0478774,-0.0904249,99
0.433826,-0.0478695,-0.0895932,101
0.434082,-0.0479322,-0.0888245,107
0.434684,-0.0480777,-0.0881275,111
0.435487,-0.0482711,-0.0874701,112
0.435,-0.0481569,-0.0865463,114
0.435656,-0.0483151,-0.0858562,119
0.436165,-0.0484382,-0.0851345,117
0.436675,-0.0485617,-0.0844116,116
0.438039,-0.0488889,-0.0838551,117
0.437398,-0.0487381,-0.0829034,120
0.438013,-0.0488865,-0.0821966,111
0.439134,-0.0491557,-0.0815845,110
0.439299,-0.0491969,-0.0807878,119
0.439565,-0.0492623,-0.08001,123
0.440035,-0.0493763,-0.0792692,124
0.439999,-0.0493696,-0.0784344,130
0.441082,-0.0496295,-0.0778026,129
0.440995,-0.0496109,-0.0769577,132
0.441725,-0.0497869,-0.0762583,131
0.441435,-0.0497197,-0.0753777,129
0.44181,-0.0498109,-0.0746137,129
0.442749,-0.0500367,-0.0739454,136
0.442459,-0.0499696,-0.0730658,130
0.443145,-0.050135,-0.072351,130
0.443524,-0.0502273,-0.0715832,129
0.443389,-0.0501971,-0.0707302,136
0.444027,-0.0503512,-0.0700031,132
0.443945,-0.0503335,-0.0691588,131
0.444018,-0.0503528,-0.0683397,132
0.444091,-0.0503722,-0.0675208,129
0.444578,-0.0504902,-0.0667656,124
0.445118,-0.050621,-0.066017,129
0.445816,-0.0507894,-0.0652904,129
0.445788,-0.0507846,-0.0644539,134
0.445761,-0.05078,-0.0636179,134
0.446098,-0.0508623,-0.0628349,130
0.446436,-0.0509448,-0.0620511,134
0.446775,-0.0510276,-0.0612665,143
0.447115,-0.0511106,-0.0604811,142
0.44709,-0.0511066,-0.0596448,141
0.446961,-0.0510778,-0.058795,145
0.448298,-0.0513987,-0.0581407,146
0.447593,-0.0512325,-0.0572143,137
0.447205,-0.0511418,-0.0563317,137
0.447601,-0.0512382,-0.0555505,138
0.447579,-0.051235,-0.0547159,141
0.44866,-0.0514946,-0.0540174,146
0.448429,-0.0514415,-0.0531561,143
0.448567,-0.0514763,-0.0523399,142
0.44797,-0.0513359,-0.0514373,144
0.447533,-0.0512335,-0.0505557,144
0.4483,-0.0514186,-0.0498128,150
0.448073,-0.0513663,-0.0489562,151
0.448318,-0.0514267,-0.0481525,152
0.449037,-0.0516002,-0.0473993,149
0.448759,-0.0515356,-0.0465379,150
0.4478,-0.0513088,-0.0456071,155
0.447733,-0.0512948,-0.0447713,154
0.44819,-0.0514058,-0.0439885,154
0.44802,-0.051367,-0.0431425,153
0.447328,-0.0512038,-0.0422471,152
0.446743,-0.0510661,-0.0413648,154
0.446523,-0.0510157,-0.0405187,157
0.446877,-0.0511019,-0.0397255,155
0.446399,-0.0509898,-0.0388575,157
0.446233,-0.0509522,-0.0380187,158
0.445603,-0.0508037,-0.0371412,157
0.445181,-0.050705,-0.0362837,165
0.444709,-0.0505943,-0.035424,159
0.444909,-0.0506437,-0.0346192,167
0.444336,-0.050509,-0.0337544,161
0.443612,-0.0503381,-0.0328805,166
0.442534,-0.0500827,-0.0319836,166
0.441715,-0.0498893,-0.0311095,169
0.441458,-0.0498297,-0.0302778,164
0.4411,-0.0497462,-0.0294404,171
0.441148,-0.0497596,-0.0286312,180
0.441045,-0.0497368,-0.0278123,180
0.440135,-0.0495215,-0.026944,180
0.440235,-0.0495472,-0.0261399,174
0.439882,-0.0494649,-0.0253093,185
0.440185,-0.049539,-0.024517,176
0.43898,-0.0492533,-0.0236418,175
0.438132,-0.0490527,-0.02279,180
0.437984,-0.0490194,-0.021977,176
0.437838,-0.0489862,-0.0211646,182
0.436847,-0.0487516,-0.0203136,180
0.436356,-0.0486362,-0.0194888,180
0.436806,-0.0487455,-0.0187063,178
0.43528,-0.0483831,-0.0178413,181
0.434991,-0.0483159,-0.0170304,181
0.435735,-0.0484954,-0.0162591,183
0.435446,-0.0484283,-0.0154487,174
0.435848,-0.048526,-0.0146625,184
0.435166,-0.0483651,-0.0138407,182
0.433363,-0.0479365,-0.0129886,178
0.433665,-0.0480104,-0.0122014,181
0.433723,-0.0480261,-0.011407,177
0.432759,-0.0477978,-0.010588,176
0.433061,-0.0478718,-0.00980049,181
0.432732,-0.047795,-0.00899924,181
0.432064,-0.0476374,-0.00819315,180
0.432076,-0.0476422,-0.00740066,181
0.43175,-0.0475661,-0.00660332,181
0.431667,-0.047548,-0.00581025,177
0.431294,-0.0474609,-0.00501448,181
0.431405,-0.0474891,-0.00422432,183
0.431275,-0.0474599,-0.00343213,185
0.431001,-0.0473963,-0.00263975,184
0.431161,-0.0474365,-0.00184968,181
0.431129,-0.0474307,-0.00105881,179
0.431291,-0.0474711,-0.000267888,186
0.431888,-0.0476156,0.000524876,177
0.431182,-0.0474487,0.00131381,180
0.431056,-0.0474204,0.0021039,179
0.431316,-0.0474844,0.00289681,181
0.432012,-0.0476526,0.00369527,183
0.431259,-0.0474745,0.0044786,181
0.43128,-0.0474813,0.00527008,181
0.431012,-0.0474191,0.00605703,180
0.431274,-0.0474837,0.00685256,180
0.431345,-0.0475024,0.00764531,182
0.432239,-0.0477177,0.00845633,185
0.432311,-0.0477368,0.00925134,185
0.432044,-0.0476749,0.010038,182
0.431972,-0.0476595,0.0108291,180
0.432094,-0.0476905,0.0116257,180
0.432071,-0.0476869,0.0124183,180
0.432437,-0.0477761,0.0132237,180
0.432269,-0.047738,0.014012,180
0.432539,-0.0478043,0.0148159,186
0.431792,-0.0476275,0.0155813,184
0.432062,-0.047694,0.0163855,182
0.432479,-0.0477955,0.0171972,182
0.432218,-0.0477348,0.0179802,181
0.432539,-0.0478134,0.0187895,184
0.433348,-0.0480087,0.0196237,181
0.433039,-0.0479365,0.0204049,179
0.432584,-0.0478298,0.0211774,181
0.433884,-0.0481422,0.0220433,182
0.434358,-0.0482572,0.022868,181
0.433267,-0.0479985,0.023604,178
0.433789,-0.0481251,0.0244325,174
0.433971,-0.0481704,0.0252421,179
0.434104,-0.0482041,0.0260495,177
0.434336,-0.0482614,0.0268641,184
0.434274,-0.0482485,0.0276599,173
0.434459,-0.0482944,0.0284726,177
0.434644,-0.0483405,0.0292863,181
0.434878,-0.0483984,0.0301046,179
0.434672,-0.0483509,0.0308907,177
0.434515,-0.0483152,0.0316801,174
0.434751,-0.0483736,0.0325001,174
0.435382,-0.0485263,0.0333532,176
0.43572,-0.0486088,0.0341845,179
0.435959,-0.0486679,0.0350091,184
0.43615,-0.0487154,0.0358306,180
0.435847,-0.0486448,0.0366093,181
0.436782,-0.0488703,0.037499,180
0.436926,-0.0489065,0.0383195,184
0.436822,-0.0488836,0.0391174,180
0.437066,-0.0489439,0.0399486,186
0.437162,-0.0489687,0.0407665,184
0.437408,-0.0490293,0.0415999,187
0.437905,-0.0491499,0.0424601,184
0.437803,-0.0491275,0.0432603,187
0.438002,-0.0491768,0.0440922,185
0.437851,-0.0491427,0.0448875,188
0.438151,-0.0492163,0.0457318,184
0.438402,-0.0492781,0.0465721,188
0.438353,-0.0492682,0.0473796,186
0.438504,-0.0493064,0.0482104,182
0.438858,-0.0493928,0.0490657,184
0.43871,-0.0493594,0.0498629,179
0.439518,-0.0495544,0.0507756,182
0.439623,-0.0495814,0.0516052,181
0.440182,-0.0497171,0.0524924,179
0.439783,-0.0496236,0.0532603,177
0.440497,-0.0497961,0.0541704,181
0.440706,-0.049848,0.0550175,184
0.440257,-0.0497425,0.0557785,181
0.43991,-0.0496616,0.0565518,181
0.440678,-0.0498469,0.0574763,177
0.441194,-0.0499723,0.0583693,180
0.441203,-0.0499765,0.0591934,179
0.441416,-0.0500294,0.060047,182
0.441529,-0.0500581,0.0608871,180
0.441897,-0.050148,0.0617655,178
0.441806,-0.0501283,0.0625777,181
0.441716,-0.0501087,0.06339,178
0.442444,-0.0502848,0.0643267,174
0.442151,-0.0502165,0.0651092,180
0.442779,-0.0503687,0.0660348,182
0.442332,-0.0502638,0.0667935,180
0.442603,-0.0503305,0.0676655,180
0.442619,-0.0503362,0.0684976,179
0.443252,-0.0504894,0.0694312,178
0.444042,-0.0506803,0.0703937,177
0.443595,-0.0505754,0.0711525,179
0.444077,-0.0506928,0.0720675,173
0.444613,-0.0508229,0.0729939,173
0.44484,-0.0508791,0.0738692,173
0.445068,-0.0509355,0.074746,172
0.445504,-0.0510419,0.0756611,174
0.445734,-0.0510988,0.0765412,175
0.445808,-0.0511185,0.0773946,172
0.446196,-0.0512132,0.0783061,169
0.446952,-0.051396,0.0792877,172
0.447238,-0.0514665,0.0801849,170
0.447736,-0.0515876,0.0811236,172
0.447867,-0.0516208,0.0819946,175
0.447051,-0.0514276,0.082684,169
0.44755,-0.051549,0.083627,171
0.448263,-0.0517214,0.0846143,175
0.448607,-0.0518059,0.0855319,176
0.449166,-0.0519415,0.0864941,180
0.44962,-0.0520521,0.0874379,179
0.449969,-0.0521377,0.0883625,179
0.449786,-0.0520959,0.0891791,173
0.449924,-0.0521308,0.0900622,182
0.450329,-0.0522297,0.0910027,172
0.450041,-0.0521628,0.091798,170
0.451626,-0.0525442,0.0929946,167
0.451606,-0.0525414,0.0938504,175
0.451856,-0.0526031,0.0947655,177
0.451837,-0.0526006,0.095623,178
0.451872,-0.0526111,0.0964931,176
0.452286,-0.0527121,0.0974486,175
0.452323,-0.0527229,0.098321,171
0.452306,-0.052721,0.099182,173
0.453264,-0.0529523,0.100268,171
0.453086,-0.0529117,0.101094,167
0.453234,-0.0529491,0.101997,171
0.453545,-0.0530256,0.102939,168
0.45413,-0.0531677,0.103948,167
0.453736,-0.0530753,0.104725,167
0.454596,-0.0532832,0.105805,168
0.455131,-0.0534133,0.10681,167
0.45501,-0.0533864,0.107655,164
0.454726,-0.0533203,0.10846,162
0.45477,-0.053333,0.109347,166
0.455253,-0.0534508,0.110346,169
0.455409,-0.0534901,0.111263,166
0.45595,-0.0536217,0.112281,169
0.456108,-0.0536614,0.113202,171
0.456873,-0.0538468,0.114283,172
0.455763,-0.053583,0.114876,172
0.456253,-0.0537023,0.115887,169
0.456026,-0.0536501,0.116711,174
0.45569,-0.0535717,0.117504,168
0.455135,-0.0534409,0.118238,170
0.456343,-0.0537322,0.119451,166
0.456616,-0.0537996,0.120412,173
0.457223,-0.0539469,0.121467,164
0.4565,-0.0537759,0.122156,168
0.456332,-0.0537377,0.122997,164
0.455226,-0.053475,0.123575,162
0.455832,-0.053622,0.124634,163
0.455831,-0.0536239,0.125523,162
0.455224,-0.0534806,0.126238,166
0.455004,-0.0534299,0.127064,161
0.454949,-0.053419,0.127938,157
0.455281,-0.0535005,0.128926,159
0.454787,-0.0533842,0.129671,163
0.455064,-0.0534527,0.130645,162
0.455398,-0.0535347,0.131638,164
0.45485,-0.0534054,0.132367,163
0.454743,-0.0533819,0.133228,160
0.454637,-0.0533585,0.134089,164
0.454641,-0.0533617,0.134985,162
0.454206,-0.0532594,0.135745,160
0.454762,-0.0533947,0.136814,161
0.453887,-0.0531872,0.137436,163
0.453838,-0.0531776,0.138316,161
0.454119,-0.0532471,0.139303,158
0.453193,-0.0530272,0.139904,163
0.452488,-0.0528605,0.140573,159
0.451841,-0.0527075,0.141259,161
0.45125,-0.0525679,0.141961,162
0.450877,-0.0524808,0.142734,160
0.450343,-0.0523549,0.143452,165
0.45046,-0.052385,0.144386,161
0.449549,-0.0521688,0.144976,161
0.449613,-0.0521861,0.145892,159
0.44946,-0.0521517,0.146736,157
0.449039,-0.0520527,0.147488,144
0.44808,-0.0518251,0.148055,140
0.448198,-0.0518554,0.14899,131
0.447672,-0.0517315,0.149703,131
0.446453,-0.0514414,0.150172,132
0.445931,-0.0513184,0.150882,128
0.445623,-0.0512467,0.151667,126
0.444892,-0.0510735,0.1523,139
0.444745,-0.0510403,0.15314,137
0.44481,-0.051058,0.154056,130
0.443923,-0.0508475,0.154629,124
0.443092,-0.0506504,0.15522,124
0.442842,-0.0505925,0.156021,130
0.44233,-0.0504718,0.156724,139
0.442658,-0.0505526,0.157738,138
0.441989,-0.0503944,0.158383,143
0.441323,-0.0502367,0.159026,144
0.441441,-0.0502672,0.159963,143
0.440672,-0.0500849,0.160565,143
0.440374,-0.0500155,0.161345,146
0.439402,-0.0497844,0.161865,147
0.439261,-0.0497527,0.162703,150
0.43881,-0.0496467,0.16342,143
0.438618,-0.0496028,0.164238,143
0.437498,-0.0493365,0.164693,145
0.437,-0.049219,0.165388,141
0.437118,-0.0492495,0.166325,133
0.436826,-0.0491815,0.1671,136
0.437048,-0.0492367,0.168081,133
0.436602,-0.049132,0.168795,131
0.436363,-0.0490766,0.169591,132
0.434999,-0.0487517,0.169932,129
0.435731,-0.0489293,0.171121,118
0.435544,-0.0488866,0.171938,115
0.43546,-0.0488684,0.172798,119
0.435223,-0.0488136,0.173594,118
0.434884,-0.0487343,0.174348,117
0.435926,-0.0489863,0.175679,118
0.436253,-0.049067,0.176715,123
0.435862,-0.0489753,0.17745,128
0.434858,-0.0487365,0.177923,111
0.435083,-0.0487925,0.178918,102
0.434796,-0.0487259,0.179695,102
0.435175,-0.0488188,0.180758,103
0.436069,-0.0490354,0.182047,101
0.435731,-0.0489564,0.182805,106
0.435342,-0.0488652,0.18354,103
0.436342,-0.0491072,0.184883,111
0.436572,-0.0491644,0.185893,104
0.436337,-0.0491102,0.186698,106
0.436309,-0.0491056,0.187595,108
0.436437,-0.0491383,0.188563,110
0.436461,-0.0491462,0.189486,109
0.436848,-0.0492413,0.190573,106
0.436563,-0.0491749,0.191358,100
0.436589,-0.0491832,0.192285,107
0.436978,-0.0492786,0.193379,113
0.43768,-0.0494493,0.19462,99
0.438073,-0.0495456,0.195721,94
0.437839,-0.0494918,0.196535,96
0.428303,-0.0497406,-0.203911,8
0.428863,-0.0498804,-0.203277,7
0.431289,-0.0504793,-0.203549,12
0.426002,-0.0491808,-0.200082,8
0.430148,-0.0502028,-0.201178,9
0.429305,-0.0499976,-0.199867,9
0.433616,-0.0510605,-0.20102,12
0.43139,-0.0505148,-0.19905,7
0.430343,-0.0502592,-0.197648,11
0.436734,-0.051834,-0.199752,10
0.437367,-0.0519919,-0.199132,9
0.438628,-0.0523042,-0.198803,10
0.431096,-0.0504529,-0.194388,9
0.427463,-0.0495612,-0.191809,8
0.431929,-0.0506621,-0.192969,11
0.428037,-0.0497064,-0.190286,12
0.430696,-0.0503629,-0.190604,17
0.432424,-0.0507903,-0.190491,14
0.432084,-0.0507087,-0.189437,10
0.434537,-0.0513145,-0.18964,14
0.432568,-0.050832,-0.187857,17
0.430469,-0.0503174,-0.186025,14
0.42874,-0.0498939,-0.184367,15
0.431152,-0.0504898,-0.184542,16
0.430117,-0.050237,-0.183196,15
0.427899,-0.0496932,-0.181339,15
0.432712,-0.0508799,-0.182545,20
0.430267,-0.0502803,-0.180596,14
0.429637,-0.0501272,-0.179437,13
0.428712,-0.0499016,-0.178157,13
0.429475,-0.0500913,-0.177599,16
0.43009,-0.0502449,-0.176977,17
0.429363,-0.050068,-0.175787,19
0.428887,-0.0499528,-0.174706,18
0.427182,-0.0495351,-0.173116,16
0.429273,-0.0500519,-0.173109,20
0.426586,-0.0493925,-0.171121,19
0.42534,-0.0490878,-0.169737,21
0.426971,-0.0494913,-0.169535,24
0.428269,-0.0498129,-0.169191,15
0.427701,-0.049675,-0.168088,17
0.42572,-0.0491894,-0.16642,21
0.425064,-0.0490297,-0.16529,23
0.427523,-0.0496372,-0.165406,16
0.427644,-0.049669,-0.164585,22
0.426786,-0.04946,-0.163379,24
0.423663,-0.0486929,-0.161289,21
0.422777,-0.0484768,-0.160086,18
0.423617,-0.0486855,-0.159556,26
0.423354,-0.0486228,-0.158598,18
0.422997,-0.0485368,-0.157605,23
0.423166,-0.0485805,-0.156816,23
0.42181,-0.0482484,-0.155448,24
0.420558,-0.0479421,-0.154126,22
0.420019,-0.0478115,-0.153077,31
0.420896,-0.0480293,-0.152559,28
0.419183,-0.0476094,-0.151078,32
0.418417,-0.0474226,-0.149953,32
0.418445,-0.0474317,-0.149125,29
0.419644,-0.0477288,-0.148723,34
0.41762,-0.0472322,-0.147149,36
0.417789,-0.0472758,-0.146374,35
0.417819,-0.0472852,-0.14555,33
0.418408,-0.0474321,-0.144925,37
0.419934,-0.04781,-0.144631,41
0.419356,-0.0476695,-0.14359,37
0.420465,-0.0479447,-0.143143,44
0.418858,-0.0475508,-0.141746,46
0.418797,-0.0475376,-0.140892,41
0.41841,-0.0474442,-0.139926,41
0.419001,-0.0475918,-0.139298,47
0.418475,-0.0474642,-0.138287,44
0.419813,-0.0477959,-0.13791,44
0.419753,-0.0477829,-0.137058,45
0.419413,-0.0477011,-0.136114,49
0.420242,-0.0479072,-0.135559,43
0.419948,-0.0478368,-0.134632,46
0.420685,-0.0480203,-0.134044,53
0.419877,-0.0478232,-0.132951,52
0.420614,-0.0480067,-0.132362,45
0.421636,-0.0482605,-0.131862,56
0.419797,-0.0478092,-0.130443,52
0.420722,-0.0480389,-0.129912,59
0.421274,-0.048177,-0.129259,54
0.421546,-0.0482459,-0.128517,50
0.422384,-0.0484543,-0.127951,53
0.421292,-0.048187,-0.126784,50
0.42147,-0.0482329,-0.126013,56
0.421555,-0.0482558,-0.125214,56
0.421782,-0.0483135,-0.124458,59
0.421961,-0.0483598,-0.123688,60
0.423275,-0.0486853,-0.123257,55
0.422605,-0.0485223,-0.122231,53
0.422787,-0.0485689,-0.12146,52
0.42311,-0.0486505,-0.120731,52
0.424003,-0.0488725,-0.120167,56
0.423333,-0.0487094,-0.119148,60
0.423658,-0.0487914,-0.118418,58
0.424127,-0.0489087,-0.117728,66
0.423505,-0.0487575,-0.116728,67
0.423832,-0.0488398,-0.115998,66
0.423401,-0.0487357,-0.115055,59
0.424772,-0.0490754,-0.114615,61
0.424862,-0.0490997,-0.113818,60
0.424574,-0.0490304,-0.112916,63
0.425808,-0.0493367,-0.11243,67
0.425567,-0.049279,-0.111542,65
0.425421,-0.049245,-0.110681,70
0.425323,-0.0492228,-0.109834,75
0.425417,-0.0492478,-0.109038,72
0.425558,-0.0492845,-0.108255,76
0.425509,-0.0492744,-0.107422,79
0.426129,-0.049429,-0.106763,72
0.426128,-0.0494308,-0.105943,73
0.426941,-0.0496332,-0.10533,75
0.427325,-0.0497298,-0.104606,73
0.426846,-0.0496136,-0.103666,69
0.427615,-0.049805,-0.103038,80
0.42776,-0.0498428,-0.102254,81
0.42781,-0.049857,-0.101446,81
0.427668,-0.0498239,-0.100592,87
0.428441,-0.0500163,-0.099959,86
0.429023,-0.0501617,-0.0992781,88
0.428833,-0.0501168,-0.098413,92
0.429272,-0.0502269,-0.0976964,96
0.430197,-0.0504569,-0.0970916,95
0.430055,-0.0504239,-0.0962381,97
0.430497,-0.0505349,-0.0955188,98
0.430989,-0.0506581,-0.0948096,105
0.431044,-0.0506734,-0.0940008,103
0.430806,-0.0506167,-0.0931273,104
0.431935,-0.0508971,-0.0925565,99
0.431893,-0.0508886,-0.0917259,106
0.432782,-0.0511099,-0.0910977,109
0.43279,-0.0511136,-0.0902772,116
0.432798,-0.0511175,-0.0894573,113
0.432806,-0.0511215,-0.0886379,107
0.434145,-0.0514536,-0.0880965,109
0.434352,-0.0515066,-0.0873165,113
0.434411,-0.0515231,-0.0865058,115
0.435015,-0.051674,-0.0858059,116
0.435472,-0.0517888,-0.0850746,116
0.43608,-0.0519406,-0.0843719,109
0.436241,-0.0519823,-0.0835793,107
0.436503,-0.0520486,-0.082806,116
0.437165,-0.0522139,-0.0821096,115
0.437929,-0.0524045,-0.0814306,118
0.438345,-0.0525088,-0.080683,115
0.439064,-0.0526882,-0.0799911,121
0.438876,-0.0526438,-0.0791288,121
0.439547,-0.0528113,-0.0784251,129
0.439816,-0.0528794,-0.0776461,117
0.440186,-0.0529727,-0.0768849,118
0.44076,-0.0531164,-0.0761588,126
0.440726,-0.0531099,-0.0753241,132
0.441762,-0.0533674,-0.0746757,122
0.441474,-0.0532981,-0.0737963,127
0.441594,-0.0533297,-0.0729878,126
0.44197,-0.0534244,-0.0722221,137
0.442603,-0.0535825,-0.0714981,137
0.442776,-0.0536273,-0.0706966,128
0.443001,-0.0536848,-0.0699032,120
0.443228,-0.0537425,-0.0691095,122
0.444124,-0.0539656,-0.0684212,120
0.444094,-0.0539602,-0.0675852,119
0.445098,-0.05421,-0.0669091,128
0.445069,-0.0542048,-0.0660722,132
0.445041,-0.0541997,-0.0652358,128
0.444393,-0.0540416,-0.0643079,127
0.444986,-0.0541899,-0.0635647,139
0.444545,-0.0540832,-0.0626702,140
0.445295,-0.0542702,-0.0619475,132
0.445736,-0.054381,-0.0611787,134
0.445971,-0.0544408,-0.0603799,136
0.445894,-0.0544238,-0.059538,140
0.446026,-0.0544582,-0.0587248,137
0.446158,-0.0544928,-0.0579115,140
0.446083,-0.0544762,-0.0570708,133
0.446165,-0.0544983,-0.056251,132
0.446351,-0.0545462,-0.0554444,129
0.446538,-0.0545942,-0.0546375,136
0.446881,-0.054681,-0.0538496,136
0.447435,-0.0548197,-0.0530862,143
0.446842,-0.054675,-0.0521837,144
0.447031,-0.0547237,-0.0513759,153
0.44743,-0.0548242,-0.0505919,154
0.447621,-0.0548733,-0.049783,156
0.447395,-0.0548193,-0.0489269,156
0.447482,-0.0548429,-0.0481065,157
0.446996,-0.0547248,-0.0472241,151
0.446772,-0.0546715,-0.0463716,158
0.447018,-0.054734,-0.0455691,158
0.447577,-0.0548741,-0.044798,161
0.447042,-0.0547438,-0.0439151,160
0.446976,-0.0547295,-0.0430809,163
0.446548,-0.0546256,-0.042212,160
0.446588,-0.0546374,-0.0413893,160
0.44668,-0.0546622,-0.0405716,164
0.446202,-0.054546,-0.039702,167
0.446036,-0.054507,-0.0388621,167
0.444735,-0.0541875,-0.0379244,165
0.444057,-0.0540221,-0.037045,165
0.443741,-0.0539459,-0.0361983,169
0.443324,-0.0538448,-0.0353449,169
0.442704,-0.0536936,-0.0344772,169
0.442086,-0.053543,-0.0336122,170
0.442284,-0.0535938,-0.0328112,171
0.44096,-0.0532686,-0.0318978,168
0.440955,-0.0532694,-0.0310842,172
0.440699,-0.0532079,-0.0302531,174
0.440342,-0.0531218,-0.0294164,172
0.440138,-0.0530732,-0.0285913,175
0.439935,-0.0530249,-0.0277672,173
0.439481,-0.0529146,-0.0269284,176
0.438179,-0.0525948,-0.0260405,177
0.437929,-0.0525351,-0.025219,175
0.438529,-0.052685,-0.0244464,179
0.437632,-0.0524654,-0.0235903,180
0.436938,-0.0522958,-0.0227483,177
0.43694,-0.0522982,-0.0219443,180
0.436844,-0.0522762,-0.0211357,181
0.436401,-0.0521688,-0.0203113,181
0.435911,-0.0520496,-0.0194866,183
0.435915,-0.0520525,-0.0186851,183
0.434054,-0.0515944,-0.0178071,184
0.433717,-0.0515132,-0.016996,184
0.433625,-0.0514924,-0.0161953,183
0.433242,-0.0513995,-0.0153848,181
0.432374,-0.051187,-0.0145597,182
0.431994,-0.0510949,-0.0137533,179
0.431567,-0.0509913,-0.012947,180
0.431045,-0.0508642,-0.0121398,179
0.430718,-0.050785,-0.0113396,183
0.430872,-0.050825,-0.0105522,181
0.430449,-0.0507224,-0.00975169,180
0.429741,-0.0505492,-0.00894705,177
0.429944,-0.0506012,-0.0081617,180
0.429621,-0.0505231,-0.00736706,173
0.429633,-0.050528,-0.0065785,180
0.429694,-0.0505449,-0.00579052,186
0.429851,-0.0505856,-0.00500335,185
0.429482,-0.0504963,-0.00421106,183
0.429115,-0.0504073,-0.0034202,181
0.42832,-0.0502127,-0.00262868,174
0.429146,-0.0504186,-0.00184493,177
0.428637,-0.0502948,-0.00105668,179
0.42894,-0.0503714,-0.000269636,184
0.429053,-0.0504011,0.000518035,183
0.429214,-0.0504427,0.00130638,183
0.429232,-0.050449,0.0020944,185
0.429346,-0.0504792,0.00288334,185
0.429318,-0.050474,0.00367126,185
0.428956,-0.0503863,0.00445499,184
0.428929,-0.0503814,0.00524214,179
0.428902,-0.0503766,0.00602923,180
0.428971,-0.0503956,0.00681799,181
0.429184,-0.05045,0.00760994,181
0.429493,-0.0505283,0.00840485,187
0.429469,-0.0505241,0.00919307,186
0.429492,-0.0505318,0.0099825,185
0.42966,-0.0505751,0.0107761,183
0.430308,-0.0507371,0.0115845,183
0.430766,-0.0508523,0.0123895,184
0.430408,-0.0507654,0.0131692,181
0.429906,-0.0506433,0.0139425,185
0.429837,-0.0506281,0.0147301,183
0.430201,-0.0507197,0.0155344,186
0.429749,-0.0506099,0.0163068,188
0.430161,-0.0507137,0.0171146,187
0.430719,-0.0508535,0.0179306,184
0.431183,-0.0509699,0.0187444,186
0.4316,-0.0510748,0.0195578,190
0.430377,-0.0507744,0.0202903,187
0.431469,-0.0510462,0.0211394,185
0.431453,-0.051044,0.0219326,189
0.431485,-0.0510539,0.0227287,186
0.431422,-0.0510401,0.0235195,184
0.431794,-0.051134,0.0243363,183
0.43178,-0.0511324,0.0251308,186
0.4323,-0.0512627,0.0259594,183
0.43219,-0.0512374,0.0267488,184
0.433784,-0.0516336,0.0276532,181
0.4327,-0.0513672,0.0283776,184
0.432542,-0.0513301,0.0291643,179
0.433506,-0.0515703,0.0300327,190
0.43291,-0.0514249,0.0307877,182
0.433388,-0.0515449,0.0316234,186
0.433868,-0.0516654,0.0324613,186
0.433761,-0.0516409,0.0332538,184
0.433606,-0.0516045,0.034042,184
0.43399,-0.0517013,0.0348756,190
0.434523,-0.0518349,0.0357237,190
0.434516,-0.0518351,0.0365263,188
0.434756,-0.0518963,0.0373514,190
0.434898,-0.0519334,0.0381686,187
0.434648,-0.0518732,0.0389495,193
0.434988,-0.0519592,0.0397866,194
0.435526,-0.0520944,0.0406448,190
0.435573,-0.0521077,0.0414559,190
0.436213,-0.052268,0.0423281,186
0.435865,-0.0521837,0.0431002,190
0.436706,-0.0523937,0.0439972,188
0.436954,-0.0524568,0.0448338,188
0.437452,-0.0525819,0.0456989,187
0.437851,-0.0526826,0.0465554,192
0.437852,-0.0526848,0.0473683,189
0.437654,-0.0526376,0.0481584,192
0.437706,-0.0526524,0.0489775,187
0.437559,-0.0526178,0.0497733,186
0.438162,-0.0527689,0.0506599,181
0.438166,-0.0527718,0.0514752,183
0.43837,-0.0528243,0.052316,183
0.438475,-0.0528522,0.0531453,185
0.438381,-0.0528307,0.0539494,183
0.438587,-0.0528837,0.054793,185
0.438393,-0.0528376,0.0555844,184
0.4384,-0.0528412,0.0564026,186
0.438358,-0.0528326,0.0572143,192
0.440433,-0.0533481,0.05832,194
0.440594,-0.0533899,0.0591649,189
0.439642,-0.0531562,0.0598519,186
0.440006,-0.0532482,0.0607258,182
0.440473,-0.0533655,0.0616166,181
0.441043,-0.0535085,0.0625248,187
0.441309,-0.0535764,0.06339,185
0.440914,-0.0534806,0.0641559,186
0.441233,-0.0535614,0.0650306,188
0.441501,-0.0536297,0.0658991,187
0.442487,-0.0538755,0.0668825,188
0.441939,-0.0537419,0.0676246,181
0.441546,-0.0536465,0.06839,180
0.442482,-0.0538802,0.0693723,183
0.44363,-0.0541662,0.0703937,183
0.443132,-0.0540451,0.0711439,178
0.44315,-0.0540514,0.07198,179
0.444149,-0.0543005,0.072985,183
0.44422,-0.0543201,0.0738332,181
0.444395,-0.0543654,0.0747005,177
0.444415,-0.0543724,0.0755413,180
0.444592,-0.054418,0.0764107,181
0.445653,-0.0546827,0.0774418,179
0.445519,-0.0546515,0.0782583,179
0.445282,-0.0545947,0.0790554,176
0.445149,-0.0545639,0.0798718,174
0.446792,-0.0549725,0.0810242,176
0.447185,-0.0550716,0.0819443,177
0.447053,-0.055041,0.0827651,181
0.447184,-0.0550755,0.0836373,172
0.44779,-0.0552274,0.0846039,180
0.448504,-0.0554062,0.085595,184
0.448321,-0.0553628,0.086409,178
0.44835,-0.0553719,0.0872658,174
0.448696,-0.0554598,0.0881884,180
0.448939,-0.0555217,0.0890911,177
0.449394,-0.0556365,0.09004,176
0.449319,-0.05562,0.0908792,178
0.450043,-0.0558013,0.0918888,177
0.450397,-0.0558908,0.092822,179
0.450003,-0.0557952,0.0935952,182
0.450411,-0.0558982,0.0945427,174
0.451249,-0.0561078,0.0955875,170
0.450962,-0.0560388,0.0963854,172
0.450784,-0.0559966,0.0972071,174
0.451518,-0.0561805,0.0982356,172
0.452256,-0.0563652,0.0992683,172
0.452294,-0.0563766,0.100143,174
0.452386,-0.0564016,0.101031,169
0.452858,-0.0565205,0.102009,169
0.453549,-0.0566937,0.103042,169
0.453373,-0.056652,0.103871,172
0.45423,-0.0568664,0.104948,169
0.454163,-0.0568519,0.105805,165
0.454042,-0.0568239,0.106649,169
0.454031,-0.0568231,0.107521,165
0.453966,-0.056809,0.108379,166
0.454829,-0.057025,0.109471,167
0.455203,-0.0571197,0.110443,166
0.455194,-0.0571195,0.111319,165
0.45557,-0.0572147,0.112295,163
0.455672,-0.057242,0.113202,169
0.45572,-0.0572559,0.114096,164
0.455768,-0.0572698,0.114991,166
0.455377,-0.0571749,0.115771,167
0.455591,-0.05723,0.116711,164
0.454816,-0.0570402,0.117386,167
0.455526,-0.057218,0.118462,170
0.455026,-0.0570964,0.119211,170
0.455078,-0.0571111,0.120109,167
0.455129,-0.057126,0.121009,160
0.455843,-0.0573048,0.122094,169
0.456338,-0.0574296,0.123121,166
0.456226,-0.0574038,0.12398,169
0.456169,-0.057392,0.124854,167
0.455616,-0.057257,0.125587,170
0.455175,-0.0571497,0.12635,165
0.455175,-0.0571518,0.12724,158
0.455011,-0.0571131,0.128083,159
0.455564,-0.0572522,0.129137,161
0.454683,-0.0570361,0.129769,159
0.455181,-0.0571616,0.13081,161
0.454963,-0.0571097,0.131638,162
0.454526,-0.0570034,0.1324,161
0.45442,-0.056979,0.133261,166
0.455416,-0.0572281,0.134461,158
0.453768,-0.0568218,0.134849,165
0.454103,-0.0569068,0.135848,166
0.453559,-0.056774,0.136573,165
0.453017,-0.0566417,0.137298,161
0.45253,-0.0565233,0.138039,159
0.452264,-0.0564592,0.138849,165
0.452434,-0.0565036,0.139798,162
0.45195,-0.0563856,0.140538,162
0.451522,-0.0562815,0.141294,155
0.450769,-0.0560969,0.141943,151
0.45056,-0.0560472,0.142769,159
0.450351,-0.0559976,0.143596,161
0.450035,-0.0559213,0.144386,153
0.449828,-0.055872,0.145212,158
0.448543,-0.0555555,0.145674,154
0.448552,-0.0555599,0.146571,148
0.448186,-0.0554711,0.147341,142
0.447552,-0.0553161,0.148018,142
0.446814,-0.0551351,0.148657,137
0.447038,-0.0551928,0.149628,130
0.446035,-0.0549462,0.150172,123
0.44509,-0.0547138,0.150733,129
0.445101,-0.0547187,0.151629,129
0.444954,-0.0546842,0.15247,135
0.44433,-0.0545317,0.15314,136
0.444131,-0.0544843,0.153961,133
0.442931,-0.0541888,0.15442,130
0.442786,-0.0541549,0.155258,135
0.442431,-0.0540689,0.156021,139
0.442024,-0.0539702,0.156763,143
0.44141,-0.0538198,0.157427,142
0.442209,-0.0540201,0.158617,137
0.441489,-0.0538437,0.159241,139
0.440407,-0.0535775,0.159727,144
0.440057,-0.0534928,0.160487,138
0.44028,-0.0535501,0.161463,137
0.439567,-0.0533753,0.162084,141
0.439064,-0.0532525,0.162782,144
0.438406,-0.0530915,0.16342,142
0.438835,-0.0532,0.164479,143
0.437149,-0.0527837,0.164713,139
0.436805,-0.0527005,0.165468,141
0.436718,-0.052681,0.166325,134
0.436785,-0.0526998,0.167243,137
0.436238,-0.052566,0.167917,138
0.434926,-0.0522427,0.168282,135
0.434637,-0.0521731,0.169056,136
0.434654,-0.0521793,0.169953,133
0.435385,-0.0523627,0.171142,124
0.435505,-0.0523945,0.172085,126
0.4344,-0.0521226,0.172525,123
0.434113,-0.0520534,0.173299,123
0.434386,-0.0521231,0.174306,120
0.43415,-0.0520666,0.175102,119
0.434627,-0.0521872,0.176198,108
0.434188,-0.0520802,0.17691,112
0.434921,-0.0522644,0.178119,116
0.435351,-0.0523731,0.179202,108
0.434043,-0.0520507,0.179542,101
0.435393,-0.0523876,0.181023,106
0.434902,-0.0522679,0.181714,102
0.434923,-0.0522753,0.182626,103
0.436229,-0.0526016,0.184102,101
0.43548,-0.0524178,0.18468,105
0.435195,-0.0523491,0.185461,103
0.434859,-0.0522678,0.186219,105
0.435601,-0.0524541,0.187457,104
0.435986,-0.0525517,0.18854,110
0.43632,-0.0526367,0.189602,103
0.436552,-0.0526964,0.19062,100
0.436525,-0.052692,0.191523,103
0.436551,-0.0527005,0.19245,108
0.436111,-0.0525935,0.193165,116
0.436759,-0.0527564,0.19438,99
0.436786,-0.0527652,0.195311,101
0.437385,-0.0529161,0.19651,97
0.423267,-0.0519247,-0.201637,10
0.422161,-0.0516455,-0.200201,10
0.424364,-0.052208,-0.200379,9
0.431901,-0.0541272,-0.203133,9
0.431252,-0.0539642,-0.201907,8
0.4295,-0.0535206,-0.200156,7
0.427615,-0.0530433,-0.19835,10
0.429022,-0.0534032,-0.198118,10
0.429634,-0.053561,-0.197505,12
0.429545,-0.0535406,-0.196561,11
0.427615,-0.0530515,-0.194753,12
0.426047,-0.0526549,-0.193124,8
0.42769,-0.053075,-0.192995,10
0.352586,-0.0339689,-0.157422,9
0.430762,-0.0538607,-0.192621,11
0.429873,-0.0536365,-0.191313,9
0.427252,-0.0529718,-0.189219,9
0.431306,-0.0540053,-0.19017,14
0.430717,-0.0538575,-0.189005,13
0.436687,-0.0553786,-0.190795,9
0.430445,-0.0537926,-0.187091,13
0.432372,-0.054285,-0.187056,19
0.427988,-0.0531715,-0.184214,13
0.427166,-0.0529642,-0.182963,24
0.427725,-0.0531086,-0.182324,14
0.432283,-0.0542706,-0.183432,15
0.428402,-0.053285,-0.180849,17
0.429362,-0.0535314,-0.18038,22
0.428536,-0.0533233,-0.179139,18
0.429397,-0.0535445,-0.178624,19
0.428672,-0.0533619,-0.17743,18
0.42874,-0.0533813,-0.176577,17
0.425567,-0.052576,-0.174356,21
0.427201,-0.0529938,-0.174168,19
0.426878,-0.0529135,-0.173157,21
0.427339,-0.0530331,-0.172474,14
0.426332,-0.0527786,-0.171181,21
0.425378,-0.052538,-0.169917,25
0.427156,-0.0529926,-0.169775,23
0.425957,-0.0526893,-0.168414,18
0.425007,-0.0524496,-0.16716,22
0.424691,-0.0523711,-0.166166,21
0.425343,-0.0525392,-0.165562,25
0.427364,-0.0530557,-0.165503,20
0.426264,-0.0527776,-0.164198,18
0.423868,-0.0521696,-0.162385,20
0.424518,-0.0523372,-0.161781,23
0.42205,-0.0517107,-0.159955,24
0.421219,-0.0515013,-0.158778,25
0.421957,-0.0516912,-0.158211,20
0.420513,-0.0513255,-0.156802,29
0.419268,-0.0510105,-0.155477,23
0.418967,-0.0509357,-0.154516,28
0.419416,-0.051052,-0.153841,30
0.418974,-0.0509416,-0.15283,31
0.419236,-0.0510103,-0.152085,24
0.416703,-0.0503672,-0.150299,30
0.417473,-0.0505653,-0.149747,29
0.4169,-0.0504211,-0.148698,26
0.417996,-0.0507023,-0.148263,33
0.418351,-0.0507947,-0.147554,37
0.417637,-0.0506147,-0.146458,37
0.416741,-0.0503885,-0.1453,40
0.417326,-0.0505395,-0.144676,40
0.418006,-0.0507146,-0.144084,45
0.41748,-0.0505827,-0.143064,46
0.418487,-0.0508409,-0.142585,44
0.418518,-0.0508508,-0.141762,43
0.419202,-0.051027,-0.141167,45
0.418396,-0.0508235,-0.140054,39
0.419687,-0.0511543,-0.139666,44
0.419299,-0.0510575,-0.1387,49
0.418819,-0.0509372,-0.137705,46
0.418992,-0.0509832,-0.136933,43
0.419212,-0.0510411,-0.136176,45
0.42004,-0.0512539,-0.135622,46
0.41956,-0.0511336,-0.134632,50
0.419454,-0.0511086,-0.133768,54
0.419816,-0.0512026,-0.133057,56
0.419571,-0.0511421,-0.132149,50
0.419886,-0.0512244,-0.131424,50
0.420202,-0.0513068,-0.130698,46
0.420332,-0.0513418,-0.129912,54
0.420041,-0.0512696,-0.128993,54
0.421436,-0.0516269,-0.128606,54
0.420956,-0.0515068,-0.127628,52
0.42151,-0.0516497,-0.126973,44
0.421266,-0.0515894,-0.126071,46
0.42168,-0.0516967,-0.125372,53
0.420827,-0.0514814,-0.124287,57
0.4211,-0.0515528,-0.123546,57
0.422974,-0.0520323,-0.123285,59
0.422447,-0.0518999,-0.122301,62
0.422157,-0.0518279,-0.121391,63
0.422103,-0.0518161,-0.120551,59
0.422425,-0.0519002,-0.119822,59
0.42209,-0.0518166,-0.118902,65
0.423168,-0.0520932,-0.118391,61
0.423398,-0.0521539,-0.117633,66
0.423345,-0.0521424,-0.116795,64
0.424003,-0.0523118,-0.116158,65
0.423951,-0.0523004,-0.11532,64
0.423946,-0.0523012,-0.114496,60
0.4238,-0.0522659,-0.113634,62
0.423655,-0.0522307,-0.112773,65
0.424219,-0.0523766,-0.112107,63
0.424691,-0.0524987,-0.111413,66
0.425259,-0.0526453,-0.110745,72
0.425542,-0.0527195,-0.109998,72
0.426161,-0.052879,-0.10934,75
0.425396,-0.0526859,-0.108317,74
0.424824,-0.0525422,-0.107348,75
0.425679,-0.0527621,-0.106751,78
0.425727,-0.052776,-0.105943,76
0.42606,-0.052863,-0.105209,75
0.427161,-0.0531455,-0.104667,75
0.425966,-0.0528428,-0.103547,75
0.426349,-0.0529423,-0.102824,79
0.426351,-0.0529446,-0.102006,85
0.426974,-0.0531055,-0.10134,88
0.42784,-0.0533281,-0.100732,90
0.42765,-0.0532816,-0.0998665,86
0.428134,-0.0534068,-0.0991631,88
0.428282,-0.0534464,-0.0983788,88
0.429009,-0.0536337,-0.0977304,93
0.42969,-0.0538093,-0.097069,91
0.429501,-0.053763,-0.0962045,97
0.429699,-0.0538155,-0.0954301,97
0.430384,-0.0539919,-0.0947655,103
0.430438,-0.0540076,-0.093957,107
0.43059,-0.0540483,-0.0931706,110
0.430985,-0.0541511,-0.092438,111
0.431675,-0.0543289,-0.0917687,116
0.431536,-0.0542952,-0.0909172,116
0.432375,-0.0545112,-0.0902772,114
0.432481,-0.0545401,-0.0894782,107
0.432686,-0.0545942,-0.0887,111
0.432744,-0.0546109,-0.0878909,108
0.432655,-0.0545902,-0.0870516,107
0.43424,-0.0549963,-0.0865565,111
0.434893,-0.0551648,-0.0858663,119
0.434211,-0.0549928,-0.0849053,120
0.435411,-0.0553006,-0.0843224,120
0.435571,-0.0553434,-0.0835302,114
0.436429,-0.0555643,-0.0828742,115
0.436591,-0.0556075,-0.0820806,109
0.437304,-0.0557912,-0.0813922,116
0.437768,-0.0559115,-0.0806545,120
0.438234,-0.0560322,-0.0799156,119
0.438148,-0.0560121,-0.0790728,123
0.439069,-0.056249,-0.0784158,122
0.439084,-0.0562547,-0.0775911,122
0.439655,-0.0564024,-0.0768667,120
0.439469,-0.0563568,-0.0760057,123
0.440093,-0.0565179,-0.0752884,127
0.44082,-0.0567055,-0.0745872,130
0.440685,-0.056673,-0.0737351,129
0.44111,-0.0567833,-0.0729791,131
0.441282,-0.0568289,-0.0721793,124
0.441657,-0.0569267,-0.0714132,129
0.441728,-0.0569467,-0.0705959,131
0.441748,-0.0569537,-0.0697704,124
0.442126,-0.0570521,-0.0690027,123
0.443738,-0.0574652,-0.0684293,125
0.443297,-0.0573546,-0.0675288,128
0.443473,-0.0574015,-0.0667259,130
0.443907,-0.0575143,-0.065962,134
0.443828,-0.0574959,-0.0651193,133
0.444315,-0.0576223,-0.0643616,132
0.444495,-0.0576699,-0.0635572,138
0.444571,-0.0576914,-0.0627375,135
0.4447,-0.0577262,-0.0619253,136
0.444674,-0.0577216,-0.0610912,143
0.44434,-0.0576381,-0.0602145,138
0.44509,-0.0578316,-0.0594883,145
0.444601,-0.0577087,-0.0585919,137
0.444991,-0.0578102,-0.0578149,139
0.444968,-0.0578063,-0.0569824,140
0.445049,-0.0578289,-0.0561639,138
0.445028,-0.0578253,-0.0553322,135
0.445214,-0.0578746,-0.0545269,139
0.445555,-0.0579638,-0.0537405,139
0.445743,-0.0580135,-0.0529343,146
0.445775,-0.0580237,-0.052109,148
0.445808,-0.0580341,-0.0512841,150
0.445738,-0.0580181,-0.0504473,149
0.445772,-0.0580287,-0.0496229,147
0.445599,-0.0579866,-0.0487755,150
0.445117,-0.0578654,-0.047895,156
0.445463,-0.0579557,-0.0471062,156
0.445966,-0.0580859,-0.046333,163
0.445381,-0.0579386,-0.0454446,162
0.445419,-0.0579501,-0.0446224,162
0.445043,-0.0578562,-0.0437589,158
0.444875,-0.0578153,-0.0429175,160
0.445276,-0.0579195,-0.0421319,162
0.444955,-0.0578393,-0.0412766,164
0.444017,-0.0576018,-0.0403655,166
0.443749,-0.0575355,-0.0395192,168
0.443432,-0.0574564,-0.0386697,160
0.442605,-0.0572472,-0.0377773,165
0.442545,-0.0572339,-0.0369535,164
0.441672,-0.0570129,-0.0360626,173
0.440955,-0.0568317,-0.0351878,166
0.440898,-0.056819,-0.0343684,174
0.440336,-0.0566775,-0.0335102,170
0.44018,-0.0566393,-0.0326851,169
0.439219,-0.056396,-0.0318015,171
0.439165,-0.056384,-0.0309867,175
0.43846,-0.056206,-0.030127,177
0.437958,-0.0560796,-0.0292838,171
0.438255,-0.0561573,-0.0284954,170
0.437406,-0.0559424,-0.0276327,178
0.437106,-0.0558678,-0.0268075,174
0.436957,-0.0558315,-0.0259926,176
0.436362,-0.0556815,-0.0251525,177
0.436462,-0.0557088,-0.0243539,176
0.435377,-0.0554336,-0.0234906,175
0.434788,-0.0552852,-0.0226576,175
0.434839,-0.0553002,-0.0218594,176
0.433863,-0.0550525,-0.021011,177
0.433329,-0.0549181,-0.0201872,180
0.433284,-0.0549085,-0.0193875,181
0.432996,-0.0548369,-0.0185777,181
0.432612,-0.0547407,-0.0177651,181
0.432424,-0.0546944,-0.0169617,174
0.431269,-0.0544012,-0.016123,178
0.432485,-0.0547137,-0.0153728,180
0.430993,-0.0543345,-0.0145273,182
0.429895,-0.054056,-0.0137001,176
0.429568,-0.0539743,-0.0129,176
0.429338,-0.0539173,-0.0121039,183
0.429013,-0.0538361,-0.0113062,185
0.428023,-0.0535851,-0.010494,178
0.427464,-0.0534442,-0.00969507,178
0.427902,-0.0535578,-0.00891834,180
0.427534,-0.0534656,-0.00812534,181
0.427356,-0.0534221,-0.00733688,182
0.427274,-0.0534029,-0.0065505,184
0.427098,-0.0533597,-0.00576328,187
0.427064,-0.0533529,-0.00497827,188
0.426794,-0.0532859,-0.00419136,185
0.42662,-0.0532431,-0.00340614,184
0.426541,-0.0532247,-0.00262206,184
0.426603,-0.0532425,-0.00183869,186
0.426666,-0.0532605,-0.00105509,185
0.426872,-0.0533147,-0.000271115,182
0.426983,-0.0533451,0.000513388,185
0.427379,-0.053448,0.00129967,185
0.427019,-0.0533578,0.00208248,183
0.42827,-0.0536793,0.00287766,183
0.427199,-0.0534074,0.00365343,186
0.427692,-0.0535352,0.00444444,186
0.427097,-0.053385,0.00522186,184
0.427591,-0.053513,0.00601465,184
0.428372,-0.0537145,0.00681455,188
0.428251,-0.0536854,0.00759948,187
0.427609,-0.0535232,0.00837259,187
0.427679,-0.053543,0.00916026,184
0.427181,-0.0534176,0.00993366,187
0.427774,-0.0535708,0.0107353,189
0.427941,-0.0536153,0.0115268,188
0.428394,-0.0537329,0.0123279,187
0.427517,-0.0535107,0.0130865,187
0.428017,-0.0536404,0.0138904,182
0.428377,-0.0537341,0.0146911,187
0.428738,-0.0538282,0.0154933,186
0.428479,-0.053764,0.0162716,188
0.428794,-0.0538462,0.0170736,186
0.428775,-0.0538432,0.0178619,185
0.429234,-0.0539624,0.0186727,185
0.429073,-0.0539231,0.0194551,184
0.429821,-0.0541162,0.020283,187
0.429374,-0.0540036,0.0210512,187
0.429453,-0.0540258,0.0218465,183
0.429629,-0.0540726,0.0226476,187
0.429758,-0.0541073,0.0234468,184
0.430031,-0.054179,0.0242553,183
0.430065,-0.0541895,0.0250501,188
0.430773,-0.0543723,0.0258884,185
0.429942,-0.0541619,0.0266282,183
0.430555,-0.0543203,0.0274628,181
0.431169,-0.0544793,0.0283,184
0.431158,-0.0544782,0.029095,182
0.43163,-0.0546009,0.0299256,188
0.433224,-0.0550101,0.0308428,182
0.433263,-0.0550219,0.0316461,185
0.432474,-0.0548222,0.0323841,181
0.433147,-0.0549961,0.0332379,187
0.432847,-0.0549212,0.0340137,190
0.43406,-0.0552333,0.0349172,193
0.434249,-0.0552836,0.0357365,194
0.4339,-0.0551961,0.0365089,194
0.433747,-0.0551589,0.037298,193
0.433889,-0.0551969,0.0381141,197
0.434521,-0.0553606,0.0389774,196
0.434517,-0.0553614,0.0397819,193
0.434366,-0.0553247,0.0405721,192
0.434609,-0.0553886,0.0414015,196
0.434409,-0.0553395,0.0421869,193
0.434604,-0.0553911,0.0430129,191
0.434848,-0.0554555,0.0438451,193
0.435192,-0.0555454,0.0446893,191
0.435488,-0.0556229,0.0455298,199
0.43539,-0.0555996,0.0463276,191
0.43539,-0.0556016,0.0471365,187
0.435688,-0.0556797,0.0479802,186
0.436235,-0.0558214,0.0488546,188
0.436784,-0.0559637,0.0497316,190
0.437285,-0.0560937,0.0506053,192
0.437438,-0.0561348,0.0514382,190
0.438092,-0.056304,0.0523349,184
0.439201,-0.0565897,0.0532924,190
0.438503,-0.056413,0.0540207,189
0.438259,-0.0563523,0.0548062,187
0.438616,-0.0564458,0.0556713,186
0.438975,-0.0565395,0.0565382,193
0.439588,-0.0566981,0.0574417,191
0.439849,-0.0567667,0.058299,186
0.440262,-0.0568745,0.0591791,190
0.440171,-0.056853,0.0599891,188
0.440282,-0.0568834,0.0608284,190
0.440851,-0.0570309,0.0617356,195
0.440913,-0.0570487,0.0625701,193
0.440621,-0.0569757,0.0633517,196
0.440785,-0.0570198,0.0642024,194
0.441104,-0.0571032,0.0650777,193
0.441168,-0.0571216,0.065915,192
0.441386,-0.0571793,0.0667773,188
0.441452,-0.0571981,0.0676164,189
0.442183,-0.057387,0.068564,190
0.443071,-0.0576162,0.0695408,189
0.442164,-0.0573862,0.0702231,181
0.4429,-0.0575763,0.0711784,186
0.443587,-0.057754,0.0721288,183
0.443193,-0.0576553,0.0728963,183
0.444245,-0.0579262,0.0739142,188
0.444213,-0.0579201,0.074746,185
0.444699,-0.0580466,0.0756703,191
0.444721,-0.0580539,0.0765132,189
0.4462,-0.0584345,0.077622,186
0.444869,-0.0580957,0.0782201,184
0.445255,-0.0581967,0.0791327,181
0.447108,-0.0586728,0.0803226,184
0.446085,-0.058413,0.0809746,185
0.446896,-0.0586224,0.0819745,184
0.446921,-0.0586309,0.0828261,181
0.447,-0.058653,0.0836886,179
0.447185,-0.0587022,0.0845728,183
0.446897,-0.0586306,0.0853639,184
0.447608,-0.0588147,0.0863559,183
0.448112,-0.0589456,0.0873087,183
0.448089,-0.0589415,0.0881558,183
0.448224,-0.0589783,0.0890363,175
0.448255,-0.0589881,0.0898958,179
0.448815,-0.0591336,0.090868,173
0.448847,-0.0591437,0.0917301,172
0.449677,-0.0593582,0.0927646,170
0.449551,-0.0593278,0.0935952,173
0.449691,-0.0593657,0.0944842,175
0.449779,-0.0593902,0.0953628,171
0.450294,-0.0595242,0.0963377,168
0.450973,-0.0596998,0.0973518,171
0.45058,-0.0596014,0.098126,172
0.451476,-0.0598328,0.0991943,174
0.451675,-0.0598858,0.100106,171
0.452037,-0.0599805,0.101056,170
0.452022,-0.0599787,0.101921,171
0.452278,-0.0600462,0.102849,172
0.452697,-0.0601555,0.103819,172
0.452684,-0.0601541,0.104686,176
0.453051,-0.0602501,0.105646,168
0.45293,-0.0602213,0.106489,171
0.453353,-0.0603316,0.107467,167
0.45356,-0.0603866,0.108393,169
0.453604,-0.0603999,0.109279,172
0.453322,-0.0603297,0.110083,173
0.454622,-0.0606647,0.111291,171
0.45374,-0.0604408,0.111943,170
0.45466,-0.0606786,0.11306,172
0.455311,-0.0608473,0.114111,170
0.455634,-0.0609321,0.115078,171
0.455573,-0.0609185,0.115945,169
0.455182,-0.0608205,0.116725,168
0.455122,-0.0608071,0.117593,170
0.455392,-0.0608784,0.118551,167
0.455168,-0.060823,0.119375,170
0.455329,-0.0608664,0.120306,171
0.455051,-0.0607972,0.121116,167
0.45428,-0.0606017,0.121787,165
0.455211,-0.0608424,0.122935,162
0.455706,-0.0609711,0.123964,165
0.455539,-0.0609305,0.124807,166
0.454822,-0.060749,0.125492,157
0.454987,-0.0607933,0.126429,151
0.454933,-0.0607814,0.127304,148
0.454658,-0.0607131,0.128115,148
0.45433,-0.0606311,0.12891,153
0.454276,-0.0606195,0.129786,160
0.454608,-0.0607066,0.130777,157
0.453842,-0.0605123,0.13144,166
0.454174,-0.0605995,0.132433,167
0.453958,-0.0605462,0.133261,166
0.453962,-0.0605493,0.134157,170
0.454076,-0.0605807,0.135087,167
0.453587,-0.0604574,0.135831,171
0.453318,-0.0603906,0.136642,167
0.453214,-0.0603661,0.137505,167
0.452564,-0.0602015,0.138195,165
0.452079,-0.0600793,0.138936,159
0.451595,-0.0599575,0.139676,154
0.450516,-0.0596831,0.140221,160
0.450903,-0.0597843,0.141241,161
0.450856,-0.0597744,0.142121,166
0.450539,-0.0596951,0.142912,166
0.449304,-0.0593807,0.143398,163
0.449366,-0.0593988,0.144313,163
0.449051,-0.0593202,0.145103,156
0.448738,-0.0592419,0.145892,155
0.448048,-0.0590673,0.146553,151
0.44779,-0.0590032,0.147359,139
0.44641,-0.0586516,0.147779,141
0.445994,-0.0585471,0.148528,132
0.446644,-0.0587158,0.149647,135
0.445962,-0.058543,0.150303,126
0.445389,-0.0583981,0.150994,135
0.444711,-0.0582264,0.151648,129
0.443349,-0.0578796,0.152056,133
0.444311,-0.0581281,0.153291,137
0.444164,-0.0580926,0.154132,137
0.443491,-0.057922,0.154782,134
0.442189,-0.0575905,0.155201,133
0.441731,-0.057475,0.155925,135
0.441744,-0.0574804,0.156821,136
0.441286,-0.0573652,0.157544,134
0.441039,-0.0573039,0.158344,132
0.440479,-0.0571625,0.159026,130
0.441747,-0.0574896,0.160397,137
0.439728,-0.0569739,0.160526,141
0.438913,-0.0567671,0.161107,147
0.438565,-0.0566801,0.161865,144
0.438373,-0.056633,0.162683,148
0.437976,-0.0565331,0.16342,140
0.437527,-0.0564202,0.164137,136
0.437491,-0.056413,0.165015,137
0.436173,-0.056077,0.165388,143
0.43665,-0.0562013,0.166467,139
0.436409,-0.0561418,0.167263,137
0.435914,-0.0560168,0.167958,135
0.435675,-0.0559575,0.168754,137
0.434671,-0.0557024,0.169241,133
0.4353,-0.0558656,0.170388,129
0.43374,-0.0554677,0.170644,127
0.433605,-0.0554352,0.171479,118
0.433876,-0.0555067,0.172483,115
0.433336,-0.0553703,0.173152,120
0.433658,-0.055455,0.174179,118
0.434083,-0.055566,0.175251,114
0.433746,-0.0554817,0.176005,113
0.433461,-0.0554106,0.176781,120
0.433886,-0.0555218,0.177858,113
0.433347,-0.0553857,0.178526,106
0.433824,-0.0555102,0.179629,110
0.433896,-0.0555306,0.18056,107
0.433611,-0.0554597,0.181337,103
0.433683,-0.0554803,0.18227,109
0.433858,-0.0555271,0.183249,109
0.434083,-0.0555871,0.184252,106
0.434719,-0.0557523,0.185438,100
0.435152,-0.0558655,0.186538,100
0.435279,-0.0559,0.187503,103
