ply
format ascii 1.0
comment Created by CloudCompare v2.11 alpha (Anoia)
comment Created 2025/12/9 20:01
obj_info Generated by CloudCompare!
element vertex 1419
property float x
property float y
property float z
property float scalar_Scalar_field
end_header
0.301922 -0.593255 -0.0586774 148 
0.302316 -0.593378 -0.0576814 134 
0.302663 -0.593486 -0.0567004 130 
0.302473 -0.593429 -0.0559054 123 
0.303952 -0.593884 -0.0545214 123 
0.302876 -0.593557 -0.0540374 122 
0.303472 -0.593741 -0.0529594 118 
0.303577 -0.593776 -0.0520554 121 
0.303979 -0.593901 -0.0510434 123 
0.304135 -0.593951 -0.0501174 121 
0.304589 -0.594092 -0.0490814 119 
0.305243 -0.594294 -0.0479694 120 
0.304656 -0.594116 -0.0473124 120 
0.304814 -0.594167 -0.0463794 123 
0.306219 -0.594599 -0.0449794 127 
0.30613 -0.594574 -0.0441344 119 
0.306091 -0.594564 -0.0432704 125 
0.306052 -0.594554 -0.0424054 124 
0.306164 -0.59459 -0.0414824 128 
0.306728 -0.594765 -0.0403844 135 
0.30659 -0.594725 -0.0395544 134 
0.306452 -0.594685 -0.0387234 139 
0.306314 -0.594645 -0.0378934 138 
0.306629 -0.594743 -0.0368844 133 
0.306593 -0.594734 -0.0360124 133 
0.306809 -0.594802 -0.0350394 132 
0.307176 -0.594917 -0.0340044 137 
0.306889 -0.594831 -0.0332294 136 
0.307156 -0.594915 -0.0322314 138 
0.307476 -0.595015 -0.0312104 136 
0.307543 -0.595038 -0.0302894 130 
0.306801 -0.594813 -0.0296994 114 
0.306818 -0.59482 -0.0287994 123 
0.306835 -0.594828 -0.0278974 123 
0.306046 -0.594588 -0.0273314 124 
0.30677 -0.594812 -0.0261344 120 
0.307142 -0.594928 -0.0250814 124 
0.305698 -0.594487 -0.0247934 129 
0.305766 -0.594511 -0.0238674 131 
0.305483 -0.594426 -0.0230914 124 
0.305804 -0.594526 -0.0220564 133 
0.305975 -0.594581 -0.0210844 129 
0.305441 -0.594419 -0.0204154 132 
0.304707 -0.594197 -0.0198354 128 
0.304677 -0.59419 -0.0189494 122 
0.304948 -0.594275 -0.0179294 121 
0.303267 -0.593762 -0.0177714 127 
0.304187 -0.594046 -0.0164644 117 
0.303109 -0.593718 -0.0160444 119 
0.30318 -0.593742 -0.0151124 129 
0.302902 -0.593659 -0.0143364 127 
0.302674 -0.593591 -0.0135384 123 
0.301454 -0.593219 -0.0131914 120 
0.301525 -0.593243 -0.0122584 112 
0.30279 -0.593633 -0.0107764 116 
0.302265 -0.593474 -0.0101144 113 
0.302886 -0.593666 -0.00892142 113 
0.302111 -0.593431 -0.00837542 131 
0.301737 -0.593319 -0.00764442 114 
0.302109 -0.593435 -0.00656343 109 
0.302731 -0.593628 -0.00536143 101 
0.30289 -0.589197 -0.404751 9 
0.799574 -0.73601 -0.650434 8 
0.203129 -0.559712 -0.354016 9 
0.303919 -0.589507 -0.402517 11 
0.303026 -0.589246 -0.401169 10 
0.299565 -0.588225 -0.39858 11 
0.304552 -0.589701 -0.400087 8 
0.301018 -0.588658 -0.397477 11 
0.302718 -0.589163 -0.397388 10 
0.300794 -0.588596 -0.395565 6 
0.301004 -0.58866 -0.394764 10 
0.306575 -0.59031 -0.396494 9 
0.301672 -0.588862 -0.393279 11 
0.292675 -0.586204 -0.388172 8 
0.202944 -0.559677 -0.345663 8 
0.299447 -0.588211 -0.389551 8 
0.300246 -0.588449 -0.389028 13 
0.298353 -0.587892 -0.387266 16 
0.296866 -0.587454 -0.385698 14 
0.296641 -0.587389 -0.384712 16 
0.298497 -0.58794 -0.384669 10 
0.296674 -0.587403 -0.382962 18 
0.295155 -0.586956 -0.3814 17 
0.295746 -0.587133 -0.380787 20 
0.299196 -0.588155 -0.38144 15 
0.295495 -0.587063 -0.378922 14 
0.29604 -0.587226 -0.378286 18 
0.296058 -0.587234 -0.377418 16 
0.294787 -0.58686 -0.37599 18 
0.294806 -0.586867 -0.375127 16 
0.296594 -0.587398 -0.375027 23 
0.295847 -0.587179 -0.373833 21 
0.292877 -0.586303 -0.371695 24 
0.292333 -0.586144 -0.3706 22 
0.293343 -0.586445 -0.370165 25 
0.294832 -0.586887 -0.369927 24 
0.292632 -0.586239 -0.368141 23 
0.292889 -0.586317 -0.367388 23 
0.293335 -0.586451 -0.366712 29 
0.294491 -0.586795 -0.366328 27 
0.295511 -0.587098 -0.365884 24 
0.293403 -0.586477 -0.364161 28 
0.295366 -0.58706 -0.364099 24 
0.293073 -0.586383 -0.362313 28 
0.294606 -0.586839 -0.362072 34 
0.292324 -0.586166 -0.360303 32 
0.292022 -0.586078 -0.35933 32 
0.291394 -0.585895 -0.358231 26 
0.292165 -0.586125 -0.357684 26 
0.293127 -0.586411 -0.357209 29 
0.293058 -0.586393 -0.356331 30 
0.292009 -0.586085 -0.355075 28 
0.290873 -0.585751 -0.353791 34 
0.291782 -0.586022 -0.353294 36 
0.292229 -0.586156 -0.352618 38 
0.292863 -0.586345 -0.352012 37 
0.292937 -0.586369 -0.351193 47 
0.292311 -0.586186 -0.350113 40 
0.291827 -0.586045 -0.349089 34 
0.291716 -0.586014 -0.348206 36 
0.291605 -0.585983 -0.347324 38 
0.292332 -0.5862 -0.346749 39 
0.291478 -0.585949 -0.345598 37 
0.292065 -0.586125 -0.344971 43 
0.293821 -0.586647 -0.344762 39 
0.292497 -0.586257 -0.343447 44 
0.293133 -0.586447 -0.342834 46 
0.290936 -0.585799 -0.34122 46 
0.293288 -0.586497 -0.341211 39 
0.292341 -0.586219 -0.340042 40 
0.292978 -0.586409 -0.339427 43 
0.293896 -0.586683 -0.338908 42 
0.292856 -0.586377 -0.337714 43 
0.293821 -0.586664 -0.337208 46 
0.293061 -0.586441 -0.336114 45 
0.29384 -0.586674 -0.335543 48 
0.29378 -0.586658 -0.334688 44 
0.294609 -0.586905 -0.33413 45 
0.293988 -0.586724 -0.333089 49 
0.294349 -0.586833 -0.332375 57 
0.294759 -0.586956 -0.331676 49 
0.294232 -0.586802 -0.330672 47 
0.295815 -0.587272 -0.33035 54 
0.29421 -0.586799 -0.329002 52 
0.295229 -0.587103 -0.328496 54 
0.294609 -0.586921 -0.327468 54 
0.295021 -0.587045 -0.326768 53 
0.295809 -0.58728 -0.326184 51 
0.295329 -0.58714 -0.325204 53 
0.295649 -0.587237 -0.324473 53 
0.296204 -0.587403 -0.323813 60 
0.297328 -0.587738 -0.323325 58 
0.296611 -0.587527 -0.322277 61 
0.296555 -0.587513 -0.321431 62 
0.296784 -0.587582 -0.32067 60 
0.296352 -0.587457 -0.319714 69 
0.297856 -0.587904 -0.319329 71 
0.297234 -0.587722 -0.318318 63 
0.297322 -0.58775 -0.317516 65 
0.297695 -0.587862 -0.316795 64 
0.299161 -0.588298 -0.316387 61 
0.298537 -0.588115 -0.31538 67 
0.299055 -0.588271 -0.314698 73 
0.299813 -0.588497 -0.314081 77 
0.29876 -0.588187 -0.31296 73 
0.298851 -0.588216 -0.312158 64 
0.299752 -0.588485 -0.311578 66 
0.299415 -0.588387 -0.31066 68 
0.299746 -0.588487 -0.309922 70 
0.300603 -0.588743 -0.309325 73 
0.300218 -0.588631 -0.308396 78 
0.299977 -0.588561 -0.307506 80 
0.300597 -0.588747 -0.306843 77 
0.300787 -0.588805 -0.306067 76 
0.300882 -0.588835 -0.305266 68 
0.301554 -0.589036 -0.304612 71 
0.301986 -0.589166 -0.303895 76 
0.301266 -0.588954 -0.302888 81 
0.302324 -0.58927 -0.302327 84 
0.302808 -0.589415 -0.301621 80 
0.303438 -0.589604 -0.300949 83 
0.303827 -0.589721 -0.300217 83 
0.304218 -0.589839 -0.299483 82 
0.303347 -0.589583 -0.298448 86 
0.304612 -0.589959 -0.297923 95 
0.305054 -0.590092 -0.297199 96 
0.304571 -0.589951 -0.296259 98 
0.304526 -0.58994 -0.295422 103 
0.305946 -0.590362 -0.294922 102 
0.30595 -0.590365 -0.294095 103 
0.306102 -0.590412 -0.293302 101 
0.305961 -0.590372 -0.292443 98 
0.306016 -0.590391 -0.291629 97 
0.307152 -0.590729 -0.291052 99 
0.306128 -0.590428 -0.290001 102 
0.306675 -0.590592 -0.289294 106 
0.306633 -0.590581 -0.288459 108 
0.30728 -0.590775 -0.28777 108 
0.307142 -0.590736 -0.286915 107 
0.307249 -0.59077 -0.286112 116 
0.307554 -0.590862 -0.285349 117 
0.307564 -0.590867 -0.284526 108 
0.307575 -0.590872 -0.283703 117 
0.307635 -0.590892 -0.282891 116 
0.307844 -0.590955 -0.282108 115 
0.307315 -0.590801 -0.28118 112 
0.307475 -0.59085 -0.280388 117 
0.307734 -0.590929 -0.279616 121 
0.308191 -0.591066 -0.27888 120 
0.307123 -0.590752 -0.277856 127 
0.307089 -0.590743 -0.277029 132 
0.307595 -0.590895 -0.276302 129 
0.30707 -0.590742 -0.275386 133 
0.306842 -0.590676 -0.274526 137 
0.306467 -0.590567 -0.273641 144 
0.306826 -0.590675 -0.272887 134 
0.306746 -0.590653 -0.272055 130 
0.30745 -0.590864 -0.271359 124 
0.306588 -0.59061 -0.270395 125 
0.305486 -0.590286 -0.269394 126 
0.305263 -0.590221 -0.268544 128 
0.305332 -0.590244 -0.267742 132 
0.305061 -0.590165 -0.266886 137 
0.304889 -0.590116 -0.266047 130 
0.305153 -0.590196 -0.265278 131 
0.304449 -0.58999 -0.264358 132 
0.304038 -0.58987 -0.263485 138 
0.303483 -0.589707 -0.262593 136 
0.303796 -0.589802 -0.261833 141 
0.303147 -0.589612 -0.26093 142 
0.302741 -0.589493 -0.260065 146 
0.302479 -0.589417 -0.259224 148 
0.302505 -0.589427 -0.258424 152 
0.301815 -0.589224 -0.257524 150 
0.301794 -0.58922 -0.25672 149 
0.301726 -0.589202 -0.25591 144 
0.301373 -0.589099 -0.255062 137 
0.299604 -0.588576 -0.254028 134 
0.30001 -0.588699 -0.253285 139 
0.298675 -0.588305 -0.252317 135 
0.298705 -0.588315 -0.251527 134 
0.298267 -0.588187 -0.25068 142 
0.29783 -0.58806 -0.249834 154 
0.297815 -0.588057 -0.249041 164 
0.297055 -0.587834 -0.24816 161 
0.295975 -0.587515 -0.247245 160 
0.296331 -0.587623 -0.246499 168 
0.295994 -0.587525 -0.245674 165 
0.295335 -0.587331 -0.244815 167 
0.295231 -0.587302 -0.244019 165 
0.294805 -0.587178 -0.24319 163 
0.29461 -0.587122 -0.242386 165 
0.294279 -0.587025 -0.24157 169 
0.293766 -0.586875 -0.240736 167 
0.293072 -0.586671 -0.239887 172 
0.293473 -0.586792 -0.239147 164 
0.292737 -0.586575 -0.238298 167 
0.292729 -0.586575 -0.237519 161 
0.29313 -0.586696 -0.236779 161 
0.292987 -0.586655 -0.235988 164 
0.292526 -0.58652 -0.23517 170 
0.292202 -0.586426 -0.234366 173 
0.292152 -0.586413 -0.233586 178 
0.292101 -0.5864 -0.232807 174 
0.292504 -0.586521 -0.232064 174 
0.292409 -0.586495 -0.231281 172 
0.293041 -0.586684 -0.230554 175 
0.29272 -0.586591 -0.229754 173 
0.292083 -0.586404 -0.228932 177 
0.292171 -0.586432 -0.228164 175 
0.29226 -0.58646 -0.227396 175 
0.291942 -0.586367 -0.226601 176 
0.292666 -0.586584 -0.225874 179 
0.293074 -0.586707 -0.225125 175 
0.292258 -0.586466 -0.2243 172 
0.292666 -0.586589 -0.223551 169 
0.292441 -0.586524 -0.222764 170 
0.292352 -0.5865 -0.221985 169 
0.292852 -0.58665 -0.221238 173 
0.293036 -0.586706 -0.220474 174 
0.292903 -0.586669 -0.219693 174 
0.29268 -0.586604 -0.218908 171 
0.292775 -0.586634 -0.218139 175 
0.29337 -0.586812 -0.217391 178 
0.293284 -0.586789 -0.216613 182 
0.293198 -0.586765 -0.215835 173 
0.293432 -0.586836 -0.215069 178 
0.292666 -0.586611 -0.214267 178 
0.293491 -0.586858 -0.213522 180 
0.293543 -0.586875 -0.212749 186 
0.293825 -0.58696 -0.211983 186 
0.29356 -0.586884 -0.211201 186 
0.293432 -0.586848 -0.210423 187 
0.293669 -0.58692 -0.209655 188 
0.293725 -0.586938 -0.208881 187 
0.2941 -0.587051 -0.208114 188 
0.293928 -0.587002 -0.207336 188 
0.294625 -0.587211 -0.206572 186 
0.294043 -0.58704 -0.205787 187 
0.293782 -0.586964 -0.205009 187 
0.293931 -0.58701 -0.204236 191 
0.295364 -0.587437 -0.203474 184 
0.294919 -0.587307 -0.202693 182 
0.294842 -0.587286 -0.201916 183 
0.295177 -0.587387 -0.20114 187 
0.294918 -0.587312 -0.200363 184 
0.295163 -0.587387 -0.199586 184 
0.294858 -0.587298 -0.198809 184 
0.29515 -0.587387 -0.198031 182 
0.296042 -0.587653 -0.197248 179 
0.295461 -0.587483 -0.196474 184 
0.296956 -0.587928 -0.195681 185 
0.295821 -0.587593 -0.194914 187 
0.29681 -0.587888 -0.194121 189 
0.297572 -0.588116 -0.193328 193 
0.297453 -0.588083 -0.192548 187 
0.297011 -0.587953 -0.191775 189 
0.297403 -0.588072 -0.190985 190 
0.297426 -0.58808 -0.190203 190 
0.297495 -0.588103 -0.189419 189 
0.297844 -0.588208 -0.188627 193 
0.297961 -0.588244 -0.18784 192 
0.297752 -0.588185 -0.187064 194 
0.297638 -0.588152 -0.186285 193 
0.297756 -0.588189 -0.185498 192 
0.298061 -0.588282 -0.184703 192 
0.297762 -0.588195 -0.183931 194 
0.299002 -0.588565 -0.183096 187 
0.29763 -0.588159 -0.18237 189 
0.298404 -0.588391 -0.181551 184 
0.298292 -0.58836 -0.180772 186 
0.298508 -0.588425 -0.179976 188 
0.300461 -0.589007 -0.179091 194 
0.300398 -0.58899 -0.178305 191 
0.300523 -0.589029 -0.177509 194 
0.300413 -0.588998 -0.176726 197 
0.298849 -0.588536 -0.176028 194 
0.299678 -0.588784 -0.175191 191 
0.300464 -0.589019 -0.174353 196 
0.300592 -0.589059 -0.173555 194 
0.300721 -0.589099 -0.172756 194 
0.301513 -0.589336 -0.171911 195 
0.301596 -0.589363 -0.171112 193 
0.303204 -0.589842 -0.170203 195 
0.302049 -0.589501 -0.169492 194 
0.302229 -0.589556 -0.168684 196 
0.303173 -0.589838 -0.167816 197 
0.303499 -0.589937 -0.166993 197 
0.303394 -0.589908 -0.166204 198 
0.303434 -0.589922 -0.165403 199 
0.303762 -0.590021 -0.164577 204 
0.303659 -0.589992 -0.163787 199 
0.303413 -0.589921 -0.16301 194 
0.303167 -0.58985 -0.162234 196 
0.303449 -0.589935 -0.161409 195 
0.303444 -0.589936 -0.160611 199 
0.303727 -0.590022 -0.159784 200 
0.303772 -0.590037 -0.15898 201 
0.303576 -0.589981 -0.158199 192 
0.304102 -0.590139 -0.157344 190 
0.30314 -0.589855 -0.156644 188 
0.304049 -0.590127 -0.155747 191 
0.304096 -0.590143 -0.15494 194 
0.30477 -0.590345 -0.154062 191 
0.304192 -0.590175 -0.153324 190 
0.304481 -0.590263 -0.152488 190 
0.304096 -0.59015 -0.151729 190 
0.304483 -0.590267 -0.150879 193 
0.304533 -0.590284 -0.150069 194 
0.30415 -0.590172 -0.149311 191 
0.305652 -0.59062 -0.148319 185 
0.305461 -0.590565 -0.147536 185 
0.304691 -0.590338 -0.146827 186 
0.305131 -0.590471 -0.145964 185 
0.305088 -0.59046 -0.145162 184 
0.304031 -0.590148 -0.144496 185 
0.30423 -0.590209 -0.143663 193 
0.304816 -0.590385 -0.142775 193 
0.304968 -0.590432 -0.141946 189 
0.304444 -0.590278 -0.141211 188 
0.304355 -0.590254 -0.140416 194 
0.303593 -0.590029 -0.139719 190 
0.304035 -0.590163 -0.138846 188 
0.303323 -0.589953 -0.138145 195 
0.303621 -0.590043 -0.137292 188 
0.303199 -0.58992 -0.136549 189 
0.303691 -0.590068 -0.135664 190 
0.303222 -0.58993 -0.134929 190 
0.303185 -0.589921 -0.134126 190 
0.303342 -0.58997 -0.133292 189 
0.303355 -0.589976 -0.13248 191 
0.302456 -0.58971 -0.131819 189 
0.303238 -0.589945 -0.130879 190 
0.302628 -0.589765 -0.130172 188 
0.302931 -0.589857 -0.12931 190 
0.302275 -0.589664 -0.128614 189 
0.300954 -0.589273 -0.128036 188 
0.300732 -0.589209 -0.127268 193 
0.300558 -0.58916 -0.126491 193 
0.299626 -0.588885 -0.125852 192 
0.300022 -0.589004 -0.124973 192 
0.300229 -0.589068 -0.124127 191 
0.300533 -0.58916 -0.123262 191 
0.300409 -0.589125 -0.122476 192 
0.299337 -0.588808 -0.121872 184 
0.298272 -0.588494 -0.12127 193 
0.298385 -0.588529 -0.120441 190 
0.297982 -0.588411 -0.119714 193 
0.297767 -0.588349 -0.11895 193 
0.297272 -0.588204 -0.118243 192 
0.297669 -0.588324 -0.117356 198 
0.29769 -0.588332 -0.116544 197 
0.296448 -0.587965 -0.115994 190 
0.295213 -0.5876 -0.115446 189 
0.29505 -0.587553 -0.114677 190 
0.295258 -0.587617 -0.113828 189 
0.295003 -0.587543 -0.113078 187 
0.294795 -0.587483 -0.112319 185 
0.294911 -0.587519 -0.111488 179 
0.294704 -0.58746 -0.110728 179 
0.294728 -0.587469 -0.109917 179 
0.29429 -0.58734 -0.109209 179 
0.294594 -0.587433 -0.108334 179 
0.294805 -0.587497 -0.107478 181 
0.294785 -0.587493 -0.106674 179 
0.294905 -0.587531 -0.105838 177 
0.295072 -0.587582 -0.104989 175 
0.294821 -0.58751 -0.104238 174 
0.295175 -0.587617 -0.103343 172 
0.29511 -0.587599 -0.102547 171 
0.295279 -0.587652 -0.101694 171 
0.294983 -0.587565 -0.100954 175 
0.295666 -0.58777 -0.0999725 171 
0.295556 -0.58774 -0.0991854 174 
0.295261 -0.587654 -0.0984444 171 
0.295479 -0.587721 -0.0975744 170 
0.295277 -0.587663 -0.0968094 169 
0.295917 -0.587855 -0.0958284 165 
0.295763 -0.587811 -0.0950504 169 
0.297205 -0.588242 -0.0938554 173 
0.296627 -0.588072 -0.0931854 171 
0.296333 -0.587986 -0.0924424 177 
0.296932 -0.588166 -0.0914614 171 
0.296638 -0.588081 -0.0907174 169 
0.296532 -0.588051 -0.0899234 169 
0.296616 -0.588078 -0.0890774 167 
0.29684 -0.588147 -0.0881904 167 
0.296783 -0.588132 -0.0873814 165 
0.297057 -0.588215 -0.0864794 166 
0.297189 -0.588256 -0.0856154 167 
0.297464 -0.58834 -0.0847094 170 
0.297503 -0.588353 -0.0838694 161 
0.297495 -0.588353 -0.0830424 165 
0.298151 -0.58855 -0.0820214 161 
0.298192 -0.588564 -0.0811774 161 
0.298185 -0.588564 -0.0803464 155 
0.298179 -0.588564 -0.0795144 156 
0.298554 -0.588678 -0.0785684 153 
0.298549 -0.588678 -0.0777344 153 
0.299308 -0.588906 -0.0766694 154 
0.299399 -0.588935 -0.0758024 160 
0.299395 -0.588936 -0.0749644 165 
0.299392 -0.588937 -0.0741254 160 
0.299724 -0.589038 -0.0731824 157 
0.30025 -0.589196 -0.0721754 156 
0.300393 -0.589241 -0.0712874 155 
0.301454 -0.589558 -0.0701064 157 
0.301017 -0.58943 -0.0693984 156 
0.30092 -0.589403 -0.0685824 155 
0.300629 -0.589319 -0.0678284 155 
0.300725 -0.58935 -0.0669484 153 
0.301064 -0.589452 -0.0659894 150 
0.300581 -0.589311 -0.0652984 150 
0.301212 -0.5895 -0.0642394 155 
0.301213 -0.589503 -0.0633874 150 
0.301458 -0.589577 -0.0624524 150 
0.301266 -0.589522 -0.0616634 147 
0.302779 -0.589975 -0.0602954 145 
0.303126 -0.59008 -0.0593194 142 
0.30308 -0.590068 -0.0584754 140 
0.303428 -0.590174 -0.0574954 138 
0.303482 -0.590192 -0.0566144 130 
0.303783 -0.590283 -0.0556474 124 
0.304281 -0.590434 -0.0546084 113 
0.304189 -0.590408 -0.0537754 117 
0.304195 -0.590412 -0.0529074 124 
0.304647 -0.590549 -0.0518784 119 
0.305101 -0.590686 -0.0508464 125 
0.30496 -0.590646 -0.0500274 125 
0.305714 -0.590872 -0.0488814 124 
0.305324 -0.590758 -0.0481514 130 
0.305483 -0.590808 -0.0472204 133 
0.306041 -0.590976 -0.0461394 131 
0.305801 -0.590907 -0.0453524 131 
0.306962 -0.591254 -0.0440404 129 
0.307124 -0.591305 -0.0431004 134 
0.307035 -0.59128 -0.0422534 144 
0.306445 -0.591106 -0.0415974 143 
0.306808 -0.591217 -0.0405774 140 
0.307021 -0.591282 -0.0396124 139 
0.307437 -0.591408 -0.0385674 142 
0.307652 -0.591474 -0.0375984 146 
0.308324 -0.591676 -0.0364484 141 
0.307125 -0.591322 -0.0360324 140 
0.307291 -0.591373 -0.0350794 138 
0.306651 -0.591184 -0.0344464 132 
0.307119 -0.591326 -0.0333714 127 
0.307589 -0.591468 -0.0322924 130 
0.307302 -0.591384 -0.0315174 128 
0.307267 -0.591376 -0.0306394 128 
0.307435 -0.591428 -0.0296784 128 
0.306947 -0.591285 -0.0289864 127 
0.306611 -0.591187 -0.0282314 122 
0.306074 -0.59103 -0.0275614 127 
0.306747 -0.591232 -0.0263874 123 
0.30621 -0.591074 -0.0257174 123 
0.306329 -0.591112 -0.0247724 124 
0.306095 -0.591044 -0.0239744 127 
0.305561 -0.590887 -0.0233064 122 
0.305579 -0.590895 -0.0224014 126 
0.305599 -0.590903 -0.0214964 117 
0.304614 -0.590612 -0.0210234 127 
0.305286 -0.590814 -0.0198354 128 
0.304653 -0.590627 -0.0192124 125 
0.304173 -0.590486 -0.0185244 128 
0.303793 -0.590375 -0.0177934 137 
0.303015 -0.590146 -0.0172394 127 
0.302986 -0.590139 -0.0163554 131 
0.302807 -0.590088 -0.0155364 129 
0.302928 -0.590126 -0.0145834 132 
0.301806 -0.589794 -0.0141894 124 
0.301827 -0.589803 -0.0132814 121 
0.302793 -0.590093 -0.0119414 119 
0.302268 -0.589938 -0.0112794 112 
0.301793 -0.589799 -0.0105954 109 
0.301221 -0.589631 -0.00995842 109 
0.301342 -0.589669 -0.00899942 132 
0.302309 -0.589959 -0.00764442 112 
0.301735 -0.58979 -0.00700742 112 
0.301908 -0.589844 -0.00602043 104 
0.306309 -0.586655 -0.406177 10 
0.309392 -0.587542 -0.406776 12 
0.305361 -0.586387 -0.403873 11 
0.309355 -0.587536 -0.404908 10 
0.307004 -0.586863 -0.402841 10 
0.302427 -0.585551 -0.399708 13 
0.301493 -0.585285 -0.398351 13 
0.098205 -0.526921 -0.300882 9 
0.302908 -0.585695 -0.397221 13 
0.298673 -0.584482 -0.394303 9 
0.305743 -0.586514 -0.396753 8 
0.292449 -0.582699 -0.389584 8 
0.301812 -0.585389 -0.393093 10 
0.300984 -0.585154 -0.391808 11 
0.292212 -0.582637 -0.386839 9 
0.299733 -0.584799 -0.389438 9 
0.295529 -0.583594 -0.386612 15 
0.299078 -0.584615 -0.387355 11 
0.296426 -0.583855 -0.385258 11 
0.296973 -0.584014 -0.384624 17 
0.297279 -0.584104 -0.38388 13 
0.293704 -0.58308 -0.381392 17 
0.297313 -0.584118 -0.382132 16 
0.297137 -0.58407 -0.381173 15 
0.294899 -0.583429 -0.379303 17 
0.294156 -0.583218 -0.378102 12 
0.295701 -0.583663 -0.377907 14 
0.29235 -0.582703 -0.375572 13 
0.292135 -0.582644 -0.374613 20 
0.293853 -0.583139 -0.37449 16 
0.294252 -0.583256 -0.373795 21 
0.296275 -0.583839 -0.373792 22 
0.295196 -0.583531 -0.372462 21 
0.293556 -0.583062 -0.3709 24 
0.294619 -0.583369 -0.370484 22 
0.295258 -0.583555 -0.369887 22 
0.294093 -0.583222 -0.368535 24 
0.294778 -0.583421 -0.367957 24 
0.294042 -0.583212 -0.36679 25 
0.293593 -0.583084 -0.365745 25 
0.295177 -0.583542 -0.365533 28 
0.29378 -0.583142 -0.364104 27 
0.292909 -0.582894 -0.362894 29 
0.292511 -0.582782 -0.361878 34 
0.294322 -0.583304 -0.36175 31 
0.293545 -0.583083 -0.360583 31 
0.294135 -0.583254 -0.359963 31 
0.293312 -0.58302 -0.358784 32 
0.292167 -0.582693 -0.357483 30 
0.291447 -0.582488 -0.356353 30 
0.292919 -0.582913 -0.356077 32 
0.29332 -0.58303 -0.355382 30 
0.292597 -0.582825 -0.354256 34 
0.292437 -0.582781 -0.353348 34 
0.293447 -0.583073 -0.352884 36 
0.292959 -0.582934 -0.351853 35 
0.292799 -0.582891 -0.350947 35 
0.294045 -0.583251 -0.350567 38 
0.293838 -0.583193 -0.349644 39 
0.294101 -0.583271 -0.348895 32 
0.293848 -0.5832 -0.347957 36 
0.294252 -0.583318 -0.347261 35 
0.293344 -0.583059 -0.346088 37 
0.293701 -0.583164 -0.345375 35 
0.295046 -0.583552 -0.345015 39 
0.293855 -0.583212 -0.343747 42 
0.294307 -0.583344 -0.343067 44 
0.293261 -0.583045 -0.341858 41 
0.293994 -0.583257 -0.341276 51 
0.294119 -0.583295 -0.340481 44 
0.295466 -0.583685 -0.340109 44 
0.294323 -0.583358 -0.338875 41 
0.294918 -0.583531 -0.338242 43 
0.2942 -0.583327 -0.33716 39 
0.296824 -0.584083 -0.33721 41 
0.294313 -0.583363 -0.335527 47 
0.295803 -0.583793 -0.335189 50 
0.295131 -0.583602 -0.33413 47 
0.295165 -0.583614 -0.333306 47 
0.294964 -0.583558 -0.332406 50 
0.295845 -0.583813 -0.331859 47 
0.296825 -0.584097 -0.331341 55 
0.29568 -0.58377 -0.330138 56 
0.295528 -0.583728 -0.329257 51 
0.296459 -0.583998 -0.32872 55 
0.29692 -0.584132 -0.328032 52 
0.297288 -0.58424 -0.327314 54 
0.296522 -0.584021 -0.326242 50 
0.29741 -0.584279 -0.325685 54 
0.297922 -0.584428 -0.32501 58 
0.298055 -0.584468 -0.324218 55 
0.296721 -0.584086 -0.322981 61 
0.29709 -0.584195 -0.322263 66 
0.29694 -0.584154 -0.321389 66 
0.298258 -0.584534 -0.320952 61 
0.297776 -0.584398 -0.319979 66 
0.298481 -0.584602 -0.319356 67 
0.299331 -0.584849 -0.318774 61 
0.298135 -0.584507 -0.317598 64 
0.298604 -0.584643 -0.316904 63 
0.299407 -0.584876 -0.316305 68 
0.300501 -0.585193 -0.315785 62 
0.299635 -0.584946 -0.314711 65 
0.300922 -0.585318 -0.314241 67 
0.300246 -0.585126 -0.313224 65 
0.30029 -0.58514 -0.312408 67 
0.300573 -0.585224 -0.311657 70 
0.300953 -0.585335 -0.310932 67 
0.300854 -0.585308 -0.310077 71 
0.300947 -0.585337 -0.309274 70 
0.300897 -0.585324 -0.308434 69 
0.301615 -0.585533 -0.307796 70 
0.301998 -0.585645 -0.307069 68 
0.302672 -0.585841 -0.306415 67 
0.301515 -0.58551 -0.30529 72 
0.302767 -0.585872 -0.304784 73 
0.302864 -0.585902 -0.303981 75 
0.302285 -0.585737 -0.303009 83 
0.302961 -0.585934 -0.302351 84 
0.303349 -0.586047 -0.301621 78 
0.30335 -0.586049 -0.300795 87 
0.303837 -0.586191 -0.300087 89 
0.304568 -0.586403 -0.299437 90 
0.304327 -0.586336 -0.298552 90 
0.305646 -0.586718 -0.298038 90 
0.305454 -0.586664 -0.297165 83 
0.305898 -0.586794 -0.296441 102 
0.306343 -0.586924 -0.295716 100 
0.307281 -0.587196 -0.295102 105 
0.306303 -0.586916 -0.294051 105 
0.306455 -0.586962 -0.293258 99 
0.307345 -0.58722 -0.292629 99 
0.306958 -0.587111 -0.291716 105 
0.307161 -0.587171 -0.290933 101 
0.307021 -0.587132 -0.290076 109 
0.307964 -0.587406 -0.289453 105 
0.307331 -0.587226 -0.28849 104 
0.30798 -0.587414 -0.287802 102 
0.307496 -0.587277 -0.286874 101 
0.307702 -0.587338 -0.286092 104 
0.308255 -0.587499 -0.28538 113 
0.308166 -0.587476 -0.284536 113 
0.308918 -0.587694 -0.283862 113 
0.308237 -0.5875 -0.282901 116 
0.309338 -0.587819 -0.282293 117 
0.309449 -0.587853 -0.281489 110 
0.309412 -0.587844 -0.280656 112 
0.308336 -0.587536 -0.279625 115 
0.308548 -0.587599 -0.278842 120 
0.309007 -0.587733 -0.278105 116 
0.308231 -0.587512 -0.277139 125 
0.308394 -0.587561 -0.276347 124 
0.308065 -0.587468 -0.275466 127 
0.308081 -0.587474 -0.274649 132 
0.30736 -0.587269 -0.273702 136 
0.307918 -0.587431 -0.272982 132 
0.308132 -0.587495 -0.2722 132 
0.307659 -0.58736 -0.2713 135 
0.306795 -0.587114 -0.270337 138 
0.306961 -0.587164 -0.269549 134 
0.30703 -0.587185 -0.268746 133 
0.306513 -0.587038 -0.267846 137 
0.306192 -0.586948 -0.266981 137 
0.30563 -0.586788 -0.266078 132 
0.305457 -0.58674 -0.26524 136 
0.305092 -0.586637 -0.264373 142 
0.304872 -0.586576 -0.26353 146 
0.305332 -0.58671 -0.262791 147 
0.304774 -0.586551 -0.261898 147 
0.304123 -0.586366 -0.260994 149 
0.303763 -0.586264 -0.260136 149 
0.3035 -0.58619 -0.259293 139 
0.303382 -0.586158 -0.258472 146 
0.302928 -0.586029 -0.257605 142 
0.302812 -0.585998 -0.256786 144 
0.302409 -0.585883 -0.255929 148 
0.302437 -0.585893 -0.255132 142 
0.301132 -0.58552 -0.254159 145 
0.300451 -0.585325 -0.253273 140 
0.300669 -0.58539 -0.252505 134 
0.299661 -0.585102 -0.251581 141 
0.299127 -0.58495 -0.25072 146 
0.298501 -0.584771 -0.249851 153 
0.299283 -0.584998 -0.249154 156 
0.298237 -0.584699 -0.248238 158 
0.29743 -0.584468 -0.247353 161 
0.297137 -0.584386 -0.246531 169 
0.297263 -0.584424 -0.245758 165 
0.296276 -0.584142 -0.244861 164 
0.296217 -0.584127 -0.24407 163 
0.29579 -0.584005 -0.243239 165 
0.295871 -0.584031 -0.242464 164 
0.295031 -0.583791 -0.241593 162 
0.294562 -0.583657 -0.240764 166 
0.294461 -0.58363 -0.239973 167 
0.29372 -0.583419 -0.239121 163 
0.293894 -0.583471 -0.238359 168 
0.294115 -0.583536 -0.2376 170 
0.294153 -0.583549 -0.236825 172 
0.294145 -0.583548 -0.236045 162 
0.294002 -0.583509 -0.235254 168 
0.293676 -0.583417 -0.234448 169 
0.293944 -0.583496 -0.233693 172 
0.293574 -0.583391 -0.232885 175 
0.293296 -0.583313 -0.232086 172 
0.293337 -0.583327 -0.231313 167 
0.293607 -0.583406 -0.230557 168 
0.293603 -0.583407 -0.229781 169 
0.293464 -0.583369 -0.228995 180 
0.29369 -0.583435 -0.228235 181 
0.293505 -0.583384 -0.227446 177 
0.293413 -0.583359 -0.226664 176 
0.293276 -0.583322 -0.22588 178 
0.293731 -0.583455 -0.225134 176 
0.293822 -0.583483 -0.224364 182 
0.293731 -0.583458 -0.223583 179 
0.293641 -0.583434 -0.222803 181 
0.293825 -0.583489 -0.222038 179 
0.293418 -0.583373 -0.221241 183 
0.29342 -0.583376 -0.220467 182 
0.29397 -0.583536 -0.219719 189 
0.2937 -0.58346 -0.218932 182 
0.293431 -0.583384 -0.218145 183 
0.294256 -0.583624 -0.217407 177 
0.293896 -0.583522 -0.216616 184 
0.293765 -0.583486 -0.215837 184 
0.293497 -0.583411 -0.215052 182 
0.294416 -0.583677 -0.214311 184 
0.29383 -0.58351 -0.213516 187 
0.294613 -0.583738 -0.212767 190 
0.293982 -0.583558 -0.211972 183 
0.293626 -0.583457 -0.211188 182 
0.293817 -0.583514 -0.210419 183 
0.294009 -0.583571 -0.20965 183 
0.294155 -0.583615 -0.208879 180 
0.294257 -0.583646 -0.208107 184 
0.294405 -0.583691 -0.207335 185 
0.29428 -0.583656 -0.206558 190 
0.294566 -0.583741 -0.205787 190 
0.29499 -0.583865 -0.205018 191 
0.294408 -0.583699 -0.204236 187 
0.294422 -0.583705 -0.203461 184 
0.295581 -0.584041 -0.202694 188 
0.295274 -0.583954 -0.201915 187 
0.295611 -0.584053 -0.20114 191 
0.29581 -0.584112 -0.200363 187 
0.295551 -0.584039 -0.199586 189 
0.295705 -0.584085 -0.198808 181 
0.295354 -0.583986 -0.198033 183 
0.295602 -0.584059 -0.197255 186 
0.29608 -0.584199 -0.196473 190 
0.296052 -0.584193 -0.195696 182 
0.295933 -0.58416 -0.194919 190 
0.296183 -0.584234 -0.194138 186 
0.296711 -0.584388 -0.193351 187 
0.297427 -0.584596 -0.192558 189 
0.297634 -0.584658 -0.191773 189 
0.298074 -0.584787 -0.190982 190 
0.297864 -0.584728 -0.190205 188 
0.297933 -0.58475 -0.189421 189 
0.298236 -0.584839 -0.188631 192 
0.29812 -0.584807 -0.187852 187 
0.298237 -0.584843 -0.187065 189 
0.298496 -0.584919 -0.186274 190 
0.298241 -0.584848 -0.185499 188 
0.298081 -0.584803 -0.184722 188 
0.298387 -0.584893 -0.183927 192 
0.298554 -0.584943 -0.183137 190 
0.29994 -0.585345 -0.182293 190 
0.298984 -0.585071 -0.181549 195 
0.29934 -0.585176 -0.180748 194 
0.299323 -0.585172 -0.179963 194 
0.300339 -0.585467 -0.179125 190 
0.300558 -0.585532 -0.178325 188 
0.30092 -0.585638 -0.177517 192 
0.300999 -0.585663 -0.176723 190 
0.301031 -0.585674 -0.175931 189 
0.301347 -0.585767 -0.175122 190 
0.301144 -0.585711 -0.174344 194 
0.301509 -0.585818 -0.17353 191 
0.301307 -0.585761 -0.172752 191 
0.303293 -0.586336 -0.171826 193 
0.303472 -0.586389 -0.171018 191 
0.302554 -0.586126 -0.170289 194 
0.302877 -0.586221 -0.169471 193 
0.303919 -0.586524 -0.168597 193 
0.303718 -0.586468 -0.167816 193 
0.303756 -0.586481 -0.167016 195 
0.303891 -0.586521 -0.166208 195 
0.304171 -0.586604 -0.165386 200 
0.304404 -0.586673 -0.164568 198 
0.304205 -0.586617 -0.163787 199 
0.30415 -0.586604 -0.162993 196 
0.303712 -0.586479 -0.162234 191 
0.304042 -0.586576 -0.161405 188 
0.305145 -0.586896 -0.160501 195 
0.307131 -0.587471 -0.159506 196 
0.307128 -0.587472 -0.158701 197 
0.306832 -0.587388 -0.157925 196 
0.3061 -0.587179 -0.157195 195 
0.307022 -0.587447 -0.156293 195 
0.305079 -0.586888 -0.155695 195 
0.306192 -0.587211 -0.154771 188 
0.306727 -0.587368 -0.153906 191 
0.306727 -0.587369 -0.1531 190 
0.305416 -0.586993 -0.152443 192 
0.306923 -0.58743 -0.151463 193 
0.306779 -0.58739 -0.150672 193 
0.30644 -0.587294 -0.149905 186 
0.306637 -0.587353 -0.149073 187 
0.30664 -0.587356 -0.148265 186 
0.306498 -0.587317 -0.147474 186 
0.306844 -0.587418 -0.146621 190 
0.307044 -0.587478 -0.145786 187 
0.306659 -0.587369 -0.145027 188 
0.306713 -0.587386 -0.14421 189 
0.306817 -0.587418 -0.143385 195 
0.305947 -0.587169 -0.142695 185 
0.305857 -0.587145 -0.141898 193 
0.306254 -0.587262 -0.141032 193 
0.306116 -0.587224 -0.140241 192 
0.305785 -0.58713 -0.139479 194 
0.307013 -0.587486 -0.138487 192 
0.306828 -0.587435 -0.137701 192 
0.30562 -0.587088 -0.137072 189 
0.304952 -0.586897 -0.136363 185 
0.306373 -0.587309 -0.135332 192 
0.305654 -0.587104 -0.134632 185 
0.304454 -0.586759 -0.134011 190 
0.303888 -0.586598 -0.133292 185 
0.304239 -0.586701 -0.132425 192 
0.304349 -0.586735 -0.131596 192 
0.303977 -0.586629 -0.130847 192 
0.303943 -0.586621 -0.130042 190 
0.30362 -0.58653 -0.129286 188 
0.303443 -0.586481 -0.128505 192 
0.303267 -0.586432 -0.127725 189 
0.303331 -0.586452 -0.126902 190 
0.3021 -0.586099 -0.126311 187 
0.301352 -0.585885 -0.125637 190 
0.30156 -0.585947 -0.12479 192 
0.301387 -0.585899 -0.124013 190 
0.301406 -0.585906 -0.123199 192 
0.301234 -0.585858 -0.122422 191 
0.300634 -0.585687 -0.121726 191 
0.300083 -0.58553 -0.121023 189 
0.299109 -0.58525 -0.120404 190 
0.299554 -0.585381 -0.119509 188 
0.299386 -0.585334 -0.118734 190 
0.299029 -0.585233 -0.117997 186 
0.297731 -0.58486 -0.117452 191 
0.296256 -0.584436 -0.116947 182 
0.295951 -0.58435 -0.116206 184 
0.295787 -0.584305 -0.115437 184 
0.295763 -0.5843 -0.114638 181 
0.295786 -0.584308 -0.113828 184 
0.295623 -0.584263 -0.113058 183 
0.295274 -0.584164 -0.112329 181 
0.29502 -0.584093 -0.111579 179 
0.295276 -0.584169 -0.110718 181 
0.295487 -0.584231 -0.109865 180 
0.295512 -0.584241 -0.109052 184 
0.295073 -0.584116 -0.108344 177 
0.295471 -0.584233 -0.107446 172 
0.295731 -0.584309 -0.106578 173 
0.295945 -0.584373 -0.105718 177 
0.295739 -0.584316 -0.104956 176 
0.295487 -0.584245 -0.104205 173 
0.295702 -0.584309 -0.103343 174 
0.296619 -0.584576 -0.102311 175 
0.296368 -0.584505 -0.101558 172 
0.296445 -0.584529 -0.100725 171 
0.296851 -0.584648 -0.0998105 169 
0.296038 -0.584415 -0.0991964 170 
0.295975 -0.584399 -0.0983974 173 
0.296147 -0.584451 -0.0975384 175 
0.296461 -0.584543 -0.0966424 170 
0.296212 -0.584473 -0.0958884 175 
0.29662 -0.584593 -0.0949654 169 
0.296889 -0.584673 -0.0940764 169 
0.296641 -0.584603 -0.0933214 171 
0.297004 -0.58471 -0.0924054 173 
0.298078 -0.585022 -0.0912974 171 
0.297925 -0.584979 -0.0905144 171 
0.297063 -0.584733 -0.0899234 168 
0.297808 -0.58495 -0.0888964 170 
0.29723 -0.584785 -0.0882294 166 
0.297835 -0.584961 -0.0872374 162 
0.298299 -0.585097 -0.0862814 164 
0.298385 -0.585124 -0.0854284 168 
0.298757 -0.585234 -0.0844944 163 
0.298178 -0.585068 -0.0838284 158 
0.29855 -0.585178 -0.0828914 160 
0.298686 -0.585219 -0.0820214 160 
0.298631 -0.585205 -0.0812054 158 
0.298958 -0.585301 -0.0802764 160 
0.299478 -0.585453 -0.0792894 153 
0.299233 -0.585385 -0.0785264 150 
0.29961 -0.585496 -0.0775774 151 
0.300037 -0.585621 -0.0766114 153 
0.299937 -0.585594 -0.0758024 157 
0.299981 -0.585609 -0.0749504 157 
0.300362 -0.585721 -0.0739924 152 
0.301227 -0.585973 -0.0728834 154 
0.300935 -0.58589 -0.0721304 155 
0.300017 -0.585627 -0.0715744 158 
0.301463 -0.586047 -0.0702754 158 
0.301559 -0.586076 -0.0693984 154 
0.301219 -0.58598 -0.0686594 149 
0.30117 -0.585968 -0.0678284 157 
0.301751 -0.586138 -0.0667914 156 
0.301849 -0.586168 -0.0659104 151 
0.302434 -0.586339 -0.0648674 158 
0.30224 -0.586285 -0.0640784 150 
0.303023 -0.586514 -0.0629654 149 
0.303172 -0.586559 -0.0620604 151 
0.302539 -0.586378 -0.0614174 148 
0.303031 -0.586522 -0.0603954 148 
0.303279 -0.586596 -0.0594534 149 
0.303725 -0.586727 -0.0584414 149 
0.305012 -0.587101 -0.0571374 145 
0.303882 -0.586776 -0.0566664 138 
0.304331 -0.586908 -0.0556474 127 
0.305674 -0.587298 -0.0543124 125 
0.305283 -0.587187 -0.0535834 119 
0.304942 -0.587091 -0.0528364 122 
0.305048 -0.587123 -0.0519314 124 
0.30595 -0.587386 -0.0507394 125 
0.30566 -0.587304 -0.0499734 117 
0.306017 -0.587409 -0.0489724 120 
0.306125 -0.587443 -0.0480604 120 
0.306734 -0.587621 -0.0469624 125 
0.306995 -0.587698 -0.0459914 124 
0.306604 -0.587587 -0.0452594 132 
0.307367 -0.58781 -0.0440974 132 
0.306876 -0.58767 -0.0434024 138 
0.30749 -0.58785 -0.0422914 131 
0.307552 -0.58787 -0.0413864 132 
0.307766 -0.587934 -0.0404234 137 
0.308233 -0.588071 -0.0393604 140 
0.307489 -0.587858 -0.0387624 140 
0.307603 -0.587893 -0.0378344 138 
0.307971 -0.588001 -0.0368054 130 
0.307026 -0.58773 -0.0362894 133 
0.307645 -0.587911 -0.0351594 135 
0.307307 -0.587815 -0.0344064 138 
0.307423 -0.587851 -0.0334724 139 
0.307691 -0.587931 -0.0324754 135 
0.306546 -0.587602 -0.0320474 132 
0.306864 -0.587696 -0.0310294 139 
0.307486 -0.587878 -0.0298854 132 
0.307199 -0.587797 -0.0291104 127 
0.306913 -0.587716 -0.0283354 130 
0.306326 -0.587548 -0.0276864 127 
0.305991 -0.587454 -0.0269334 126 
0.305707 -0.587374 -0.0261594 126 
0.305423 -0.587294 -0.0253864 132 
0.30514 -0.587214 -0.0246124 136 
0.305309 -0.587265 -0.0236474 125 
0.306384 -0.587578 -0.0222944 126 
0.305598 -0.587353 -0.0217344 122 
0.304213 -0.586954 -0.0214344 120 
0.304282 -0.586976 -0.0205094 125 
0.304402 -0.587013 -0.0195614 132 
0.304522 -0.58705 -0.0186124 126 
0.303692 -0.586812 -0.0180794 127 
0.303114 -0.586647 -0.0174384 127 
0.302686 -0.586525 -0.0167314 131 
0.301962 -0.586318 -0.0161574 123 
0.303225 -0.586685 -0.0146954 117 
0.302053 -0.586348 -0.0143234 112 
0.301727 -0.586256 -0.0135734 119 
0.301996 -0.586336 -0.0125524 118 
0.302365 -0.586445 -0.0114844 111 
0.30189 -0.58631 -0.0108014 116 
0.301813 -0.586289 -0.00993543 113 
0.30134 -0.586155 -0.00925242 129 
0.301908 -0.586321 -0.00808542 110 
0.301881 -0.586316 -0.00719442 106 
0.301905 -0.586325 -0.00627843 105 
0.304194 -0.582525 -0.404875 10 
0.305414 -0.582867 -0.404561 9 
0.302358 -0.582018 -0.402149 12 
0.303668 -0.582385 -0.40188 10 
0.294604 -0.579862 -0.396573 10 
0.298833 -0.581042 -0.397725 9 
0.298063 -0.58083 -0.396458 12 
0.30112 -0.581684 -0.397026 9 
0.301132 -0.581689 -0.396131 8 
0.298101 -0.580847 -0.393794 14 
0.295454 -0.580111 -0.391652 9 
0.298226 -0.580886 -0.392068 8 
0.295964 -0.580258 -0.39012 8 
0.29923 -0.58117 -0.390755 13 
0.300913 -0.581641 -0.390643 10 
0.294189 -0.579769 -0.386649 15 
0.293682 -0.57963 -0.385537 14 
0.293794 -0.579663 -0.384711 11 
0.294907 -0.579976 -0.384341 13 
0.290295 -0.578692 -0.381377 17 
0.292614 -0.579341 -0.381554 16 
0.294576 -0.57989 -0.381563 12 
0.291849 -0.579132 -0.379472 11 
0.29466 -0.579917 -0.379852 13 
0.293348 -0.579554 -0.378399 14 
0.293367 -0.579561 -0.377538 15 
0.29424 -0.579806 -0.377051 16 
0.293974 -0.579734 -0.376066 17 
0.295135 -0.58006 -0.375701 18 
0.29444 -0.579868 -0.374531 25 
0.291678 -0.5791 -0.372479 27 
0.294528 -0.579897 -0.372834 22 
0.295596 -0.580196 -0.372422 26 
0.29315 -0.579517 -0.370521 27 
0.292983 -0.579472 -0.369589 24 
0.294327 -0.579849 -0.36929 25 
0.292041 -0.579213 -0.367476 24 
0.293002 -0.579483 -0.367017 21 
0.29463 -0.579939 -0.366829 29 
0.294037 -0.579776 -0.365726 26 
0.292835 -0.579443 -0.364377 24 
0.292765 -0.579425 -0.363493 24 
0.295909 -0.580304 -0.363906 28 
0.293282 -0.579573 -0.361991 29 
0.293635 -0.579674 -0.361278 25 
0.294131 -0.579814 -0.360621 25 
0.293261 -0.579574 -0.359423 29 
0.294747 -0.57999 -0.359155 29 
0.294111 -0.579815 -0.358052 33 
0.293666 -0.579692 -0.357026 29 
0.293222 -0.579571 -0.356004 31 
0.29292 -0.579489 -0.355039 33 
0.293838 -0.579746 -0.354543 33 
0.294948 -0.580058 -0.354117 33 
0.293141 -0.579556 -0.352582 38 
0.292421 -0.579357 -0.351466 37 
0.293617 -0.579693 -0.35107 42 
0.294256 -0.579873 -0.350462 36 
0.292318 -0.579334 -0.348899 36 
0.293608 -0.579696 -0.348533 35 
0.293637 -0.579706 -0.3477 41 
0.294323 -0.579899 -0.347107 35 
0.295105 -0.58012 -0.346547 37 
0.2941 -0.579841 -0.345341 41 
0.294364 -0.579917 -0.344594 33 
0.294207 -0.579875 -0.343697 37 
0.294566 -0.579977 -0.342984 41 
0.294034 -0.579831 -0.341956 38 
0.293831 -0.579776 -0.341047 45 
0.294894 -0.580074 -0.340579 46 
0.295443 -0.58023 -0.33993 50 
0.294676 -0.580018 -0.338827 48 
0.294755 -0.580042 -0.338017 46 
0.29587 -0.580355 -0.337559 46 
0.29529 -0.580195 -0.336525 45 
0.295795 -0.580338 -0.335858 44 
0.2947 -0.580034 -0.334657 42 
0.296712 -0.580597 -0.334489 49 
0.295566 -0.58028 -0.333275 47 
0.29593 -0.580383 -0.33256 58 
0.296957 -0.580672 -0.332059 52 
0.296472 -0.580538 -0.331067 54 
0.296933 -0.580669 -0.33038 49 
0.297395 -0.5808 -0.329693 51 
0.297194 -0.580746 -0.328795 52 
0.2969 -0.580665 -0.327869 49 
0.297362 -0.580796 -0.327181 50 
0.297684 -0.580888 -0.326448 52 
0.297248 -0.580768 -0.325481 58 
0.297901 -0.580953 -0.32485 59 
0.29851 -0.581124 -0.324203 52 
0.298548 -0.581137 -0.323382 52 
0.300068 -0.581563 -0.323007 59 
0.299341 -0.581362 -0.321956 59 
0.298809 -0.581216 -0.320966 53 
0.299182 -0.581322 -0.320245 65 
0.299509 -0.581415 -0.31951 58 
0.299216 -0.581335 -0.318594 61 
0.300692 -0.581749 -0.31819 61 
0.300254 -0.581629 -0.317232 63 
0.300008 -0.581562 -0.316332 67 
0.300625 -0.581736 -0.315677 64 
0.301052 -0.581857 -0.314966 64 
0.300807 -0.581791 -0.314068 60 
0.300562 -0.581724 -0.313171 60 
0.301326 -0.581939 -0.312552 58 
0.302721 -0.582331 -0.312103 66 
0.302089 -0.582156 -0.311101 64 
0.3017 -0.58205 -0.310167 72 
0.302082 -0.582158 -0.309441 71 
0.302176 -0.582186 -0.308637 71 
0.302947 -0.582404 -0.308011 70 
0.30251 -0.582283 -0.307069 74 
0.303719 -0.582623 -0.306553 65 
0.303815 -0.582652 -0.305748 72 
0.304349 -0.582803 -0.305055 72 
0.304348 -0.582804 -0.304225 75 
0.3043 -0.582793 -0.303384 74 
0.304885 -0.582958 -0.302701 75 
0.304837 -0.582947 -0.30186 76 
0.305668 -0.583181 -0.301235 80 
0.305376 -0.583101 -0.300335 81 
0.305476 -0.583131 -0.29953 78 
0.305332 -0.583093 -0.298669 82 
0.307051 -0.583574 -0.298247 86 
0.306415 -0.583399 -0.297268 87 
0.306614 -0.583457 -0.296486 97 
0.307652 -0.583748 -0.295897 100 
0.30741 -0.583682 -0.295012 101 
0.307957 -0.583837 -0.294307 95 
0.307962 -0.583841 -0.293479 102 
0.308116 -0.583886 -0.292684 105 
0.307777 -0.583793 -0.291781 109 
0.308079 -0.583879 -0.291019 108 
0.308235 -0.583924 -0.290225 105 
0.308935 -0.584122 -0.289548 107 
0.308398 -0.583974 -0.288606 104 
0.309447 -0.584269 -0.288 104 
0.309406 -0.584259 -0.287163 108 
0.309267 -0.584222 -0.286306 112 
0.309177 -0.584199 -0.285461 112 
0.309783 -0.58437 -0.284757 109 
0.309247 -0.584223 -0.283822 105 
0.30906 -0.584172 -0.28296 108 
0.30927 -0.584233 -0.282176 112 
0.309729 -0.584363 -0.28144 109 
0.309444 -0.584285 -0.28056 114 
0.309308 -0.584249 -0.27971 121 
0.310116 -0.584477 -0.279039 124 
0.31023 -0.584511 -0.278235 126 
0.309599 -0.584336 -0.277294 129 
0.308723 -0.584094 -0.276311 127 
0.30953 -0.584321 -0.275636 131 
0.309101 -0.584203 -0.274738 131 
0.308821 -0.584127 -0.273867 133 
0.308838 -0.584133 -0.273051 128 
0.308461 -0.58403 -0.272166 131 
0.308036 -0.583913 -0.271275 131 
0.308252 -0.583975 -0.270495 143 
0.307828 -0.583859 -0.269607 134 
0.30775 -0.583839 -0.268778 136 
0.307329 -0.583723 -0.267894 139 
0.306958 -0.583622 -0.26702 133 
0.30742 -0.583753 -0.266281 134 
0.306416 -0.583474 -0.265309 137 
0.306 -0.58336 -0.264433 136 
0.306315 -0.58345 -0.263671 145 
0.305949 -0.583349 -0.262806 144 
0.305487 -0.583222 -0.261927 143 
0.305221 -0.58315 -0.26108 147 
0.30452 -0.582956 -0.260171 148 
0.304594 -0.582978 -0.259376 146 
0.304958 -0.583082 -0.258622 147 
0.304984 -0.583091 -0.25782 143 
0.304432 -0.582939 -0.256939 143 
0.303593 -0.582706 -0.256021 133 
0.30252 -0.582408 -0.255075 140 
0.301643 -0.582165 -0.254159 138 
0.301007 -0.581989 -0.253279 139 
0.3008 -0.581933 -0.252456 139 
0.300215 -0.581772 -0.251587 154 
0.300435 -0.581835 -0.25082 154 
0.299241 -0.581503 -0.24988 155 
0.298944 -0.581422 -0.249052 156 
0.299163 -0.581485 -0.248288 162 
0.298773 -0.581378 -0.247451 165 
0.298338 -0.581258 -0.246612 168 
0.298371 -0.581269 -0.245827 168 
0.297891 -0.581137 -0.244985 162 
0.296532 -0.580759 -0.24405 161 
0.296104 -0.580641 -0.243219 169 
0.295862 -0.580575 -0.24241 165 
0.295897 -0.580587 -0.241631 170 
0.295288 -0.580419 -0.240787 163 
0.295003 -0.580341 -0.239978 164 
0.295131 -0.580378 -0.23921 162 
0.295399 -0.580455 -0.238455 165 
0.294656 -0.580249 -0.237605 162 
0.294602 -0.580236 -0.236821 168 
0.294824 -0.5803 -0.236062 172 
0.294863 -0.580313 -0.235286 171 
0.294399 -0.580185 -0.234467 175 
0.294347 -0.580172 -0.233685 176 
0.294068 -0.580096 -0.232885 179 
0.294337 -0.580173 -0.23213 180 
0.294379 -0.580186 -0.231356 181 
0.294558 -0.580238 -0.230592 183 
0.294738 -0.58029 -0.229828 187 
0.293502 -0.579947 -0.228962 181 
0.293591 -0.579973 -0.228193 183 
0.294228 -0.580153 -0.227462 181 
0.294272 -0.580168 -0.226689 183 
0.294226 -0.580156 -0.22591 186 
0.294134 -0.580132 -0.225128 187 
0.294271 -0.580173 -0.224361 186 
0.294226 -0.580162 -0.223583 182 
0.294319 -0.58019 -0.222813 189 
0.294092 -0.580128 -0.222025 184 
0.294048 -0.580118 -0.221248 183 
0.293686 -0.580018 -0.220455 178 
0.294237 -0.580174 -0.219708 183 
0.294377 -0.580215 -0.21894 186 
0.294153 -0.580154 -0.218155 192 
0.294112 -0.580144 -0.217379 188 
0.294117 -0.580148 -0.216605 184 
0.294122 -0.580151 -0.215831 186 
0.294174 -0.580167 -0.215059 186 
0.294409 -0.580235 -0.214293 188 
0.294462 -0.580251 -0.213521 191 
0.294241 -0.580191 -0.212739 190 
0.294523 -0.580272 -0.211974 190 
0.29476 -0.58034 -0.211206 187 
0.294038 -0.58014 -0.210412 185 
0.294276 -0.580208 -0.209645 186 
0.294331 -0.580226 -0.208872 189 
0.294433 -0.580256 -0.2081 184 
0.294581 -0.580299 -0.207329 187 
0.295509 -0.580561 -0.20657 190 
0.295476 -0.580553 -0.205793 186 
0.295902 -0.580674 -0.205023 189 
0.295685 -0.580615 -0.204244 189 
0.294827 -0.580377 -0.20346 184 
0.295804 -0.580652 -0.202692 185 
0.294809 -0.580376 -0.201911 188 
0.295696 -0.580626 -0.201139 186 
0.296034 -0.580722 -0.200363 185 
0.296234 -0.58078 -0.199586 189 
0.295698 -0.580632 -0.19881 188 
0.296222 -0.58078 -0.198031 187 
0.296331 -0.580812 -0.197253 189 
0.296119 -0.580755 -0.196477 185 
0.296322 -0.580813 -0.195698 184 
0.296387 -0.580834 -0.19492 183 
0.296638 -0.580905 -0.194138 187 
0.29675 -0.580939 -0.193358 188 
0.297049 -0.581024 -0.192574 182 
0.297998 -0.581292 -0.191776 183 
0.298253 -0.581365 -0.190989 184 
0.298228 -0.58136 -0.190208 186 
0.298018 -0.581303 -0.189432 188 
0.298554 -0.581455 -0.188636 193 
0.298345 -0.581398 -0.18786 187 
0.298976 -0.581576 -0.187058 184 
0.298721 -0.581507 -0.186283 181 
0.299027 -0.581594 -0.185489 188 
0.299006 -0.58159 -0.184706 186 
0.298893 -0.58156 -0.183927 179 
0.29864 -0.581491 -0.183154 190 
0.299135 -0.581632 -0.18235 193 
0.299444 -0.58172 -0.181551 194 
0.299567 -0.581756 -0.180761 192 
0.299924 -0.581858 -0.179958 195 
0.301417 -0.582278 -0.179096 192 
0.301684 -0.582354 -0.178293 197 
0.301242 -0.582232 -0.177527 192 
0.301226 -0.58223 -0.176739 192 
0.301495 -0.582307 -0.175934 190 
0.301813 -0.582398 -0.175125 190 
0.302131 -0.582489 -0.174315 195 
0.30226 -0.582527 -0.173515 192 
0.302057 -0.582472 -0.172737 191 
0.302235 -0.582523 -0.171933 192 
0.303415 -0.582855 -0.171058 190 
0.303595 -0.582908 -0.170251 186 
0.30416 -0.583068 -0.169414 192 
0.30439 -0.583134 -0.1686 197 
0.304813 -0.583254 -0.167771 196 
0.304755 -0.58324 -0.166977 201 
0.30465 -0.583212 -0.166188 197 
0.30469 -0.583226 -0.165386 194 
0.305165 -0.58336 -0.164548 196 
0.304965 -0.583306 -0.163766 203 
0.304958 -0.583306 -0.162967 196 
0.304759 -0.583252 -0.162186 192 
0.305236 -0.583388 -0.161342 195 
0.305473 -0.583456 -0.160519 194 
0.305953 -0.583592 -0.159671 193 
0.307653 -0.58407 -0.158701 198 
0.307699 -0.584085 -0.15789 192 
0.307452 -0.584017 -0.157109 191 
0.307206 -0.58395 -0.156329 192 
0.307351 -0.583993 -0.155508 188 
0.307448 -0.584022 -0.154691 189 
0.307252 -0.583969 -0.153906 188 
0.307252 -0.583971 -0.1531 191 
0.307643 -0.584082 -0.152248 184 
0.307791 -0.584126 -0.151423 186 
0.307891 -0.584155 -0.150602 185 
0.307599 -0.584076 -0.149829 186 
0.307602 -0.584078 -0.14902 189 
0.308439 -0.584315 -0.148106 189 
0.308247 -0.584263 -0.14732 190 
0.308202 -0.584252 -0.146515 191 
0.307863 -0.584159 -0.145748 187 
0.307967 -0.58419 -0.144923 184 
0.307679 -0.584111 -0.144151 194 
0.308078 -0.584225 -0.143285 195 
0.307987 -0.584201 -0.142486 188 
0.307994 -0.584205 -0.141672 186 
0.307561 -0.584086 -0.140921 189 
0.30752 -0.584076 -0.140115 191 
0.307187 -0.583985 -0.139351 188 
0.307441 -0.584058 -0.138501 190 
0.307402 -0.584049 -0.137694 188 
0.307315 -0.584026 -0.136894 190 
0.307375 -0.584045 -0.136071 189 
0.306409 -0.583776 -0.135407 187 
0.306567 -0.583823 -0.13457 183 
0.307216 -0.584006 -0.133654 185 
0.306251 -0.583738 -0.132994 184 
0.305778 -0.583607 -0.132259 183 
0.306914 -0.583927 -0.131258 185 
0.305563 -0.583551 -0.130669 186 
0.305335 -0.583489 -0.129894 187 
0.305107 -0.583427 -0.12912 190 
0.304929 -0.583379 -0.128338 191 
0.304848 -0.583358 -0.127539 190 
0.303704 -0.58304 -0.126928 193 
0.304204 -0.583182 -0.126027 188 
0.302872 -0.58281 -0.125455 192 
0.302698 -0.582763 -0.124676 193 
0.302092 -0.582596 -0.123977 190 
0.302207 -0.58263 -0.123146 188 
0.301747 -0.582503 -0.122422 191 
0.301671 -0.582483 -0.121626 192 
0.300832 -0.58225 -0.120977 190 
0.300756 -0.582231 -0.120183 189 
0.299827 -0.581972 -0.119556 192 
0.298902 -0.581715 -0.118931 188 
0.298687 -0.581657 -0.118167 188 
0.298096 -0.581493 -0.11748 191 
0.298211 -0.581527 -0.11665 188 
0.298375 -0.581575 -0.11581 190 
0.298021 -0.581478 -0.115076 186 
0.297997 -0.581473 -0.114273 184 
0.296474 -0.581048 -0.113789 182 
0.297715 -0.581398 -0.112717 180 
0.296521 -0.581065 -0.112167 187 
0.296265 -0.580995 -0.111417 184 
0.296476 -0.581056 -0.110564 183 
0.296595 -0.581091 -0.10973 180 
0.29634 -0.581022 -0.108979 176 
0.296646 -0.58111 -0.108101 177 
0.296907 -0.581184 -0.107233 172 
0.2967 -0.581128 -0.10647 174 
0.2964 -0.581046 -0.105729 168 
0.296849 -0.581174 -0.104814 170 
0.297817 -0.581447 -0.103773 173 
0.296578 -0.581102 -0.103254 169 
0.296607 -0.581112 -0.102435 172 
0.296777 -0.581161 -0.101581 173 
0.296807 -0.581172 -0.10076 171 
0.296838 -0.581182 -0.0999378 171 
0.29781 -0.581457 -0.0988814 173 
0.297229 -0.581296 -0.0982094 173 
0.297591 -0.581399 -0.0973014 173 
0.297199 -0.581291 -0.0965824 171 
0.297656 -0.581421 -0.0956474 170 
0.296935 -0.581221 -0.0950144 168 
0.298054 -0.581537 -0.0939044 165 
0.29823 -0.581588 -0.0930364 169 
0.298265 -0.5816 -0.0922054 173 
0.298917 -0.581784 -0.0912084 177 
0.298906 -0.581783 -0.0903864 170 
0.298942 -0.581795 -0.0895514 173 
0.298314 -0.581621 -0.0888964 175 
0.298826 -0.581767 -0.0879304 173 
0.298959 -0.581806 -0.0870664 170 
0.298379 -0.581645 -0.0864004 170 
0.298227 -0.581604 -0.0856154 163 
0.299122 -0.581857 -0.0845344 164 
0.298876 -0.58179 -0.0837744 162 
0.299249 -0.581897 -0.0828374 166 
0.299146 -0.58187 -0.0820354 167 
0.299905 -0.582085 -0.0809824 160 
0.29985 -0.582071 -0.0801644 158 
0.299988 -0.582112 -0.0792894 152 
0.299838 -0.582072 -0.0784974 153 
