0.417721,-0.109553,-0.157291,27
0.416667,-0.109132,-0.156013,31
0.416833,-0.109201,-0.155216,29
0.416531,-0.109081,-0.154239,28
0.415485,-0.108664,-0.152976,25
0.417049,-0.109294,-0.152721,24
0.412956,-0.107652,-0.150298,26
0.413166,-0.107738,-0.149529,28
0.412644,-0.107531,-0.148483,28
0.411897,-0.107233,-0.147355,37
0.412791,-0.107594,-0.146844,39
0.412181,-0.107351,-0.145772,41
0.411482,-0.107072,-0.14467,41
0.411421,-0.10705,-0.143806,42
0.412086,-0.107319,-0.143207,41
0.411797,-0.107205,-0.142261,42
0.410831,-0.106819,-0.141072,40
0.410816,-0.106815,-0.140229,45
0.411434,-0.107065,-0.139613,47
0.410878,-0.106844,-0.138578,44
0.412177,-0.107368,-0.1382,46
0.411437,-0.107073,-0.137103,48
0.411108,-0.106942,-0.136153,45
0.41209,-0.107339,-0.135659,49
0.411127,-0.106954,-0.134492,51
0.41107,-0.106933,-0.13364,48
0.411645,-0.107166,-0.133003,47
0.411317,-0.107036,-0.13206,50
0.41117,-0.10698,-0.131179,52
0.411204,-0.106995,-0.13036,56
0.411374,-0.107065,-0.129587,54
0.412359,-0.107463,-0.12908,53
0.411715,-0.107206,-0.128039,51
0.411434,-0.107096,-0.12712,54
0.411786,-0.107239,-0.126405,52
0.41241,-0.107492,-0.125777,55
0.412175,-0.107399,-0.124874,54
0.413391,-0.10789,-0.124431,65
0.413291,-0.107852,-0.12357,58
0.412512,-0.107541,-0.122499,59
0.41373,-0.108032,-0.12205,59
0.414407,-0.108306,-0.12143,62
0.413306,-0.107866,-0.120264,60
0.414621,-0.108396,-0.119837,64
0.413066,-0.107774,-0.118541,64
0.413151,-0.10781,-0.117742,69
0.413691,-0.108028,-0.117078,68
0.413503,-0.107955,-0.116198,66
0.41409,-0.108193,-0.115547,66
0.414495,-0.108358,-0.11484,65
0.414628,-0.108413,-0.114054,64
0.414304,-0.108285,-0.113137,66
0.413528,-0.107975,-0.112094,68
0.414708,-0.108451,-0.111606,75
0.414933,-0.108544,-0.110847,72
0.414611,-0.108416,-0.109935,73
0.415248,-0.108674,-0.10929,69
0.415201,-0.108657,-0.108455,69
0.414743,-0.108475,-0.107509,72
0.415289,-0.108697,-0.106837,68
0.415609,-0.108827,-0.106102,70
0.415746,-0.108884,-0.105318,73
0.41602,-0.108997,-0.10457,72
0.416158,-0.109054,-0.103786,87
0.41593,-0.108964,-0.102907,89
0.415977,-0.108985,-0.1021,86
0.416299,-0.109117,-0.101364,82
0.416393,-0.109156,-0.100569,85
0.416762,-0.109307,-0.0998434,88
0.417225,-0.109495,-0.0991401,87
0.417136,-0.109461,-0.0982991,84
0.417231,-0.109501,-0.0975042,100
0.417143,-0.109468,-0.0966648,98
0.417562,-0.109638,-0.0959484,99
0.417935,-0.10979,-0.09522,105
0.418264,-0.109924,-0.0944799,106
0.4185,-0.110022,-0.0937173,104
0.418228,-0.109914,-0.092836,103
0.418512,-0.11003,-0.0920844,100
0.418611,-0.110072,-0.0912899,102
0.418479,-0.110021,-0.0904432,99
0.419926,-0.110604,-0.0899518,105
0.418171,-0.109901,-0.088743,113
0.41878,-0.110148,-0.0880628,110
0.418743,-0.110135,-0.0872393,107
0.419633,-0.110495,-0.0866171,110
0.418345,-0.109979,-0.0855251,105
0.418494,-0.110041,-0.0847437,109
0.418504,-0.110047,-0.083933,111
0.4187,-0.110128,-0.0831613,114
0.418943,-0.110227,-0.0823989,113
0.418954,-0.110234,-0.0815889,110
0.418782,-0.110166,-0.0807419,106
0.418979,-0.110248,-0.0799702,110
0.418807,-0.110181,-0.079125,116
0.418129,-0.10991,-0.0781817,120
0.418835,-0.110196,-0.0775099,122
0.418526,-0.110074,-0.0766411,122
0.417805,-0.109785,-0.0756956,126
0.418557,-0.11009,-0.07503,126
0.41779,-0.109783,-0.0740798,130
0.417439,-0.109644,-0.0732095,132
0.418237,-0.109967,-0.0725496,133
0.417611,-0.109717,-0.0716312,136
0.416942,-0.10945,-0.0707081,140
0.417052,-0.109496,-0.0699247,136
0.416751,-0.109377,-0.06907,128
0.416132,-0.10913,-0.0681625,134
0.415788,-0.108994,-0.0673044,131
0.415536,-0.108894,-0.0664634,135
0.415013,-0.108686,-0.0655791,137
0.414673,-0.108551,-0.064727,135
0.414199,-0.108362,-0.0638551,137
0.414176,-0.108355,-0.0630573,142
0.414333,-0.10842,-0.0622883,144
0.414041,-0.108305,-0.0614492,148
0.413257,-0.107991,-0.0605363,145
0.413012,-0.107895,-0.0597084,153
0.413081,-0.107925,-0.0589286,147
0.412525,-0.107703,-0.058057,141
0.412239,-0.10759,-0.057227,148
0.411731,-0.107387,-0.0563668,152
0.411446,-0.107275,-0.0555404,150
0.410633,-0.106949,-0.0546419,152
0.410527,-0.106909,-0.0538441,149
0.409631,-0.10655,-0.0529402,143
0.40922,-0.106387,-0.0521048,144
0.409994,-0.1067,-0.0514264,143
0.409365,-0.106449,-0.0505643,152
0.409219,-0.106392,-0.0497663,157
0.40868,-0.106177,-0.0489201,156
0.40871,-0.106191,-0.0481463,159
0.408391,-0.106065,-0.0473305,166
0.408728,-0.106202,-0.046594,169
0.407237,-0.105604,-0.045643,168
0.408268,-0.106021,-0.0449878,172
0.407301,-0.105634,-0.0441033,168
0.407985,-0.105911,-0.0434058,166
0.40715,-0.105577,-0.0425406,163
0.40714,-0.105575,-0.0417671,169
0.408216,-0.106009,-0.0411076,166
0.407425,-0.105693,-0.0402521,171
0.40759,-0.105761,-0.0394964,167
0.406933,-0.105499,-0.038659,165
0.407141,-0.105585,-0.0379083,167
0.407005,-0.105531,-0.0371241,166
0.407994,-0.105931,-0.0364453,171
0.407728,-0.105826,-0.0356486,168
0.406857,-0.105477,-0.0347996,176
0.406851,-0.105477,-0.0340293,179
0.407062,-0.105564,-0.0332776,171
0.406842,-0.105477,-0.0324895,176
0.406881,-0.105495,-0.0317235,174
0.407569,-0.105774,-0.0310086,174
0.406702,-0.105427,-0.0301716,175
0.406786,-0.105462,-0.0294095,178
0.408125,-0.106003,-0.0287385,178
0.40808,-0.105987,-0.0279644,179
0.407905,-0.105918,-0.0271816,177
0.408121,-0.106007,-0.0264258,182
0.408295,-0.106079,-0.0256665,181
0.408121,-0.106011,-0.0248849,180
0.408252,-0.106065,-0.0241226,176
0.408514,-0.106172,-0.0233676,179
0.409781,-0.106684,-0.0226688,173
0.407996,-0.105968,-0.0217977,178
0.408128,-0.106023,-0.0210352,180
0.408175,-0.106043,-0.0202679,178
0.4087,-0.106257,-0.0195239,180
0.408051,-0.105998,-0.0187229,184
0.408186,-0.106054,-0.0179598,181
0.408191,-0.106057,-0.0171906,184
0.408413,-0.106149,-0.0164304,183
0.408419,-0.106153,-0.0156609,184
0.409514,-0.106596,-0.0149318,184
0.408953,-0.106372,-0.0141405,186
0.408786,-0.106306,-0.0133645,187
0.408402,-0.106154,-0.0125825,190
0.408715,-0.106281,-0.0118222,189
0.409508,-0.106603,-0.0110737,186
0.409429,-0.106573,-0.0103004,182
0.409964,-0.10679,-0.0095415,190
0.40993,-0.106778,-0.00876859,185
0.409634,-0.106661,-0.00799088,188
0.409426,-0.106579,-0.00721589,187
0.409394,-0.106568,-0.00644438,188
0.409886,-0.106768,-0.00567987,188
0.409899,-0.106775,-0.00490812,188
0.409649,-0.106676,-0.00413397,184
0.409837,-0.106754,-0.00336391,188
0.410026,-0.106832,-0.00259311,188
0.41004,-0.106839,-0.00182103,188
0.41023,-0.106917,-0.00104909,191
0.410376,-0.106978,-0.000276417,185
0.41026,-0.106934,0.000496078,184
0.41054,-0.107048,0.00127007,189
0.410425,-0.107003,0.00204246,186
0.41141,-0.107402,0.00282422,189
0.411119,-0.107287,0.00359602,192
0.412153,-0.107705,0.00438377,189
0.411995,-0.107643,0.00515794,193
0.410866,-0.107191,0.00591515,192
0.411503,-0.107449,0.00670121,196
0.412009,-0.107655,0.00748713,193
0.412384,-0.107808,0.00827213,192
0.412228,-0.107746,0.00904548,190
0.412338,-0.107793,0.00982543,191
0.412316,-0.107786,0.0106021,198
0.412738,-0.107958,0.0113924,198
0.412184,-0.107736,0.0121524,195
0.412474,-0.107855,0.0129397,190
0.412586,-0.107902,0.0137217,192
0.414127,-0.108525,0.0145597,185
0.412947,-0.108051,0.0152929,189
0.413106,-0.108117,0.0160788,193
0.412687,-0.10795,0.0168395,192
0.413025,-0.108088,0.0176341,192
0.414617,-0.108731,0.0184914,195
0.413258,-0.108186,0.0192052,191
0.413331,-0.108217,0.0199893,189
0.413716,-0.108374,0.020791,189
0.414732,-0.108785,0.0216301,192
0.414851,-0.108835,0.0224207,190
0.41385,-0.108434,0.0231439,191
0.414463,-0.108683,0.0239645,188
0.414719,-0.108787,0.0247646,192
0.414436,-0.108676,0.0255299,193
0.414468,-0.10869,0.0263159,191
0.415086,-0.108941,0.0271436,196
0.416112,-0.109356,0.0280037,195
0.415649,-0.109172,0.0287567,190
0.415548,-0.109133,0.0295358,191
0.416624,-0.109568,0.0304075,186
0.415754,-0.10922,0.0311264,192
0.416605,-0.109565,0.0319845,194
0.416234,-0.109417,0.0327426,194
0.416679,-0.109598,0.0335703,190
0.417446,-0.109909,0.0344284,193
0.417438,-0.109908,0.0352196,195
0.417523,-0.109944,0.0360195,197
0.417654,-0.109998,0.0368243,198
0.417465,-0.109924,0.0375991,198
0.417734,-0.110035,0.0384184,199
0.417364,-0.109887,0.0391746,191
0.417725,-0.110035,0.0400048,194
0.417584,-0.10998,0.0407841,195
0.41749,-0.109944,0.041568,194
0.417533,-0.109963,0.0423667,194
0.417485,-0.109946,0.0431557,192
0.417757,-0.110057,0.043981,197
0.417985,-0.110151,0.0448025,195
0.417572,-0.109987,0.0455504,192
0.417892,-0.110118,0.046384,192
0.418443,-0.110341,0.047247,191
0.418765,-0.110473,0.0480845,190
0.418583,-0.110402,0.0488604,195
0.418263,-0.110275,0.0496185,191
0.418082,-0.110204,0.0503935,189
0.41905,-0.110596,0.0513186,187
0.419238,-0.110673,0.0521442,192
0.420074,-0.111012,0.0530583,191
0.418325,-0.110309,0.0536218,193
0.418422,-0.11035,0.0544353,194
0.418519,-0.110391,0.0552495,197
0.418432,-0.110359,0.0560383,194
0.418807,-0.110511,0.0568938,193
0.419321,-0.110721,0.0577718,192
0.418729,-0.110484,0.0584871,191
0.419521,-0.110805,0.0594098,195
0.419807,-0.110922,0.0602584,194
0.418339,-0.110332,0.0608361,193
0.418624,-0.110449,0.0616841,200
0.419882,-0.110958,0.0626885,198
0.418828,-0.110536,0.0633255,194
0.418608,-0.110449,0.0640948,192
0.419404,-0.110772,0.0650316,194
0.417711,-0.110091,0.0655551,196
0.417539,-0.110024,0.0663301,191
0.41659,-0.109644,0.0669715,196
0.416466,-0.109595,0.0677525,197
0.417439,-0.10999,0.0687261,188
0.417178,-0.109886,0.0694848,191
0.417375,-0.109968,0.0703252,193
0.417528,-0.110031,0.0711586,189
0.417451,-0.110002,0.071951,191
0.417191,-0.109899,0.0727095,191
0.417345,-0.109963,0.0735449,193
0.417728,-0.11012,0.0744252,194
0.416416,-0.109593,0.074982,193
0.417074,-0.10986,0.0759159,193
0.416954,-0.109814,0.0767006,192
0.417018,-0.109841,0.0775216,191
0.416396,-0.109593,0.078206,188
0.415821,-0.109363,0.0788979,196
0.415749,-0.109336,0.0796906,193
0.415769,-0.109346,0.0805023,195
0.415516,-0.109246,0.0812577,194
0.415217,-0.109127,0.0820031,195
0.415284,-0.109156,0.0828251,193
0.414941,-0.10902,0.0835603,192
0.4146,-0.108884,0.0842947,191
0.414939,-0.109023,0.0851771,189
0.414462,-0.108833,0.0858812,190
0.414894,-0.109009,0.086786,194
0.414917,-0.10902,0.0876015,192
0.413762,-0.108557,0.0881503,194
0.414874,-0.109007,0.0892136,197
0.41372,-0.108543,0.0897587,198
0.412977,-0.108246,0.0903956,191
0.413002,-0.108258,0.0912101,191
0.413027,-0.10827,0.0920255,192
0.413459,-0.108446,0.0929386,187
0.412899,-0.108222,0.0936148,190
0.412475,-0.108053,0.0943224,188
0.412232,-0.107957,0.0950731,188
0.412709,-0.108152,0.0960015,195
0.412692,-0.108147,0.096809,189
0.41263,-0.108124,0.0976058,192
0.412478,-0.108064,0.0983801,187
0.412282,-0.107987,0.099143,189
0.411996,-0.107874,0.0998825,183
0.410503,-0.107274,0.100308,183
0.410399,-0.107234,0.101091,186
0.410116,-0.107122,0.101827,183
0.410057,-0.1071,0.102623,185
0.410043,-0.107096,0.10343,184
0.410029,-0.107093,0.104238,181
0.409704,-0.106964,0.104962,176
0.409914,-0.10705,0.105832,177
0.409856,-0.107029,0.10663,178
0.409443,-0.106865,0.107328,172
0.40952,-0.106898,0.108163,172
0.409642,-0.106949,0.109012,166
0.40972,-0.106982,0.10985,165
0.409754,-0.106998,0.110675,168
0.409654,-0.10696,0.111463,166
0.40911,-0.106742,0.112121,164
0.409768,-0.10701,0.113131,161
0.409358,-0.106846,0.113828,157
0.40975,-0.107006,0.114763,154
0.410009,-0.107113,0.11566,161
0.410135,-0.107166,0.116519,157
0.409725,-0.107002,0.117216,162
0.409807,-0.107037,0.118063,157
0.410113,-0.107163,0.118979,155
0.410062,-0.107144,0.119787,153
0.410324,-0.107252,0.120693,152
0.410408,-0.107287,0.121544,158
0.410537,-0.107342,0.122411,156
0.410487,-0.107323,0.123222,155
0.411067,-0.107559,0.124236,159
0.411378,-0.107687,0.125166,150
0.411691,-0.107815,0.126098,154
0.411461,-0.107724,0.126855,151
0.411548,-0.107762,0.127717,155
0.411727,-0.107836,0.128609,152
0.412496,-0.108148,0.129699,150
0.412358,-0.108094,0.13049,150
0.412492,-0.108151,0.131372,153
0.412901,-0.108318,0.132349,151
0.412901,-0.108319,0.133188,150
0.412308,-0.108082,0.133824,147
0.412626,-0.108213,0.134774,149
0.413495,-0.108565,0.135918,144
0.413633,-0.108623,0.13681,142
0.413543,-0.108589,0.137623,133
0.413636,-0.108628,0.138501,136
0.413134,-0.108428,0.139168,130
0.414238,-0.108875,0.14041,125
0.415766,-0.109494,0.141811,119
0.414751,-0.109086,0.142295,114
0.416285,-0.109708,0.143707,108
0.416197,-0.109674,0.14453,107
0.416715,-0.109885,0.145577,109
0.415462,-0.109382,0.145969,107
0.415514,-0.109405,0.146844,112
0.415752,-0.109503,0.14779,118
0.41627,-0.109714,0.148845,117
0.417166,-0.110077,0.150045,116
0.417032,-0.110025,0.150857,117
0.416899,-0.109974,0.151668,115
0.417516,-0.110225,0.152771,110
0.417525,-0.110231,0.15364,111
0.418193,-0.110502,0.154768,124
0.418249,-0.110527,0.155659,125
0.418448,-0.110609,0.156607,128
0.418552,-0.110654,0.157519,125
0.418752,-0.110736,0.158471,118
0.41862,-0.110685,0.159291,119
0.419677,-0.111114,0.160592,116
0.419736,-0.11114,0.161493,111
0.420848,-0.111591,0.162826,113
0.420717,-0.11154,0.163652,108
0.421499,-0.111858,0.164857,103
0.422527,-0.112275,0.166169,103
0.422541,-0.112283,0.167062,109
0.423771,-0.112781,0.168466,104
0.423884,-0.112829,0.169405,102
0.423607,-0.112719,0.17018,107
0.423721,-0.112768,0.171121,96
0.424226,-0.112974,0.172232,102
0.425028,-0.113299,0.173474,109
0.424947,-0.113269,0.174337,109
0.426446,-0.113876,0.175889,105
0.426168,-0.113766,0.17667,103
0.427179,-0.114177,0.178019,99
0.4271,-0.114147,0.178891,106
0.428268,-0.11462,0.180317,108
0.428891,-0.114874,0.181507,106
0.429214,-0.115007,0.182565,109
0.428383,-0.114673,0.183104,111
0.42936,-0.11507,0.184461,105
0.429736,-0.115224,0.185549,109
0.42981,-0.115256,0.186502,101
0.43034,-0.115473,0.187665,109
0.430771,-0.115649,0.188786,102
0.430542,-0.115559,0.189603,106
0.43072,-0.115633,0.19061,106
0.430441,-0.115522,0.191405,102
0.431128,-0.115802,0.192654,100
0.431359,-0.115897,0.193692,105
0.431131,-0.115808,0.194513,107
0.431618,-0.116007,0.195676,111
0.431954,-0.116144,0.196769,122
0.431316,-0.115889,0.197395,109
0.430987,-0.115759,0.198168,109
0.431732,-0.116062,0.199465,104
0.424837,-0.108614,-0.207421,7
0.228926,-0.0317702,-0.107686,7
0.426642,-0.109326,-0.206493,12
2.03151,-0.738823,-1.02095,8
0.427156,-0.109532,-0.204903,11
1.09017,-0.369607,-0.537296,7
0.421694,-0.107395,-0.200339,11
0.425139,-0.108748,-0.201136,8
0.431737,-0.111338,-0.203474,10
0.423287,-0.108026,-0.198395,9
0.426856,-0.109428,-0.199229,12
0.421504,-0.107331,-0.195709,8
0.420402,-0.106901,-0.194271,8
0.421187,-0.107211,-0.193749,10
0.426547,-0.109316,-0.195417,12
0.424826,-0.108643,-0.193682,10
0.424296,-0.108437,-0.192522,14
0.422645,-0.107792,-0.190835,11
0.420334,-0.106887,-0.188846,15
0.419436,-0.106537,-0.18753,10
0.419978,-0.106752,-0.186889,15
0.4198,-0.106684,-0.185914,11
0.423492,-0.108135,-0.186727,16
0.418493,-0.106176,-0.18353,12
0.419033,-0.10639,-0.18289,17
0.421545,-0.107377,-0.183145,12
0.420501,-0.10697,-0.18178,16
0.420181,-0.106846,-0.180747,17
0.419766,-0.106686,-0.179673,20
0.419831,-0.106714,-0.178816,27
0.420951,-0.107155,-0.178428,19
0.42044,-0.106957,-0.177315,24
0.422384,-0.107722,-0.177285,21
0.423371,-0.108111,-0.176828,21
0.418966,-0.106385,-0.174021,20
0.42234,-0.107711,-0.174603,25
0.421154,-0.107248,-0.173206,18
0.420358,-0.106937,-0.171982,23
0.425364,-0.108904,-0.173237,22
0.421692,-0.107465,-0.170789,25
0.420226,-0.106892,-0.169289,22
0.422647,-0.107844,-0.169428,23
0.421367,-0.107344,-0.168012,25
0.422833,-0.107921,-0.167742,28
0.420165,-0.106877,-0.165759,25
0.419188,-0.106495,-0.164483,27
0.422124,-0.10765,-0.164813,22
0.420899,-0.107171,-0.163437,27
0.422649,-0.10786,-0.163272,24
0.421182,-0.107287,-0.161805,23
0.41949,-0.106625,-0.160256,25
0.421707,-0.107497,-0.16027,22
0.41765,-0.105907,-0.157792,25
0.416645,-0.105514,-0.156533,29
0.416716,-0.105544,-0.155701,32
0.415392,-0.105026,-0.154326,29
0.41644,-0.10544,-0.153877,32
0.413322,-0.104218,-0.151819,28
0.415841,-0.105209,-0.151934,24
0.411732,-0.103598,-0.149515,27
0.411714,-0.103593,-0.148664,26
0.411969,-0.103695,-0.147916,31
0.413046,-0.10412,-0.147475,40
0.412709,-0.10399,-0.146504,39
0.411691,-0.103592,-0.145283,44
0.412174,-0.103784,-0.14462,43
0.412613,-0.103958,-0.143939,44
0.411144,-0.103384,-0.142563,44
0.411944,-0.1037,-0.142014,41
0.411838,-0.10366,-0.141137,40
0.411959,-0.10371,-0.140343,44
0.411854,-0.10367,-0.139468,45
0.410936,-0.103312,-0.138307,44
0.412053,-0.103752,-0.137865,45
0.411631,-0.103589,-0.136882,48
0.411528,-0.10355,-0.136012,47
0.412375,-0.103885,-0.135471,43
0.411232,-0.103438,-0.134245,51
0.410949,-0.103329,-0.133317,51
0.411569,-0.103574,-0.132697,51
0.412825,-0.10407,-0.132288,49
0.412315,-0.103871,-0.131285,48
0.412848,-0.104083,-0.130631,49
0.412701,-0.104027,-0.129751,51
0.412101,-0.103794,-0.128724,55
0.412091,-0.103792,-0.127892,56
0.412534,-0.103968,-0.127207,53
0.41257,-0.103984,-0.126391,60
0.413014,-0.10416,-0.125705,58
0.412915,-0.104123,-0.124845,58
0.413178,-0.104229,-0.124101,63
0.413488,-0.104352,-0.123371,57
0.414026,-0.104566,-0.122711,62
0.413064,-0.10419,-0.121586,57
0.414102,-0.1046,-0.121079,62
0.413686,-0.104438,-0.120126,61
0.415047,-0.104975,-0.119712,61
0.414721,-0.104848,-0.118787,64
0.414213,-0.104651,-0.11781,59
0.413707,-0.104454,-0.116835,65
0.413611,-0.104419,-0.115984,64
0.413515,-0.104383,-0.115135,70
0.413556,-0.104401,-0.114325,63
0.413961,-0.104562,-0.113621,71
0.415142,-0.105028,-0.113137,74
0.415184,-0.105046,-0.112327,72
0.41509,-0.105011,-0.111478,75
0.415315,-0.105102,-0.110719,74
0.415908,-0.105337,-0.110062,70
0.41586,-0.10532,-0.109227,73
0.415949,-0.105357,-0.10843,73
0.415627,-0.105233,-0.107521,72
0.41613,-0.105432,-0.106837,68
0.416542,-0.105596,-0.106127,73
0.416818,-0.105706,-0.105379,73
0.416772,-0.10569,-0.104546,81
0.416313,-0.105512,-0.103606,82
0.417095,-0.105821,-0.10299,81
0.41659,-0.105625,-0.102041,84
0.417742,-0.106079,-0.101516,88
0.417099,-0.105829,-0.100534,89
0.417792,-0.106103,-0.0998896,86
0.417703,-0.10607,-0.0990484,89
0.41766,-0.106055,-0.0982196,92
0.418078,-0.106221,-0.0975042,94
0.418267,-0.106297,-0.0967319,96
0.418966,-0.106574,-0.0960819,102
0.418877,-0.106541,-0.0952421,101
0.419161,-0.106654,-0.0944908,100
0.419398,-0.10675,-0.0937282,103
0.419729,-0.106882,-0.0929868,100
0.419503,-0.106795,-0.0921164,96
0.419463,-0.106781,-0.0912899,101
0.419655,-0.106859,-0.0905166,108
0.419431,-0.106772,-0.0896496,108
0.419207,-0.106686,-0.0887841,110
0.419354,-0.106746,-0.0880016,105
0.419734,-0.106897,-0.0872696,106
0.41965,-0.106867,-0.0864365,106
0.419335,-0.106745,-0.0855548,110
0.419392,-0.106769,-0.0847535,108
0.419959,-0.106994,-0.0840594,105
0.419784,-0.106927,-0.0832094,105
0.419703,-0.106897,-0.0823798,114
0.419714,-0.106904,-0.08157,109
0.420145,-0.107075,-0.0808448,109
0.42039,-0.107173,-0.0800814,109
0.420263,-0.107125,-0.0792441,120
0.420603,-0.107261,-0.0784986,121
0.41978,-0.106939,-0.0775278,118
0.419795,-0.106947,-0.0767208,119
0.419717,-0.106918,-0.0758966,132
0.418946,-0.106617,-0.0749435,133
0.41887,-0.106589,-0.0741225,132
0.418564,-0.106471,-0.0732601,134
0.419042,-0.106661,-0.0725412,130
0.418368,-0.106398,-0.0716147,138
0.418248,-0.106353,-0.0707893,134
0.418128,-0.106308,-0.0699648,124
0.417689,-0.106137,-0.0690859,132
0.417387,-0.10602,-0.0682327,137
0.416905,-0.105832,-0.0673506,134
0.416879,-0.105824,-0.066547,134
0.416399,-0.105638,-0.0656689,133
0.416648,-0.105737,-0.0649118,136
0.416351,-0.105623,-0.0640663,139
0.415919,-0.105455,-0.0632009,141
0.414675,-0.104968,-0.0622105,145
0.415874,-0.105441,-0.0616031,144
0.415309,-0.105221,-0.060722,149
0.414656,-0.104966,-0.0598303,151
0.41468,-0.104977,-0.0590422,150
0.413986,-0.104706,-0.058149,151
0.41316,-0.104384,-0.0572399,152
0.412829,-0.104255,-0.0564049,149
0.413212,-0.104408,-0.055672,147
0.412882,-0.10428,-0.054839,144
0.411708,-0.103821,-0.0538924,142
0.411647,-0.103798,-0.0531006,141
0.411764,-0.103846,-0.0523328,140
0.410511,-0.103356,-0.0513862,146
0.410364,-0.1033,-0.0505869,146
0.410217,-0.103244,-0.0497885,149
0.410071,-0.103188,-0.0489911,154
0.410233,-0.103254,-0.0482323,165
0.41,-0.103164,-0.0474255,164
0.409462,-0.102954,-0.0465836,164
0.409449,-0.102951,-0.0458055,165
0.40935,-0.102914,-0.0450178,166
0.408292,-0.1025,-0.0441228,168
0.408673,-0.102652,-0.0433913,166
0.409405,-0.102941,-0.0426966,166
0.408696,-0.102665,-0.0418458,168
0.408687,-0.102663,-0.0410711,168
0.408547,-0.10261,-0.0402833,165
0.408669,-0.10266,-0.0395226,163
0.407879,-0.102351,-0.0386718,162
0.408088,-0.102435,-0.0379208,168
0.408559,-0.102622,-0.0371939,168
0.408335,-0.102536,-0.036401,170
0.407721,-0.102296,-0.035574,175
0.40854,-0.10262,-0.0348764,174
0.408753,-0.102705,-0.0341232,180
0.408487,-0.102603,-0.033329,179
0.408613,-0.102654,-0.0325683,177
0.408826,-0.10274,-0.0318144,175
0.408605,-0.102655,-0.0310257,174
0.408558,-0.102638,-0.0302513,171
0.407948,-0.1024,-0.0294353,171
0.408336,-0.102555,-0.0286943,173
0.409467,-0.103001,-0.0280044,172
0.408768,-0.102728,-0.0271846,179
0.408898,-0.102781,-0.0264229,180
0.408897,-0.102783,-0.0256524,178
0.409159,-0.102888,-0.0248985,178
0.408942,-0.102804,-0.0241147,175
0.409073,-0.102858,-0.0233523,180
0.409293,-0.102946,-0.0225944,177
0.409338,-0.102966,-0.0218263,177
0.409123,-0.102883,-0.0210444,176
0.409213,-0.10292,-0.020279,178
0.409085,-0.102872,-0.0195027,184
0.409351,-0.102978,-0.0187453,182
0.409137,-0.102896,-0.0179656,179
0.410805,-0.103554,-0.0172673,179
0.410327,-0.103368,-0.0164749,182
0.410552,-0.103458,-0.0157118,183
0.41069,-0.103514,-0.0149447,183
0.410872,-0.103588,-0.0141786,188
0.409783,-0.103161,-0.0133702,189
0.409616,-0.103097,-0.0125946,183
0.410456,-0.10343,-0.0118487,186
0.409982,-0.103245,-0.0110643,183
0.410166,-0.103319,-0.0102982,182
0.410966,-0.103636,-0.00954552,191
0.410888,-0.103607,-0.00877135,190
0.410503,-0.103457,-0.00799171,183
0.409594,-0.103102,-0.00720477,178
0.410349,-0.103401,-0.00644635,187
0.410976,-0.103649,-0.00568329,187
0.410768,-0.103569,-0.0049086,184
0.410781,-0.103576,-0.00413673,181
0.410882,-0.103618,-0.00336545,182
0.410808,-0.103591,-0.00259289,184
0.411086,-0.103702,-0.0018217,184
0.410925,-0.10364,-0.00104895,186
0.41116,-0.103735,-0.000276458,187
0.411176,-0.103743,0.000496334,183
0.411544,-0.10389,0.00127093,186
0.411208,-0.103759,0.00204216,189
0.41171,-0.103959,0.00281951,186
0.412347,-0.104211,0.00360034,192
0.412986,-0.104465,0.00438377,188
0.412739,-0.104369,0.00515662,191
0.412049,-0.1041,0.0059211,193
0.413177,-0.104546,0.00671706,195
0.412044,-0.104101,0.00747055,192
0.412774,-0.10439,0.00826201,188
0.412396,-0.104244,0.009029,188
0.413039,-0.104498,0.00982186,187
0.413818,-0.104807,0.0106213,191
0.413217,-0.104572,0.0113814,189
0.413329,-0.104618,0.0121626,191
0.414335,-0.105016,0.0129753,186
0.414673,-0.105151,0.0137676,190
0.413669,-0.104758,0.0145095,189
0.413738,-0.104787,0.0152911,187
0.413675,-0.104764,0.0160674,190
0.413924,-0.104864,0.0168575,188
0.415792,-0.105601,0.0177241,192
0.415368,-0.105436,0.018487,190
0.415171,-0.105361,0.0192597,194
0.414975,-0.105285,0.0200318,196
0.414644,-0.105157,0.0207959,190
0.415663,-0.10556,0.0216352,194
0.415919,-0.105662,0.022434,191
0.415949,-0.105676,0.0232203,193
0.415664,-0.105566,0.0239871,193
0.416193,-0.105776,0.0248054,195
0.416406,-0.105862,0.025605,192
0.416121,-0.105752,0.0263716,194
0.417288,-0.106213,0.0272395,192
0.416414,-0.105871,0.0279642,190
0.416403,-0.105868,0.02875,191
0.416302,-0.10583,0.0295289,190
0.416972,-0.106096,0.0303682,193
0.41833,-0.106632,0.0312658,194
0.418321,-0.106631,0.0320561,192
0.418358,-0.106647,0.0328505,197
0.418075,-0.106538,0.0336176,197
0.418616,-0.106753,0.0344568,198
0.41838,-0.106662,0.0352279,199
0.418419,-0.106679,0.0360237,200
0.418596,-0.106751,0.036833,195
0.418636,-0.106768,0.03763,200
0.41854,-0.106732,0.0384139,199
0.418535,-0.106732,0.0392069,200
0.418256,-0.106624,0.039972,195
0.418023,-0.106535,0.040741,197
0.418524,-0.106734,0.0415875,194
0.418567,-0.106753,0.0423866,196
0.418473,-0.106718,0.0431709,193
0.418196,-0.106611,0.0439346,187
0.418195,-0.106612,0.044729,192
0.418377,-0.106686,0.0455451,192
0.418285,-0.106651,0.0463296,193
0.418286,-0.106653,0.0471251,194
0.418516,-0.106746,0.0479491,193
0.419945,-0.107311,0.0489237,191
0.41907,-0.106968,0.0496127,190
0.418934,-0.106917,0.0503935,188
0.418937,-0.10692,0.0511921,188
0.419124,-0.106995,0.0520156,186
0.419497,-0.107144,0.052865,190
0.419178,-0.10702,0.0536218,189
0.419137,-0.107006,0.0544161,190
0.418774,-0.106865,0.0551653,190
0.418596,-0.106797,0.0559397,190
0.41874,-0.106855,0.0567604,194
0.418746,-0.10686,0.0575618,194
0.418984,-0.106955,0.0583979,196
0.418761,-0.10687,0.059166,192
0.418309,-0.106694,0.0598985,196
0.418547,-0.106789,0.0607363,195
0.418464,-0.106759,0.0615251,190
0.418428,-0.106746,0.0623213,202
0.417795,-0.106499,0.0630218,191
0.418264,-0.106686,0.0638996,193
0.418643,-0.106837,0.0647647,193
0.418194,-0.106662,0.0654937,195
0.41839,-0.106741,0.0663301,199
0.416844,-0.106134,0.0668699,197
0.418461,-0.106773,0.067951,197
0.418244,-0.10669,0.068718,193
0.417799,-0.106516,0.0694441,194
0.416805,-0.106127,0.0700707,197
0.416546,-0.106026,0.0708266,194
0.416652,-0.10607,0.0716488,194
0.416667,-0.106078,0.072455,196
0.416272,-0.105924,0.0731849,191
0.416333,-0.10595,0.074,192
0.416122,-0.105869,0.0747636,189
0.416002,-0.105824,0.0755444,190
0.416156,-0.105886,0.0763787,193
0.415946,-0.105806,0.0771422,189
0.415782,-0.105743,0.0779145,194
0.415983,-0.105824,0.07876,190
0.41541,-0.1056,0.0794494,194
0.415429,-0.10561,0.0802587,197
0.415404,-0.105602,0.0810591,195
0.415652,-0.105701,0.0819171,194
0.415217,-0.105532,0.0826324,195
0.415284,-0.10556,0.0834533,195
0.414217,-0.105142,0.0840305,200
0.414058,-0.105081,0.0848014,190
0.41408,-0.105092,0.085612,190
0.414465,-0.105246,0.0865037,191
0.413538,-0.104883,0.0871038,190
0.413381,-0.104823,0.0878745,196
0.413585,-0.104905,0.0887273,190
0.413835,-0.105005,0.0895921,191
0.413814,-0.104999,0.0903956,190
0.413568,-0.104904,0.0911467,190
0.413594,-0.104916,0.0919614,189
0.412763,-0.104591,0.0925727,186
0.412879,-0.104638,0.0934087,185
0.412725,-0.10458,0.0941804,189
0.412168,-0.104362,0.0948531,186
0.412689,-0.104569,0.0957902,184
0.411684,-0.104175,0.0963504,185
0.411085,-0.103941,0.0970089,187
0.410979,-0.103901,0.0977899,190
0.411186,-0.103985,0.0986508,189
0.411036,-0.103928,0.0994214,185
0.410841,-0.103853,0.10018,179
0.410603,-0.103761,0.100928,184
0.410766,-0.103827,0.10178,180
0.410306,-0.103648,0.102469,179
0.410559,-0.10375,0.103347,177
0.4105,-0.103728,0.104142,179
0.410799,-0.103848,0.105035,176
0.410429,-0.103704,0.105746,164
0.410461,-0.103719,0.106568,168
0.410404,-0.103698,0.107365,169
0.410347,-0.103678,0.108163,169
0.410738,-0.103834,0.109088,168
0.410593,-0.103779,0.109862,167
0.410671,-0.103812,0.110701,162
0.410795,-0.103862,0.111553,161
0.410516,-0.103755,0.11229,163
0.410462,-0.103735,0.113092,157
0.411125,-0.103998,0.114105,158
0.411926,-0.104316,0.115163,158
0.410973,-0.103942,0.1157,157
0.411144,-0.104012,0.116573,163
0.411541,-0.10417,0.117515,161
0.411129,-0.10401,0.118213,151
0.411212,-0.104045,0.119062,151
0.41143,-0.104133,0.119954,148
0.410884,-0.103919,0.120609,146
0.411779,-0.104274,0.121714,147
0.411999,-0.104363,0.122611,145
0.411859,-0.10431,0.123394,145
0.412035,-0.104381,0.124279,157
0.412665,-0.104632,0.125312,150
0.412843,-0.104704,0.126201,160
0.412476,-0.104561,0.126915,154
0.413064,-0.104795,0.12794,150
0.4137,-0.105048,0.128985,154
0.413469,-0.104959,0.129745,156
0.413468,-0.10496,0.130581,148
0.412964,-0.104764,0.131249,142
0.413465,-0.104963,0.132256,140
0.414472,-0.105362,0.133438,147
0.414151,-0.105238,0.13417,143
0.41484,-0.105512,0.13525,151
0.414565,-0.105405,0.135998,147
0.41475,-0.10548,0.136907,148
0.414982,-0.105573,0.137833,141
0.41526,-0.105685,0.138778,141
0.415447,-0.105761,0.139693,133
0.416099,-0.10602,0.140775,125
0.416056,-0.106005,0.14161,116
0.415966,-0.105972,0.142429,113
0.416808,-0.106306,0.143588,114
0.416765,-0.106291,0.144427,114
0.41677,-0.106295,0.145284,110
0.417804,-0.106705,0.146524,111
0.417482,-0.10658,0.147263,114
0.41716,-0.106455,0.148001,121
0.418152,-0.106848,0.149234,121
0.41797,-0.106779,0.150028,124
0.41826,-0.106895,0.151001,120
0.418975,-0.107179,0.152139,121
0.418841,-0.107129,0.152954,114
0.419513,-0.107396,0.154081,121
0.419759,-0.107495,0.155046,120
0.420149,-0.107651,0.156069,129
0.421115,-0.108034,0.157322,123
0.420647,-0.107851,0.158011,120
0.421712,-0.108274,0.159311,116
0.421147,-0.108053,0.159962,117
0.421207,-0.108079,0.160863,118
0.421747,-0.108294,0.16196,119
0.422049,-0.108415,0.162963,117
0.421917,-0.108365,0.163791,112
0.422703,-0.108677,0.164997,105
0.423201,-0.108876,0.166088,108
0.424189,-0.109268,0.167386,108
0.424399,-0.109353,0.168364,112
0.424904,-0.109554,0.169467,113
0.425706,-0.109873,0.1707,111
0.426166,-0.110056,0.171791,110
0.426578,-0.110221,0.172864,106
0.426943,-0.110367,0.17392,104
0.42701,-0.110396,0.17485,107
0.427029,-0.110406,0.17576,112
0.427147,-0.110455,0.176714,118
0.428663,-0.111055,0.178283,121
0.429838,-0.11152,0.179709,114
0.429607,-0.111432,0.180518,110
0.429931,-0.111562,0.181574,115
0.430711,-0.111872,0.182837,113
0.430076,-0.111623,0.183467,106
0.43025,-0.111694,0.184461,105
0.430021,-0.111606,0.185273,108
0.430297,-0.111717,0.186317,110
0.429815,-0.111529,0.187014,108
0.431208,-0.112081,0.188575,106
0.431386,-0.112153,0.18958,112
0.431513,-0.112206,0.190563,109
0.431284,-0.112118,0.191381,115
0.430852,-0.11195,0.192103,106
0.430776,-0.111922,0.192993,112
0.430295,-0.111734,0.19369,107
0.431135,-0.112068,0.195017,113
0.430552,-0.11184,0.195666,128
0.431037,-0.112034,0.196828,107
0.430913,-0.111987,0.197699,109
0.431298,-0.112141,0.198817,100
0.424636,-0.104875,-0.206891,8
0.379368,-0.0875304,-0.183031,8
0.431434,-0.107485,-0.208487,8
0.422106,-0.103912,-0.202862,10
0.108873,0.016136,-0.0505795,8
0.424429,-0.104807,-0.202198,13
0.424044,-0.104661,-0.201093,8
0.42494,-0.105007,-0.200623,9
0.425791,-0.105335,-0.200127,11
0.418739,-0.102635,-0.195762,8
0.422469,-0.104067,-0.19668,11
0.421023,-0.103515,-0.195074,11
0.421326,-0.103633,-0.194318,12
0.422649,-0.104142,-0.194052,12
0.422905,-0.104242,-0.193271,14
0.424778,-0.104963,-0.19326,11
0.420892,-0.103476,-0.190513,16
0.424262,-0.104769,-0.191205,15
0.424324,-0.104795,-0.19033,14
0.424337,-0.104802,-0.189434,14
0.422593,-0.104136,-0.187721,15
0.421638,-0.103772,-0.186382,12
0.420977,-0.103521,-0.185184,12
0.422248,-0.10401,-0.184874,13
0.422554,-0.10413,-0.18412,11
0.419823,-0.103085,-0.181988,18
0.421521,-0.103738,-0.181867,22
0.422406,-0.10408,-0.181376,13
0.422713,-0.104199,-0.180622,22
0.421233,-0.103634,-0.179072,15
0.423718,-0.104589,-0.179286,21
0.422812,-0.104244,-0.177996,20
0.421862,-0.103882,-0.176691,19
0.424012,-0.104708,-0.176743,22
0.423641,-0.104568,-0.175693,25
0.421724,-0.103835,-0.173977,24
0.423143,-0.104381,-0.173704,21
0.423307,-0.104446,-0.172889,20
0.421636,-0.103808,-0.171294,23
0.422668,-0.104206,-0.17085,24
0.424775,-0.105016,-0.170855,29
0.423191,-0.10441,-0.169307,22
0.421333,-0.1037,-0.167651,24
0.423716,-0.104616,-0.167762,22
0.420992,-0.103574,-0.165759,24
0.420631,-0.103437,-0.164737,28
0.421562,-0.103796,-0.164244,23
0.421009,-0.103587,-0.163146,28
0.420507,-0.103396,-0.162071,29
0.420292,-0.103316,-0.161115,24
0.418846,-0.102763,-0.159669,28
0.419153,-0.102883,-0.158926,24
0.417576,-0.102281,-0.157439,25
0.416526,-0.10188,-0.156166,31
0.415343,-0.101428,-0.154846,31
0.41737,-0.102208,-0.154779,29
0.415024,-0.10131,-0.153015,28
0.413119,-0.100582,-0.151432,28
0.411778,-0.100069,-0.150072,34
0.414044,-0.10094,-0.150089,31
0.412424,-0.100321,-0.148629,32
0.412224,-0.100247,-0.14771,36
0.413164,-0.100609,-0.147219,40
0.411283,-0.0998897,-0.145677,37
0.412902,-0.100513,-0.145434,40
0.411205,-0.099864,-0.14397,40
0.413051,-0.100574,-0.143806,47
0.412216,-0.100256,-0.142662,45
0.412064,-0.1002,-0.141769,44
0.411823,-0.100109,-0.140845,44
0.412035,-0.100192,-0.140084,49
0.411884,-0.100137,-0.139195,49
0.412369,-0.100325,-0.13853,48
0.411811,-0.100113,-0.1375,48
0.411391,-0.0999536,-0.13652,45
0.41183,-0.100124,-0.13584,48
0.412225,-0.100277,-0.135143,49
0.411941,-0.10017,-0.134214,49
0.412291,-0.100307,-0.133501,54
0.411736,-0.100096,-0.132483,52
0.414132,-0.101017,-0.132456,48
0.413801,-0.100892,-0.131512,49
0.412653,-0.100454,-0.1303,56
0.412642,-0.100451,-0.129467,56
0.412451,-0.10038,-0.128576,54
0.412215,-0.100292,-0.127672,47
0.414569,-0.101197,-0.127604,49
0.413283,-0.100705,-0.126361,49
0.413592,-0.100826,-0.125632,55
0.413175,-0.100668,-0.124673,53
0.413166,-0.100667,-0.123844,57
0.415209,-0.101452,-0.123656,53
0.413196,-0.100682,-0.122203,61
0.414325,-0.101117,-0.121726,60
0.414044,-0.101011,-0.120815,63
0.41381,-0.100924,-0.119919,60
0.415446,-0.101553,-0.119588,59
0.4148,-0.101307,-0.118568,64
0.414611,-0.101237,-0.117687,65
0.415519,-0.101587,-0.117132,65
0.413963,-0.100992,-0.115851,65
0.414687,-0.101272,-0.115241,63
0.415825,-0.101711,-0.114748,67
0.415775,-0.101693,-0.113909,68
0.415771,-0.101694,-0.113085,65
0.415722,-0.101677,-0.112249,70
0.416222,-0.101871,-0.111568,74
0.416449,-0.10196,-0.110809,74
0.415942,-0.101767,-0.109846,72
0.416628,-0.102033,-0.109214,74
0.415893,-0.101752,-0.108192,73
0.417177,-0.102247,-0.10772,72
0.417498,-0.102373,-0.106985,71
0.417129,-0.102233,-0.106065,72
0.417312,-0.102305,-0.105294,77
0.417036,-0.102201,-0.104401,79
0.417728,-0.102469,-0.103762,78
0.417867,-0.102524,-0.102978,84
0.418191,-0.102651,-0.102242,90
0.417639,-0.10244,-0.101282,88
0.418102,-0.10262,-0.10058,82
0.418335,-0.102712,-0.0998203,86
0.418246,-0.102679,-0.0989797,87
0.419407,-0.103127,-0.0984472,89
0.419503,-0.103166,-0.0976511,94
0.41946,-0.103151,-0.0968216,91
0.419464,-0.103155,-0.096004,95
0.419841,-0.103301,-0.0952752,95
0.419799,-0.103288,-0.094447,100
0.419758,-0.103274,-0.0936196,104
0.419764,-0.103278,-0.0928037,103
0.420468,-0.10355,-0.0921485,106
0.420568,-0.103591,-0.0913535,109
0.420622,-0.103613,-0.0905481,105
0.420909,-0.103725,-0.0897952,107
0.420311,-0.103498,-0.0888458,106
0.420878,-0.103718,-0.0881547,104
0.420701,-0.103651,-0.0872999,107
0.420896,-0.103728,-0.0865267,110
0.421326,-0.103895,-0.085803,111
0.421711,-0.104045,-0.0850684,115
0.421674,-0.104033,-0.0842448,111
0.421591,-0.104003,-0.0834122,103
0.420995,-0.103776,-0.0824753,107
0.421427,-0.103944,-0.0817497,108
0.421299,-0.103897,-0.0809103,114
0.421639,-0.104029,-0.0801649,117
0.421419,-0.103947,-0.0793083,116
0.421526,-0.10399,-0.0785168,123
0.421353,-0.103925,-0.0776714,120
0.420855,-0.103736,-0.0767651,120
0.420776,-0.103708,-0.0759404,121
0.420838,-0.103734,-0.0751426,132
0.420297,-0.103528,-0.0742336,126
0.420592,-0.103643,-0.0734799,132
0.419867,-0.103366,-0.0725412,136
0.41993,-0.103393,-0.0717466,134
0.419163,-0.1031,-0.0708055,135
0.419135,-0.103091,-0.069997,133
0.418877,-0.102994,-0.0691493,131
0.419081,-0.103074,-0.0683815,135
0.41887,-0.102995,-0.0675437,128
0.418523,-0.102864,-0.0666842,139
0.418268,-0.102768,-0.0658418,134
0.417877,-0.10262,-0.0649786,137
0.417807,-0.102595,-0.0641688,141
0.417463,-0.102465,-0.0633163,140
0.41662,-0.102143,-0.0623876,139
0.417372,-0.102434,-0.0617085,138
0.416894,-0.102252,-0.0608396,140
0.416918,-0.102263,-0.0600483,148
0.415537,-0.101735,-0.0590489,150
0.415111,-0.101573,-0.0581951,150
0.414551,-0.10136,-0.057324,145
0.414802,-0.101458,-0.0565707,153
0.414289,-0.101263,-0.0557097,151
0.41436,-0.101292,-0.0549318,152
0.413849,-0.101098,-0.0540747,147
0.412494,-0.100579,-0.0531066,146
0.412167,-0.100455,-0.05228,137
0.412018,-0.1004,-0.0514783,143
0.411914,-0.100362,-0.0506832,144
0.412165,-0.10046,-0.0499335,151
0.411575,-0.100236,-0.0490788,157
0.41112,-0.100063,-0.048243,160
0.41093,-0.0999916,-0.0474414,162
0.410521,-0.0998364,-0.0466148,162
0.410685,-0.0999011,-0.0458566,167
0.410365,-0.0997802,-0.0450428,164
0.410222,-0.0997271,-0.0442504,163
0.410255,-0.0997416,-0.0434781,165
0.409938,-0.0996216,-0.0426681,165
0.409315,-0.0993844,-0.0418273,167
0.409088,-0.0992988,-0.0410302,168
0.409166,-0.0993308,-0.0402655,173
0.409769,-0.0995643,-0.0395533,171
0.409193,-0.0993449,-0.0387231,169
0.409578,-0.0994947,-0.037988,170
0.409135,-0.0993262,-0.0371734,167
0.409739,-0.0995603,-0.0364574,168
0.409689,-0.0995429,-0.0356802,168
0.409029,-0.099291,-0.0348495,170
0.409896,-0.0996263,-0.0341534,174
0.409673,-0.0995423,-0.0333621,172
0.409537,-0.0994921,-0.0325791,172
0.409402,-0.0994421,-0.0317969,173
0.409923,-0.099644,-0.0310667,175
0.409614,-0.0995271,-0.0302713,173
0.409611,-0.0995279,-0.0295001,174
0.409696,-0.0995625,-0.0287354,172
0.409826,-0.0996141,-0.0279736,180
0.409475,-0.0994812,-0.0271786,178
0.410744,-0.0999706,-0.0264927,176
0.410787,-0.0999892,-0.025723,173
0.411579,-0.100295,-0.025,175
0.411404,-0.10023,-0.0242155,175
0.40965,-0.0995578,-0.0233395,176
0.409739,-0.0995938,-0.0225747,179
0.41088,-0.100034,-0.021867,177
0.409874,-0.0996496,-0.0210421,177
0.410315,-0.0998207,-0.0202945,177
0.410888,-0.100043,-0.0195516,178
0.410497,-0.0998946,-0.0187617,184
0.410458,-0.0998812,-0.017989,178
0.410112,-0.0997503,-0.0172036,185
0.41117,-0.100159,-0.0164767,180
0.409555,-0.0995399,-0.0156423,190
0.411711,-0.10037,-0.0149528,191
0.409786,-0.0996324,-0.0141131,193
0.409881,-0.0996706,-0.0133473,200
0.410413,-0.0998771,-0.0125946,192
0.411167,-0.100169,-0.0118462,189
0.411748,-0.100394,-0.0110903,190
0.411713,-0.100382,-0.0103168,192
0.411723,-0.100388,-0.00954452,186
0.411821,-0.100428,-0.00877411,183
0.412008,-0.100501,-0.00800502,183
0.411666,-0.100372,-0.0072263,181
0.411942,-0.10048,-0.00645818,187
0.411733,-0.100401,-0.00568272,187
0.411261,-0.100222,-0.00490522,187
0.411847,-0.100449,-0.00413911,188
0.412037,-0.100524,-0.00336792,186
0.411521,-0.100327,-0.00259245,184
0.4118,-0.100436,-0.00182144,185
0.411682,-0.100393,-0.0010489,187
0.411874,-0.100468,-0.00027654,187
0.412641,-0.100765,0.00049826,188
0.413813,-0.101218,0.00127809,188
0.41294,-0.100884,0.00204854,189
0.413758,-0.1012,0.00283051,191
0.412886,-0.100867,0.00359746,188
0.413705,-0.101184,0.00438263,186
0.413858,-0.101244,0.00516123,188
0.413966,-0.101288,0.00593974,190
0.413229,-0.101006,0.00670287,189
0.41414,-0.101358,0.0074973,194
0.413982,-0.1013,0.00827112,191
0.414271,-0.101413,0.0090554,192
0.413802,-0.101234,0.00982067,191
0.414047,-0.10133,0.0106046,186
0.414025,-0.101324,0.0113814,188
0.414272,-0.10142,0.012167,192
0.414251,-0.101414,0.0129443,191
0.41423,-0.101408,0.0137217,185
0.415016,-0.101712,0.0145302,188
0.415806,-0.102018,0.015342,189
0.415337,-0.101839,0.0161036,183
0.415678,-0.101973,0.0168995,183
0.415525,-0.101916,0.0176738,191
0.416862,-0.102432,0.0185199,193
0.416076,-0.102131,0.0192642,192
0.416466,-0.102283,0.0200673,192
0.416495,-0.102296,0.0208524,192
0.41657,-0.102327,0.0216403,189
0.416872,-0.102445,0.0224419,196
0.416857,-0.102441,0.0232257,192
0.416979,-0.10249,0.0240182,190
0.417237,-0.102591,0.02482,191
0.417088,-0.102536,0.025596,194
0.417302,-0.10262,0.0263964,193
0.417791,-0.10281,0.0272171,191
0.418463,-0.10307,0.0280532,196
0.41754,-0.102717,0.0287736,189
0.418213,-0.102978,0.0296123,196
0.419164,-0.103345,0.0304756,192
0.418971,-0.103273,0.031251,194
0.418916,-0.103254,0.0320372,192
0.419136,-0.10334,0.0328467,196
0.417938,-0.102882,0.0335348,194
0.41857,-0.103127,0.0343799,197
0.418884,-0.103249,0.0351989,196
0.419152,-0.103354,0.0360153,199
0.419422,-0.10346,0.036833,198
0.419324,-0.103424,0.0376167,193
0.419549,-0.103513,0.0384319,195
0.419084,-0.103336,0.0391792,199
0.418988,-0.103301,0.0399626,192
0.419306,-0.103425,0.0407889,195
0.419441,-0.103479,0.0415972,193
0.419208,-0.103391,0.0423667,198
0.41939,-0.103463,0.0431811,198
0.418791,-0.103234,0.0439089,192
0.419341,-0.103448,0.0447657,196
0.41911,-0.103361,0.0455344,196
0.419202,-0.103398,0.0463405,197
0.419202,-0.1034,0.0471362,191
0.419157,-0.103385,0.0479266,192
0.41948,-0.103511,0.048763,193
0.419574,-0.103549,0.049572,189
0.419392,-0.103481,0.0503462,193
0.419119,-0.103378,0.0511082,193
0.419306,-0.103452,0.0519302,194
0.419448,-0.103508,0.0527472,194
0.418624,-0.103193,0.0534336,193
0.419365,-0.10348,0.0543332,193
0.419324,-0.103466,0.0551265,197
0.419421,-0.103506,0.0559397,197
0.418967,-0.103333,0.056674,197
0.419342,-0.103479,0.0575281,195
0.419487,-0.103537,0.05835,194
0.419541,-0.10356,0.059159,196
0.419042,-0.10337,0.0598844,198
0.419004,-0.103357,0.0606794,195
0.419013,-0.103362,0.0614819,191
0.418747,-0.103262,0.0622411,192
0.417976,-0.102967,0.0629188,193
0.417482,-0.102779,0.0636387,201
0.417722,-0.102873,0.0644775,198
0.419573,-0.103588,0.0655859,196
0.418847,-0.10331,0.066268,197
0.419089,-0.103405,0.0671127,196
0.417723,-0.102881,0.0676813,191
0.417507,-0.1028,0.0684455,193
0.417475,-0.10279,0.0692416,192
0.417305,-0.102726,0.0700135,190
0.417228,-0.102699,0.0708018,190
0.416877,-0.102566,0.0715403,195
0.417121,-0.102661,0.0723874,197
0.416999,-0.102616,0.0731678,191
0.416787,-0.102537,0.073931,192
0.416803,-0.102545,0.0747374,193
0.416455,-0.102413,0.0754741,193
0.416609,-0.102474,0.0763075,192
0.416536,-0.102448,0.0770973,190
0.416554,-0.102457,0.0779054,195
0.416299,-0.10236,0.0786592,198
0.416409,-0.102405,0.0794864,195
0.415518,-0.102064,0.0801095,193
0.416723,-0.102529,0.081163,199
0.416789,-0.102557,0.081984,195
0.414626,-0.101726,0.0823354,190
0.41569,-0.102138,0.083366,196
0.414985,-0.101868,0.0840207,192
0.415234,-0.101966,0.0848802,191
0.414983,-0.101872,0.0856319,186
0.414327,-0.101621,0.0862931,191
0.413988,-0.101492,0.0870231,187
0.413876,-0.101451,0.0878032,188
0.413899,-0.101462,0.0886143,194
0.414059,-0.101525,0.0894571,189
0.413677,-0.10138,0.0901758,184
0.413566,-0.10134,0.0909567,186
0.413411,-0.101282,0.0917272,187
0.413617,-0.101363,0.0925835,185
0.413778,-0.101427,0.0934304,191
0.41385,-0.101457,0.0942568,192
0.411987,-0.100741,0.0946124,186
0.412148,-0.100805,0.0954585,179
0.412265,-0.100852,0.0962947,184
0.412247,-0.100848,0.0970985,184
0.411693,-0.100636,0.0977673,187
0.411676,-0.100631,0.0985711,184
0.411884,-0.100713,0.0994328,185
0.411555,-0.100589,0.100157,180
0.41145,-0.10055,0.100939,183
0.41139,-0.100529,0.101733,183
0.41142,-0.100543,0.102552,180
0.411361,-0.100522,0.103347,175
0.411571,-0.100605,0.104214,176
0.411737,-0.100671,0.105071,177
0.411186,-0.10046,0.105734,172
0.411577,-0.100613,0.106654,172
0.411744,-0.100679,0.107514,173
0.411552,-0.100607,0.108276,167
0.411182,-0.100467,0.108987,165
0.411754,-0.100689,0.109964,165
0.411833,-0.100721,0.110803,165
0.411643,-0.10065,0.111566,165
0.411139,-0.100458,0.112238,158
0.411803,-0.100716,0.113249,158
0.411569,-0.100628,0.113999,158
0.41165,-0.100661,0.114843,153
0.412137,-0.10085,0.115808,158
0.412038,-0.100814,0.1166,154
0.413888,-0.101529,0.117981,157
0.41243,-0.100969,0.118364,155
0.412468,-0.100986,0.1192,151
0.413186,-0.101264,0.120247,148
0.413589,-0.101422,0.121199,151
0.413129,-0.101246,0.121884,153
0.412942,-0.101176,0.122654,156
0.413574,-0.101422,0.123682,152
0.413069,-0.101229,0.124352,156
0.41393,-0.101563,0.125458,154
0.413561,-0.101423,0.126172,157
0.41406,-0.101617,0.127167,151
0.414194,-0.101671,0.128045,155
0.414558,-0.101813,0.129,153
0.414877,-0.101938,0.129943,150
0.414967,-0.101975,0.130811,142
0.415196,-0.102065,0.131727,140
0.415103,-0.102031,0.132535,140
0.415887,-0.102335,0.133642,135
0.415563,-0.102212,0.134375,140
0.416536,-0.102589,0.135552,140
0.415934,-0.102359,0.13619,137
0.416167,-0.102451,0.137116,136
0.416168,-0.102454,0.137963,133
0.416542,-0.102599,0.138942,133
0.416776,-0.102692,0.139874,131
0.417385,-0.102929,0.140941,132
0.417295,-0.102896,0.141761,122
0.417672,-0.103043,0.14275,112
0.417349,-0.102921,0.143486,110
0.418243,-0.103268,0.144667,107
0.419237,-0.103652,0.145889,115
0.418771,-0.103475,0.146576,118
0.419485,-0.103752,0.147701,117
0.419491,-0.103757,0.148565,111
0.419734,-0.103852,0.149519,113
0.419221,-0.103657,0.150188,120
0.419796,-0.10388,0.151271,112
0.420184,-0.104032,0.152285,123
0.420621,-0.104202,0.15332,119
0.421011,-0.104355,0.154339,119
0.422074,-0.104767,0.155624,123
0.422228,-0.104828,0.156557,117
0.422286,-0.104853,0.157455,120
0.422153,-0.104803,0.158277,116
0.422597,-0.104977,0.15933,121
0.422609,-0.104983,0.160212,123
0.423249,-0.105232,0.161348,115
0.422971,-0.105127,0.162117,111
0.42444,-0.105696,0.163595,110
0.424649,-0.105778,0.164565,112
0.425641,-0.106163,0.16586,106
0.425754,-0.106208,0.166795,109
0.425622,-0.10616,0.167631,109
0.427363,-0.106833,0.169249,114
0.427528,-0.106899,0.170214,107
0.427942,-0.10706,0.171285,104
0.427512,-0.106897,0.172001,105
0.427183,-0.106772,0.172759,111
0.428643,-0.107337,0.174283,105
0.428662,-0.107346,0.175194,104
0.429682,-0.107742,0.176539,109
0.429351,-0.107617,0.177301,113
0.429371,-0.107626,0.178217,111
0.430398,-0.108024,0.179576,113
0.430419,-0.108035,0.180496,116
0.430037,-0.10789,0.181238,115
0.430361,-0.108017,0.182294,112
0.430535,-0.108086,0.183285,109
0.430507,-0.108078,0.184187,110
0.429773,-0.107797,0.18477,112
0.431466,-0.108452,0.186455,112
0.431999,-0.10866,0.187619,117
0.431311,-0.108397,0.188224,113
0.431336,-0.108408,0.189156,120
0.431412,-0.10844,0.190113,121
0.431743,-0.10857,0.19119,118
0.430751,-0.10819,0.19165,117
0.430675,-0.108163,0.192537,116
0.431771,-0.108587,0.19398,102
0.430576,-0.108129,0.194339,106
0.43045,-0.108082,0.195204,119
0.431444,-0.108468,0.196608,108
0.430403,-0.108069,0.197035,111
0.430431,-0.108082,0.197976,113
0.42744,-0.102283,-0.207904,9
0.424761,-0.101282,-0.205624,7
0.425511,-0.101565,-0.205085,9
0.424678,-0.101256,-0.203749,8
0.42953,-0.103074,-0.205256,8
0.426877,-0.102083,-0.203012,11
0.426189,-0.101828,-0.201754,10
0.434664,-0.105002,-0.205012,9
0.422422,-0.100422,-0.198077,13
0.427162,-0.102199,-0.199484,10
0.426823,-0.102074,-0.198404,10
0.42989,-0.103224,-0.198973,8
0.424128,-0.10107,-0.195281,12
0.423454,-0.10082,-0.194052,10
0.426568,-0.101987,-0.194633,10
0.419944,-0.0995102,-0.190581,11
0.426343,-0.101907,-0.192709,13
0.427397,-0.102304,-0.192298,13
0.423029,-0.100672,-0.189346,12
0.426627,-0.102021,-0.190123,12
0.426393,-0.101935,-0.189109,15
0.422779,-0.100584,-0.186539,16
0.424648,-0.101286,-0.186502,18
0.427375,-0.102309,-0.186849,14
0.424383,-0.101191,-0.184586,15
0.421968,-0.100289,-0.182597,16
0.423244,-0.100769,-0.182282,20
0.426048,-0.101821,-0.182647,18
0.426162,-0.101866,-0.1818,20
0.424559,-0.101268,-0.180193,21
0.423698,-0.100948,-0.17892,19
0.425277,-0.101541,-0.178725,23
0.42417,-0.101129,-0.177349,24
0.425017,-0.101448,-0.176828,25
0.424742,-0.101347,-0.175819,27
0.423543,-0.1009,-0.174415,26
0.42512,-0.101493,-0.174205,24
0.426216,-0.101906,-0.173785,22
0.424864,-0.101401,-0.172322,20
0.423231,-0.100792,-0.170748,21
0.426666,-0.10208,-0.171308,25
0.42502,-0.101466,-0.169733,24
0.424747,-0.101366,-0.168737,26
0.423602,-0.10094,-0.167381,21
0.425911,-0.101806,-0.167451,24
0.421958,-0.100328,-0.164952,20
0.42222,-0.100428,-0.164185,25
0.420806,-0.099901,-0.16274,21
0.422312,-0.100467,-0.162476,19
0.420186,-0.0996728,-0.160753,23
0.419498,-0.0994174,-0.159613,23
0.417357,-0.0986178,-0.157901,25
0.416355,-0.0982445,-0.156647,31
0.41638,-0.098256,-0.155801,26
0.415709,-0.0980066,-0.154684,32
0.414303,-0.097482,-0.153286,33
0.415251,-0.0978394,-0.152801,30
0.414447,-0.0975404,-0.151643,28
0.412005,-0.0966276,-0.149864,31
0.413858,-0.0973238,-0.149723,33
0.411969,-0.0966184,-0.148166,37
0.413868,-0.0973315,-0.148036,36
0.412526,-0.0968309,-0.146692,35
0.41301,-0.0970143,-0.14603,38
0.411902,-0.0966014,-0.144781,42
0.413342,-0.0971426,-0.144469,40
0.413006,-0.097019,-0.143507,45
0.412036,-0.0966577,-0.142317,42
0.412384,-0.09679,-0.141606,50
0.412097,-0.0966845,-0.140667,44
0.412264,-0.096749,-0.139891,44
0.412613,-0.0968816,-0.139179,44
0.412689,-0.0969124,-0.138371,42
0.412313,-0.0967733,-0.137405,43
0.412164,-0.0967195,-0.13652,45
0.412287,-0.0967675,-0.135731,46
0.412229,-0.0967478,-0.134879,48
0.412081,-0.0966944,-0.133998,48
0.412386,-0.0968106,-0.133271,48
0.412736,-0.096944,-0.132559,55
0.413588,-0.097265,-0.132014,56
0.412714,-0.0969395,-0.130893,53
0.413247,-0.0971414,-0.13024,53
0.413146,-0.0971054,-0.129378,53
0.413726,-0.0973249,-0.128739,57
0.413353,-0.0971869,-0.127789,52
0.413434,-0.0972193,-0.126988,52
0.412971,-0.0970479,-0.126013,48
0.413643,-0.0973016,-0.125401,54
0.415048,-0.0978299,-0.125018,55
