ply
format ascii 1.0
comment VCGLIB generated
element vertex 928
property float x
property float y
property float z
property float nx
property float ny
property float nz
property uchar red
property uchar green
property uchar blue
property uchar alpha
element face 0
property list uchar int vertex_indices
end_header
-1.938268 1.160723 4.766965 0 0 0 138 121 105 255 
-1.68858 1.489251 4.410432 0 0 0 148 136 120 255 
1.350716 0.1846823 5.664591 0 0 0 150 142 130 255 
0.5007812 0.6689145 5.500843 0 0 0 108 96 84 255 
2.087633 1.782925 3.768346 0 0 0 157 141 126 255 
-2.275288 -0.6070336 6.526534 0 0 0 134 117 99 255 
2.027308 1.548439 3.933078 0 0 0 139 123 107 255 
-0.1718994 1.669864 4.555157 0 0 0 125 108 90 255 
-0.7200124 0.7325315 5.329245 0 0 0 149 132 116 255 
-0.4823906 0.4071964 5.716526 0 0 0 115 105 93 255 
1.711311 -0.1583781 6.088103 0 0 0 110 102 91 255 
-2.688658 1.239095 4.640251 0 0 0 145 126 109 255 
1.626784 1.632199 3.887389 0 0 0 181 168 160 255 
1.537908 -0.2514738 6.101501 0 0 0 171 161 150 255 
0.4004081 -0.1606733 5.944082 0 0 0 164 155 140 255 
1.528662 1.749513 3.784052 0 0 0 152 136 120 255 
-2.542363 -0.2160451 5.982056 0 0 0 124 107 89 255 
1.459358 1.640544 3.970964 0 0 0 145 127 117 255 
-1.791906 0.7150702 5.013544 0 0 0 152 135 117 255 
1.385853 1.373687 4.43568 0 0 0 169 149 140 255 
-1.78488 0.3821628 5.439255 0 0 0 150 130 113 255 
1.124386 -0.5886612 6.230485 0 0 0 0 0 0 255 
-0.9402451 1.169023 4.80024 0 0 0 103 84 67 255 
1.127583 0.1758211 5.727736 0 0 0 128 122 110 255 
-1.327358 -0.08647697 6.076374 0 0 0 129 112 96 255 
1.022147 1.743995 4.137229 0 0 0 116 100 87 255 
0.3677447 -0.4392221 6.172345 0 0 0 159 150 135 255 
0.9159397 1.810828 3.985007 0 0 0 177 160 150 255 
-3.003592 -0.1468043 6.074414 0 0 0 156 139 121 255 
0.7097268 -0.6827765 6.294272 0 0 0 164 156 137 255 
0.8167038 1.984905 3.839221 0 0 0 155 135 124 255 
-1.322295 -0.5548422 6.519828 0 0 0 113 94 79 255 
0.4996827 -0.08877459 5.851694 0 0 0 143 130 121 255 
-0.6407034 2.031142 3.719641 0 0 0 127 116 98 255 
0.368106 0.8387223 5.385678 0 0 0 142 135 129 255 
0.1639736 1.988673 3.798244 0 0 0 154 138 122 255 
-0.7947947 -0.4353483 6.348677 0 0 0 158 142 126 255 
-0.2367002 -0.3968875 6.327704 0 0 0 184 174 164 255 
-0.1676898 0.6453989 5.566149 0 0 0 183 170 161 255 
-1.212921 0.2798635 5.656558 0 0 0 130 113 95 255 
0.4205648 1.969922 3.776518 0 0 0 144 126 111 255 
-2.22999 -0.3654069 6.182083 0 0 0 120 103 87 255 
0.3298649 -0.1263099 5.919456 0 0 0 142 136 124 255 
-2.690723 1.49395 4.398438 0 0 0 168 150 136 255 
-0.2192993 0.5337464 5.66688 0 0 0 195 188 180 255 
-2.674171 0.6359653 5.340144 0 0 0 141 122 105 255 
0.6682794 2.062582 3.763654 0 0 0 186 170 154 255 
0.1032105 0.8323361 5.499002 0 0 0 151 141 129 255 
-0.9579118 1.018271 4.966574 0 0 0 140 129 119 255 
-1.211847 -0.1551694 6.156611 0 0 0 127 110 92 255 
-1.315356 -0.06302729 6.018465 0 0 0 147 147 137 255 
-0.2304621 1.79444 4.205837 0 0 0 179 167 153 255 
-0.3330767 0.4573163 5.690826 0 0 0 119 110 101 255 
0.5065656 -0.6767497 6.227508 0 0 0 143 127 114 255 
-0.4656342 -0.09864293 6.132771 0 0 0 189 181 170 255 
0.9552855 0.08660638 5.745774 0 0 0 110 93 75 255 
-0.5324848 0.4400367 5.713851 0 0 0 133 124 115 255 
-2.732965 1.590898 4.228587 0 0 0 177 165 149 255 
-0.4878613 1.913931 3.964504 0 0 0 211 196 189 255 
-2.721791 0.6160243 5.31421 0 0 0 95 78 60 255 
-0.6826996 0.4493706 5.684462 0 0 0 170 158 149 255 
-0.7794903 -0.7634786 6.601413 0 0 0 138 121 103 255 
-0.6453736 1.697606 4.161324 0 0 0 133 117 104 255 
-1.050778 0.9299267 5.05915 0 0 0 124 116 113 255 
-1.089835 1.289548 4.652621 0 0 0 115 96 79 255 
1.036769 -0.3564664 6.029041 0 0 0 124 113 95 255 
-0.7200124 0.7325315 5.329245 0 0 0 149 132 116 255 
-0.8344566 1.939637 3.828189 0 0 0 154 144 132 255 
-2.101163 1.674005 4.182162 0 0 0 150 129 110 255 
1.300654 -0.7096747 6.305936 0 0 0 160 148 134 255 
-0.9886939 0.7290805 5.227184 0 0 0 188 172 156 255 
1.050707 1.76914 4.069539 0 0 0 144 128 112 255 
-2.452198 -0.4750855 6.457861 0 0 0 125 108 90 255 
0.2583291 1.841181 4.211044 0 0 0 126 109 91 255 
-1.151846 -0.4983509 6.388039 0 0 0 156 140 127 255 
0.9918002 0.4235245 5.524991 0 0 0 118 106 92 255 
-1.076811 2.287813 3.613489 0 0 0 177 168 153 255 
-0.9306216 2.152072 3.685224 0 0 0 172 163 154 255 
1.090564 0.1427175 5.795606 0 0 0 113 96 80 255 
1.027401 1.864483 3.861006 0 0 0 167 151 135 255 
-1.279397 0.1532236 5.733769 0 0 0 178 163 147 255 
-2.227082 -0.3881187 6.213704 0 0 0 169 158 140 255 
0.5896339 0.6401978 5.48254 0 0 0 138 130 117 255 
-1.19986 1.201075 4.680851 0 0 0 176 162 147 255 
-2.212314 -0.518287 6.455442 0 0 0 145 129 113 255 
-2.480299 1.125788 4.757937 0 0 0 88 70 54 255 
-2.406899 2.143909 3.450133 0 0 0 141 125 112 255 
-1.175868 1.577773 4.223252 0 0 0 183 173 161 255 
0.1594715 0.1747638 5.808347 0 0 0 166 157 142 255 
-1.160102 2.065582 3.786645 0 0 0 156 146 136 255 
1.307901 1.938897 3.712155 0 0 0 114 103 85 255 
-1.241436 1.451194 4.304571 0 0 0 154 138 122 255 
-2.180535 1.339275 4.424115 0 0 0 168 151 135 255 
0.8167038 1.984905 3.839221 0 0 0 155 135 124 255 
1.345335 -0.1986225 6.037295 0 0 0 156 145 127 255 
-2.856389 1.172771 4.640213 0 0 0 163 145 125 255 
-0.02552546 0.260641 5.803524 0 0 0 133 117 101 255 
-1.402005 0.1178176 5.715383 0 0 0 165 149 133 255 
1.212877 -0.8437107 6.481022 0 0 0 37 28 13 255 
-1.269073 1.128939 4.676159 0 0 0 147 130 112 255 
-1.808544 0.2500471 5.527209 0 0 0 174 162 150 255 
1.421108 1.606503 4.257781 0 0 0 99 83 70 255 
-0.5931975 -0.6146621 6.488303 0 0 0 162 145 129 255 
-1.000504 1.680276 4.130221 0 0 0 151 139 125 255 
-0.4370386 -0.2777481 6.285349 0 0 0 125 114 96 255 
-0.9772508 1.512234 4.293182 0 0 0 165 153 139 255 
-2.986617 -0.06504728 6.215221 0 0 0 139 126 107 255 
-0.9810421 0.9989717 4.955364 0 0 0 207 193 180 255 
-2.849815 1.53959 4.252769 0 0 0 151 134 114 255 
-0.3288106 0.5921156 5.599996 0 0 0 121 109 97 255 
-2.064416 2.754019 2.755262 0 0 0 132 119 103 255 
-0.8240078 1.618474 4.226199 0 0 0 150 135 114 255 
-1.434512 -0.08164764 6.05092 0 0 0 151 135 120 255 
-2.234119 1.545857 4.173632 0 0 0 223 210 201 255 
-1.55343 1.353388 4.576609 0 0 0 135 127 108 255 
-0.6826996 0.4493706 5.684462 0 0 0 170 158 149 255 
0.7909545 1.931684 3.868973 0 0 0 105 86 71 255 
-0.5846964 -0.5816154 6.448442 0 0 0 156 139 129 255 
0.2459932 0.9216317 5.339463 0 0 0 96 92 83 255 
-0.04860263 2.081737 3.683006 0 0 0 185 172 155 255 
0.1906595 -0.126995 5.961993 0 0 0 140 134 122 255 
-1.554576 0.6421111 5.239548 0 0 0 127 116 98 255 
1.044487 1.75174 4.034277 0 0 0 145 129 116 255 
1.554171 -0.08211449 6.036144 0 0 0 161 154 144 255 
-1.395262 0.7643832 5.024951 0 0 0 112 95 76 255 
1.912042 -0.09694275 6.061851 0 0 0 135 132 128 255 
-1.198498 -0.500412 6.403814 0 0 0 170 158 144 255 
-1.222125 0.6453081 5.186161 0 0 0 163 146 130 255 
-3.042762 2.14437 3.584121 0 0 0 158 141 123 255 
1.620659 -0.03652387 6.017599 0 0 0 78 74 72 255 
-3.105849 -0.2610917 6.323717 0 0 0 147 130 110 255 
0.3988706 -0.4007464 6.156037 0 0 0 161 152 137 255 
0.9695995 0.2915909 5.600432 0 0 0 208 203 195 255 
0.7120015 1.951913 3.865349 0 0 0 114 97 79 255 
-0.1153863 -0.1701096 6.236412 0 0 0 149 139 127 255 
1.168836 0.253777 5.624045 0 0 0 171 167 156 255 
-1.380355 1.127188 4.706306 0 0 0 105 88 70 255 
-1.838121 0.6383473 5.02343 0 0 0 192 182 170 255 
-1.783287 1.360591 4.698268 0 0 0 156 148 137 255 
1.621037 -0.4480376 6.14593 0 0 0 126 114 98 255 
-3.111076 1.898019 3.846317 0 0 0 178 167 149 255 
1.418047 -0.5831276 6.225379 0 0 0 131 124 106 255 
-3.103835 0.6311365 5.320717 0 0 0 158 137 118 255 
1.218968 -0.03434408 5.777324 0 0 0 150 139 121 255 
-1.52416 2.243106 3.523499 0 0 0 145 128 110 255 
-0.1086318 -0.3055133 6.271079 0 0 0 160 150 140 255 
-0.1321018 -0.3032743 6.284179 0 0 0 69 59 49 255 
1.418047 -0.5831276 6.225379 0 0 0 131 124 106 255 
-2.747781 1.155723 4.609063 0 0 0 115 96 79 255 
-1.245212 -0.250587 6.217635 0 0 0 110 93 75 255 
1.324973 1.886111 3.706139 0 0 0 163 154 145 255 
-1.180045 -0.3318918 6.240142 0 0 0 129 111 89 255 
-2.820572 1.008567 4.889946 0 0 0 119 96 78 255 
-1.585919 -0.4551989 6.371135 0 0 0 158 149 134 255 
-2.785247 1.369863 4.404312 0 0 0 160 143 123 255 
0.1540399 -0.1859643 6.138367 0 0 0 162 155 139 255 
-0.1409137 -0.242642 6.281101 0 0 0 135 119 103 255 
-1.501961 1.014119 4.741697 0 0 0 146 135 117 255 
1.717762 -0.1432865 5.908143 0 0 0 104 96 83 255 
1.806568 -0.4956973 6.353786 0 0 0 119 108 90 255 
0.1707185 -0.1463293 6.200493 0 0 0 162 155 139 255 
-3.352003 0.3554178 5.664528 0 0 0 139 124 105 255 
0.8497829 1.837869 4.148831 0 0 0 132 115 95 255 
-3.325247 0.09030811 5.921611 0 0 0 114 92 71 255 
-1.940265 -0.5035732 6.432783 0 0 0 131 112 95 255 
-1.112851 -0.08299138 6.05246 0 0 0 114 104 92 255 
-0.1874338 1.332985 5.232961 0 0 0 117 99 87 255 
-1.997936 0.1252181 5.672041 0 0 0 157 145 131 255 
-0.8259991 -0.2020646 6.207428 0 0 0 157 157 149 255 
-1.50373 -0.1302281 6.086967 0 0 0 115 98 80 255 
-2.38912 -0.124676 6.122223 0 0 0 129 110 93 255 
1.427899 -0.7375854 6.478749 0 0 0 133 117 101 255 
-2.391834 -0.1078241 6.145462 0 0 0 129 110 93 255 
-3.442282 0.1263009 5.858454 0 0 0 115 98 80 255 
-2.706491 -0.1006393 6.158847 0 0 0 157 141 128 255 
0.9243102 -0.09279751 5.854974 0 0 0 103 87 74 255 
-3.404182 -0.1104541 6.277506 0 0 0 142 125 109 255 
-0.1857526 0.6051382 5.601772 0 0 0 146 134 120 255 
-2.866712 0.9474415 5.134704 0 0 0 145 126 109 255 
-0.5237196 1.723884 4.102144 0 0 0 111 94 76 255 
-2.345942 2.114183 3.413907 0 0 0 157 141 125 255 
1.227014 -0.6404076 6.249674 0 0 0 121 105 89 255 
-1.742805 1.245114 4.736132 0 0 0 124 108 95 255 
-0.4290498 1.783744 4.123893 0 0 0 132 115 97 255 
-3.193522 1.54315 4.274028 0 0 0 100 89 77 255 
-0.2946524 1.628477 4.617623 0 0 0 155 135 118 255 
-1.374057 0.0273331 5.864571 0 0 0 157 145 131 255 
0.4537344 1.806848 4.127873 0 0 0 123 106 88 255 
-1.449574 0.4990041 5.396859 0 0 0 100 84 68 255 
-0.6839094 1.076228 5.051884 0 0 0 112 91 74 255 
-1.479201 0.8555132 4.909341 0 0 0 143 132 114 255 
0.2198757 -0.3143019 6.191868 0 0 0 163 153 141 255 
-2.008461 -0.4380881 6.130814 0 0 0 157 140 122 255 
-0.02800969 1.261897 5.236742 0 0 0 88 84 75 255 
-2.400224 0.2049982 5.828631 0 0 0 121 102 87 255 
-0.880572 1.027861 5.009378 0 0 0 106 87 70 255 
-2.862112 0.5695208 5.32239 0 0 0 166 155 137 255 
-2.877266 0.7911394 5.176586 0 0 0 155 138 120 255 
-0.8658499 0.8233255 5.17388 0 0 0 126 107 90 255 
-3.058434 0.7368842 5.143074 0 0 0 143 122 103 255 
0.6376263 0.2960235 5.678364 0 0 0 154 138 122 255 
0.1358686 -0.1972881 6.101034 0 0 0 146 139 120 255 
-3.306703 0.100278 5.97894 0 0 0 134 112 91 255 
0.1973647 0.5858291 5.588896 0 0 0 139 131 112 255 
-2.506088 1.330854 4.553129 0 0 0 124 98 81 255 
-0.7968338 1.544535 4.235551 0 0 0 98 79 64 255 
1.73676 -0.1570283 6.085699 0 0 0 120 109 91 255 
-0.1857526 0.6051382 5.601772 0 0 0 146 134 120 255 
0.4522645 0.7967277 5.427456 0 0 0 65 66 65 255 
-2.008928 -0.4368564 6.132819 0 0 0 157 140 122 255 
0.1533958 -0.7907838 6.534818 0 0 0 171 168 151 255 
1.227014 -0.6404076 6.249674 0 0 0 121 105 89 255 
-2.503705 1.229754 4.655265 0 0 0 101 82 65 255 
-2.524413 1.696479 4.000992 0 0 0 136 117 100 255 
0.6627067 1.847296 3.993941 0 0 0 112 93 76 255 
1.113893 -0.77452 6.438763 0 0 0 159 150 131 255 
-1.116513 0.3189147 5.603245 0 0 0 164 147 129 255 
1.113893 -0.77452 6.438763 0 0 0 159 150 131 255 
-0.7177503 -0.1443247 6.151091 0 0 0 155 149 135 255 
-1.103762 0.3879063 5.549333 0 0 0 155 138 120 255 
0.6465229 1.791933 3.949444 0 0 0 112 93 76 255 
0.4223717 1.869345 3.95223 0 0 0 155 138 120 255 
-2.572108 0.5137293 5.488359 0 0 0 166 150 132 255 
0.06555177 1.822019 4.129118 0 0 0 125 108 90 255 
-2.115834 1.614474 4.08296 0 0 0 159 138 117 255 
-0.1148454 0.4901929 5.748959 0 0 0 120 104 88 255 
-2.522135 2.163458 3.553236 0 0 0 150 134 118 255 
-1.434553 0.5188217 5.453343 0 0 0 84 68 53 255 
-0.5039384 1.461028 4.807635 0 0 0 87 68 53 255 
-2.272644 1.430858 4.57584 0 0 0 158 140 120 255 
-2.501751 1.524768 4.397349 0 0 0 134 114 88 255 
-0.8171306 0.02197853 5.884592 0 0 0 121 104 88 255 
-3.188851 0.7241799 5.152472 0 0 0 178 162 149 255 
-1.249792 -0.5040589 6.420588 0 0 0 163 155 136 255 
-3.178045 0.2159492 5.753938 0 0 0 123 104 87 255 
0.3394361 -0.7344887 6.337575 0 0 0 137 130 114 255 
-1.417143 0.6127933 5.285938 0 0 0 148 137 119 255 
-0.1829739 0.04591521 5.908306 0 0 0 133 116 98 255 
-2.130656 1.420465 4.570984 0 0 0 161 143 123 255 
-2.281494 0.9502907 5.024981 0 0 0 127 110 94 255 
-2.225426 0.3586 5.499134 0 0 0 161 144 128 255 
-2.704675 0.6063775 5.534463 0 0 0 169 157 141 255 
-3.462042 -0.1644028 6.378004 0 0 0 108 89 77 255 
-2.698876 -0.03755179 5.901811 0 0 0 118 97 80 255 
-2.846599 0.6766279 5.263873 0 0 0 125 108 90 255 
-2.955381 0.3992781 5.629533 0 0 0 126 107 90 255 
-3.160009 2.005532 3.738226 0 0 0 171 158 139 255 
0.1985158 1.960873 3.836676 0 0 0 162 145 129 255 
-2.955381 0.3992781 5.629533 0 0 0 126 107 90 255 
-2.1929 1.038352 4.777704 0 0 0 155 136 119 255 
-2.704675 0.6063775 5.534463 0 0 0 169 157 141 255 
-1.190083 0.05383121 5.800635 0 0 0 153 136 120 255 
-2.446021 0.4224967 5.52053 0 0 0 120 103 87 255 
-1.033767 0.08702264 5.818339 0 0 0 123 104 87 255 
0.5455298 0.3862348 5.635904 0 0 0 124 108 95 255 
-1.693191 1.224571 4.694015 0 0 0 120 108 96 255 
0.5061922 0.06650615 5.835123 0 0 0 160 149 131 255 
-1.82586 0.7455778 5.02851 0 0 0 126 109 91 255 
-2.751828 0.6774644 5.323713 0 0 0 111 92 75 255 
-3.095639 0.8775623 4.992738 0 0 0 169 157 141 255 
-0.8376395 -0.1084962 5.951706 0 0 0 168 160 141 255 
0.01060118 -0.7794187 6.432206 0 0 0 174 168 156 255 
-2.917754 2.138215 3.615408 0 0 0 136 118 106 255 
-0.04373638 0.2929727 5.831503 0 0 0 115 98 82 255 
-0.841875 0.3890572 5.628879 0 0 0 107 88 73 255 
-0.1176428 -0.07955026 6.10482 0 0 0 161 154 136 255 
-0.8331687 -0.1008137 6.019946 0 0 0 165 150 131 255 
-0.4582383 -0.6964952 6.681175 0 0 0 140 121 104 255 
-0.8972285 1.958478 3.806838 0 0 0 106 90 74 255 
-0.4484183 1.096427 5.212689 0 0 0 172 153 138 255 
-0.4462027 1.111537 5.22986 0 0 0 172 153 138 255 
-1.937753 0.6549655 5.166502 0 0 0 122 103 86 255 
-2.431115 -0.3998652 6.235039 0 0 0 133 122 104 255 
-1.354081 0.9520572 4.856286 0 0 0 110 92 75 255 
-2.724238 0.6263502 5.432281 0 0 0 161 150 132 255 
-2.763395 1.162135 4.676937 0 0 0 125 106 89 255 
1.115465 -0.2537916 5.921739 0 0 0 155 143 129 255 
0.2633427 0.4159257 5.700533 0 0 0 142 133 118 255 
-1.689665 -0.0902966 5.953536 0 0 0 127 109 87 255 
-1.983021 -0.327708 6.303898 0 0 0 158 146 127 255 
-2.379522 1.598836 4.342875 0 0 0 176 165 147 255 
-0.5191744 0.001532297 5.968011 0 0 0 166 155 137 255 
-1.605126 1.07851 4.771456 0 0 0 150 139 121 255 
-2.955642 1.017263 4.884574 0 0 0 163 148 129 255 
-3.453261 0.1338639 5.895946 0 0 0 127 110 92 255 
-1.903734 -0.2924971 6.184248 0 0 0 148 129 112 255 
0.4683214 2.066149 3.700951 0 0 0 150 133 115 255 
-1.078239 1.747624 4.020447 0 0 0 178 170 157 255 
-2.835044 0.875657 5.179717 0 0 0 158 141 123 255 
-0.4438127 -0.6742734 6.552092 0 0 0 178 171 155 255 
-1.073165 0.07399414 5.795041 0 0 0 111 94 78 255 
-0.3579145 -0.621866 6.465987 0 0 0 116 100 84 255 
-0.1835468 1.861825 3.905107 0 0 0 171 154 136 255 
-0.366168 -0.7059792 6.591096 0 0 0 164 157 141 255 
-1.204743 -0.08900349 6.069826 0 0 0 145 129 116 255 
-2.459497 1.053754 4.787617 0 0 0 155 138 122 255 
-1.689817 -0.08675423 5.958353 0 0 0 127 109 87 255 
-1.723627 1.140376 4.770488 0 0 0 144 127 111 255 
0.3172805 0.8222367 5.409537 0 0 0 137 131 119 255 
-1.637134 1.069489 4.789804 0 0 0 150 134 118 255 
-2.887093 -0.4635239 6.431112 0 0 0 151 134 116 255 
0.1414156 0.4826432 5.674862 0 0 0 122 109 97 255 
-1.232533 0.8742214 5.024333 0 0 0 130 113 95 255 
-2.77151 -0.2431197 6.317959 0 0 0 111 94 78 255 
-0.2415204 -0.1145297 6.120711 0 0 0 153 146 130 255 
-1.011165 0.918233 5.073957 0 0 0 154 138 122 255 
-0.3658844 -0.704277 6.593986 0 0 0 164 157 141 255 
-1.188574 0.9158424 5.011027 0 0 0 113 97 81 255 
-0.03291791 0.3244507 5.735571 0 0 0 149 133 117 255 
-0.3824771 1.445515 4.869036 0 0 0 108 91 75 255 
-1.292459 -0.01308554 5.953641 0 0 0 132 132 124 255 
-1.683126 0.6009999 5.289034 0 0 0 152 135 117 255 
0.8429828 2.153248 3.693049 0 0 0 79 60 45 255 
-1.323728 -0.0376746 6.01827 0 0 0 82 68 55 255 
-2.94806 0.910481 5.092999 0 0 0 127 109 89 255 
-1.639149 1.19235 4.73737 0 0 0 149 133 117 255 
-0.08787429 -0.7578157 6.560004 0 0 0 146 129 111 255 
-1.26479 0.3110943 5.610388 0 0 0 114 97 79 255 
-1.111312 0.110283 5.782012 0 0 0 150 133 117 255 
-0.4473311 0.3651013 5.739645 0 0 0 117 101 88 255 
-1.244436 1.320121 4.542103 0 0 0 118 107 89 255 
-2.683063 0.9630557 5.207558 0 0 0 128 109 92 255 
-1.692051 -0.2725322 6.140343 0 0 0 118 97 76 255 
-3.0236 -0.002045857 5.90091 0 0 0 145 126 111 255 
-2.948403 0.4071069 5.678521 0 0 0 104 85 68 255 
-3.032952 0.8318511 5.054855 0 0 0 124 106 86 255 
-2.107216 0.8014155 4.945132 0 0 0 130 113 95 255 
-0.5507963 1.021465 5.158295 0 0 0 102 81 62 255 
-2.579545 1.337836 4.518049 0 0 0 125 103 82 255 
1.466529 -0.7899095 6.521512 0 0 0 148 140 121 255 
0.2775156 0.7594362 5.505344 0 0 0 134 124 112 255 
-0.5096192 1.19079 5.111567 0 0 0 137 116 99 255 
-0.8209066 2.373739 3.242203 0 0 0 137 126 104 255 
0.2430031 0.4871694 5.705802 0 0 0 112 100 88 255 
-1.344415 0.3965824 5.548586 0 0 0 144 139 131 255 
0.102562 2.013547 3.778662 0 0 0 121 104 86 255 
0.8396898 2.148855 3.690095 0 0 0 79 60 45 255 
-2.590976 0.5210586 5.427339 0 0 0 114 97 79 255 
-3.022881 -0.004627641 5.897005 0 0 0 145 126 111 255 
-3.024513 0.001321597 5.905365 0 0 0 145 126 111 255 
-2.626831 1.088432 4.742868 0 0 0 161 144 126 255 
-1.111312 0.110283 5.782012 0 0 0 150 133 117 255 
-0.5497124 1.030453 5.167616 0 0 0 102 81 62 255 
-3.147129 0.1734865 5.720133 0 0 0 125 106 89 255 
-1.844206 -0.3329267 6.202877 0 0 0 112 95 77 255 
-1.141831 1.228267 4.652755 0 0 0 120 103 85 255 
-1.366279 0.5963808 5.222647 0 0 0 157 145 133 255 
-2.64919 0.3776494 5.673107 0 0 0 115 98 80 255 
-2.287275 -0.4168843 6.306659 0 0 0 164 148 132 255 
0.8947132 2.167483 3.647735 0 0 0 129 113 97 255 
-2.806247 -0.006119729 5.838693 0 0 0 119 98 81 255 
1.107299 -0.7540928 6.323163 0 0 0 139 128 110 255 
1.011191 -0.7904702 6.348776 0 0 0 161 152 137 255 
0.8933889 2.156865 3.642092 0 0 0 129 113 97 255 
0.3382654 0.6002774 5.577264 0 0 0 151 141 129 255 
0.2194672 -0.1490221 6.040509 0 0 0 169 162 146 255 
-2.277781 0.7657439 5.218588 0 0 0 175 165 153 255 
-2.338615 1.024575 4.849174 0 0 0 122 105 87 255 
-0.7241625 1.669461 4.148594 0 0 0 138 123 106 255 
1.392903 2.338548 3.199907 0 0 0 0 0 0 255 
-2.695059 -0.07041518 5.865971 0 0 0 115 94 77 255 
-0.8182287 -0.1916705 6.208257 0 0 0 151 140 122 255 
-1.0415 0.5543708 5.278666 0 0 0 117 99 78 255 
-0.9469774 2.139866 3.708353 0 0 0 127 117 105 255 
-0.9947221 1.353623 4.460188 0 0 0 151 134 116 255 
-1.169437 -0.4719599 6.376241 0 0 0 135 116 99 255 
-2.343623 0.4122577 5.515837 0 0 0 131 114 96 255 
-1.366279 0.5963808 5.222647 0 0 0 157 145 133 255 
-2.861188 1.249563 4.619668 0 0 0 156 138 118 255 
-1.752712 -0.1743713 6.019742 0 0 0 159 142 124 255 
0.8623981 1.717747 4.248877 0 0 0 142 127 108 255 
-1.844206 -0.3329267 6.202877 0 0 0 112 95 77 255 
-2.465637 0.241604 5.740577 0 0 0 112 93 78 255 
-2.529683 1.257303 4.588657 0 0 0 110 91 74 255 
0.8949699 0.4387454 5.477307 0 0 0 116 107 92 255 
-1.314857 0.9511817 4.881657 0 0 0 113 96 78 255 
0.714821 -0.2779708 6.023166 0 0 0 113 105 86 255 
0.6288829 -0.7882088 6.403694 0 0 0 135 124 106 255 
1.177382 0.2501237 5.598992 0 0 0 108 97 77 255 
1.087839 -0.7920753 6.357483 0 0 0 165 157 138 255 
-0.2470328 -0.1579692 6.213716 0 0 0 151 139 127 255 
-2.917754 2.138215 3.615408 0 0 0 136 118 106 255 
-1.730767 0.803279 4.977828 0 0 0 122 107 88 255 
-2.120351 -0.2660585 6.095751 0 0 0 111 94 76 255 
1.069532 0.3226312 5.596933 0 0 0 150 139 119 255 
-0.03190693 0.1574933 5.854548 0 0 0 163 151 137 255 
-1.783287 1.360591 4.698268 0 0 0 156 148 137 255 
0.09726291 1.074926 5.33514 0 0 0 161 158 149 255 
1.116653 -0.2486849 5.969621 0 0 0 157 145 131 255 
1.072357 2.273323 3.51162 0 0 0 131 115 99 255 
1.004843 -0.1886602 5.938009 0 0 0 143 132 114 255 
-0.04304948 0.3964384 5.723313 0 0 0 145 129 113 255 
0.9083958 0.3824032 5.62269 0 0 0 146 139 129 255 
0.9106421 1.914154 3.88005 0 0 0 93 77 64 255 
-1.713569 0.6093429 5.209041 0 0 0 134 117 99 255 
-1.89602 -0.4250902 6.484015 0 0 0 122 105 87 255 
-1.744712 0.3031386 5.514101 0 0 0 111 92 75 255 
-0.08855971 1.390589 5.155022 0 0 0 144 131 123 255 
-0.3752046 1.431522 4.919277 0 0 0 126 107 92 255 
-0.4840689 -0.7232855 6.604117 0 0 0 132 114 94 255 
-0.7304114 2.071382 3.41119 0 0 0 151 134 118 255 
-2.197373 1.495797 4.470793 0 0 0 144 126 106 255 
0.3793994 -0.6316717 6.287089 0 0 0 138 126 112 255 
-3.121095 0.7944381 5.156068 0 0 0 121 102 85 255 
-1.27911 1.927963 3.896207 0 0 0 155 138 120 255 
-0.6501395 0.006842468 5.884365 0 0 0 115 96 81 255 
-1.513147 1.969467 3.919087 0 0 0 244 226 202 255 
-0.8745705 1.322991 4.700116 0 0 0 104 87 69 255 
0.2153804 -0.2915264 6.15356 0 0 0 167 158 144 255 
-1.609182 0.6643984 5.129644 0 0 0 150 135 116 255 
-1.651255 0.6348932 5.133724 0 0 0 139 122 104 255 
-1.326938 1.318441 4.530482 0 0 0 167 155 141 255 
1.391333 -0.1047987 5.941651 0 0 0 114 101 84 255 
-1.701013 0.6556053 5.098508 0 0 0 143 127 112 255 
-1.392377 -0.0453805 6.038033 0 0 0 135 118 100 255 
-0.006654164 -0.2367119 6.206075 0 0 0 144 141 134 255 
-2.093924 0.5977648 5.284204 0 0 0 168 156 142 255 
-0.4840689 -0.7232855 6.604117 0 0 0 132 114 94 255 
-3.12295 0.565158 5.370753 0 0 0 156 139 117 255 
-1.742805 1.245114 4.736132 0 0 0 124 108 95 255 
-2.063339 1.629553 4.166368 0 0 0 183 167 152 255 
-2.120341 -0.2674718 6.094163 0 0 0 111 94 76 255 
1.760781 1.688768 3.830035 0 0 0 138 121 110 255 
-1.96878 0.3209328 5.436572 0 0 0 157 146 128 255 
-1.784892 1.351297 4.700957 0 0 0 159 149 137 255 
-2.2111 -0.4235897 6.291958 0 0 0 138 121 103 255 
-1.752089 -0.1058042 5.968522 0 0 0 155 138 120 255 
-3.211263 -0.1608279 6.296364 0 0 0 124 113 95 255 
0.5779922 0.7113186 5.515289 0 0 0 98 86 74 255 
-1.415601 -0.1655232 6.132785 0 0 0 113 96 78 255 
0.9461097 2.19229 3.633257 0 0 0 113 96 76 255 
-0.4325343 -0.2136249 6.281739 0 0 0 155 143 129 255 
-1.439564 -0.4002397 6.284878 0 0 0 133 114 97 255 
0.4476225 -0.7474486 6.28687 0 0 0 175 167 153 255 
-3.207705 0.1667665 5.789938 0 0 0 160 149 131 255 
-3.188183 -0.4254517 6.465545 0 0 0 127 110 92 255 
-2.570325 1.587981 4.093205 0 0 0 214 201 190 255 
-3.206179 0.2047202 5.739542 0 0 0 159 143 127 255 
1.20149 -0.3909348 6.095476 0 0 0 116 103 84 255 
-2.540203 0.3213219 5.692314 0 0 0 116 97 82 255 
1.313015 -0.5982522 6.231913 0 0 0 141 129 115 255 
-1.786175 0.3503165 5.468 0 0 0 117 98 81 255 
0.3578268 0.1691441 5.834859 0 0 0 136 124 110 255 
-3.206919 0.1644449 5.786973 0 0 0 160 149 131 255 
-2.529696 1.164529 4.696349 0 0 0 143 126 108 255 
-3.019322 0.8524735 4.958354 0 0 0 180 164 148 255 
0.7921515 -0.8773115 6.401297 0 0 0 170 163 147 255 
-1.296914 1.007435 4.804934 0 0 0 114 95 80 255 
-0.5301923 -0.6897722 6.537682 0 0 0 132 113 94 255 
0.6049966 1.768889 4.228041 0 0 0 155 139 123 255 
-0.4285185 -0.6569524 6.521483 0 0 0 175 166 151 255 
-2.556295 -0.3297124 6.33496 0 0 0 127 111 95 255 
-0.1612497 -0.2612269 6.274456 0 0 0 134 122 110 255 
-0.01548927 0.2508455 5.775621 0 0 0 112 93 78 255 
1.661989 -0.419449 6.192575 0 0 0 146 132 115 255 
0.7708344 -0.5859216 6.212615 0 0 0 121 106 87 255 
1.229326 0.1604188 5.639798 0 0 0 150 139 121 255 
-0.1513157 0.6048989 5.617351 0 0 0 111 97 86 255 
-2.145082 -0.4579486 6.395617 0 0 0 169 162 140 255 
-1.235081 -0.01776799 5.884397 0 0 0 171 160 142 255 
1.563059 2.127337 3.517461 0 0 0 126 118 99 255 
0.8074296 0.005997927 5.780891 0 0 0 157 149 128 255 
1.661989 -0.419449 6.192575 0 0 0 146 132 115 255 
0.6387876 1.767879 4.098348 0 0 0 150 133 115 255 
1.083656 0.2469593 5.626614 0 0 0 154 143 125 255 
1.089279 0.08444867 5.874977 0 0 0 113 97 81 255 
-0.7901384 1.410467 4.640188 0 0 0 122 106 93 255 
-2.093924 0.5977648 5.284204 0 0 0 168 156 142 255 
0.2947367 -0.1841762 5.97677 0 0 0 166 158 145 255 
0.2584743 -0.1714745 6.006084 0 0 0 170 163 147 255 
0.1084443 -0.1309565 6.059066 0 0 0 168 162 150 255 
0.9607647 -0.4820017 6.183638 0 0 0 151 144 125 255 
0.1861691 -0.08297686 5.963464 0 0 0 129 118 100 255 
-2.737669 1.152173 4.710022 0 0 0 121 102 85 255 
-1.759487 1.324385 4.664258 0 0 0 157 149 138 255 
-2.939439 0.9694631 4.875006 0 0 0 170 155 136 255 
1.003823 -0.5509849 6.185802 0 0 0 125 114 96 255 
0.1399875 -0.168162 6.097922 0 0 0 172 163 149 255 
0.134315 0.9725326 5.412836 0 0 0 133 123 114 255 
0.2266191 -0.3345547 6.206145 0 0 0 137 128 113 255 
0.1359191 1.022997 5.353681 0 0 0 89 85 76 255 
0.9024641 -0.4678637 6.149582 0 0 0 158 147 129 255 
-0.01921064 1.581886 4.969322 0 0 0 87 78 64 255 
-0.08898234 1.369126 5.120519 0 0 0 131 105 108 255 
-0.3079909 0.1758983 5.766365 0 0 0 121 104 86 255 
-2.314655 0.3122287 5.584949 0 0 0 130 121 106 255 
-0.3657731 -0.6079929 6.465684 0 0 0 122 106 90 255 
-0.4288083 -0.658708 6.517915 0 0 0 175 166 151 255 
0.3421746 0.8287551 5.403107 0 0 0 106 100 88 255 
-3.052199 1.585079 4.033397 0 0 0 150 132 112 255 
-0.6721481 0.5255893 5.494088 0 0 0 132 116 100 255 
-0.6140743 -0.08563574 6.084656 0 0 0 132 121 103 255 
0.7004141 2.066435 3.778394 0 0 0 147 134 117 255 
-0.7938142 1.36163 4.641436 0 0 0 88 65 47 255 
-1.42921 0.01642491 5.909211 0 0 0 132 119 110 255 
-0.3163683 0.9477118 5.328014 0 0 0 154 137 121 255 
0.04546474 -0.5533526 6.352647 0 0 0 172 165 149 255 
-1.164407 0.5593712 5.248528 0 0 0 122 104 86 255 
-1.205644 2.296753 3.607189 0 0 0 141 119 102 255 
0.8670391 2.160698 3.655897 0 0 0 97 81 65 255 
-1.788127 1.157515 4.778358 0 0 0 143 126 110 255 
-1.048685 2.05957 3.730631 0 0 0 153 134 117 255 
-1.891007 0.6959803 5.075024 0 0 0 162 147 128 255 
1.081263 1.795651 3.951372 0 0 0 113 97 81 255 
-1.941492 0.7420925 5.022322 0 0 0 134 117 99 255 
-2.028159 1.43007 4.614271 0 0 0 91 75 62 255 
-0.5061591 -0.03878822 6.013113 0 0 0 158 152 144 255 
-0.9819257 1.989139 3.790531 0 0 0 141 129 114 255 
-2.247092 2.020375 3.874347 0 0 0 241 217 191 255 
-2.282474 0.5882224 5.343544 0 0 0 134 123 105 255 
0.2075833 -0.2478818 6.133442 0 0 0 139 132 116 255 
-2.307267 0.7698866 5.220647 0 0 0 156 145 127 255 
0.8563106 -0.182082 5.959964 0 0 0 119 103 87 255 
1.264395 -0.3469684 6.0983 0 0 0 146 131 112 255 
0.6977455 1.959855 3.885419 0 0 0 140 123 105 255 
1.192012 -0.7707919 6.376462 0 0 0 133 122 104 255 
0.889284 -0.8261985 6.384881 0 0 0 165 158 142 255 
0.836827 -0.8476235 6.378682 0 0 0 158 151 135 255 
-2.380554 -0.3608674 6.269051 0 0 0 159 146 137 255 
0.797713 -0.09543356 5.861135 0 0 0 117 100 82 255 
1.847812 -0.4983347 6.368958 0 0 0 131 119 107 255 
0.110732 0.1967147 5.853238 0 0 0 163 154 139 255 
0.3050914 -0.4511158 6.242318 0 0 0 166 159 143 255 
1.649529 1.641867 3.887408 0 0 0 110 94 78 255 
-0.04002777 -0.7290351 6.557584 0 0 0 162 156 140 255 
-1.097056 1.673377 4.160236 0 0 0 170 162 143 255 
1.254908 2.29513 3.444999 0 0 0 98 82 69 255 
-0.04306449 0.02318129 5.903147 0 0 0 137 121 105 255 
0.4130634 0.7016045 5.520933 0 0 0 144 134 122 255 
-0.09065942 -0.6978822 6.569028 0 0 0 119 102 84 255 
-0.2447523 -0.06924783 6.077786 0 0 0 167 160 144 255 
1.148932 1.61493 4.310806 0 0 0 127 108 93 255 
-0.335998 -0.6753899 6.527161 0 0 0 134 123 105 255 
-0.4109942 0.1026442 5.809403 0 0 0 142 135 125 255 
-0.3353564 2.311574 3.456011 0 0 0 107 90 74 255 
0.05191556 0.1625835 5.838563 0 0 0 148 141 135 255 
-0.3657253 1.463245 4.902704 0 0 0 127 108 91 255 
-0.464426 1.961067 4.021954 0 0 0 200 176 150 255 
0.6451301 0.5847737 5.507627 0 0 0 144 133 115 255 
-2.984277 0.8714786 5.08763 0 0 0 160 143 125 255 
1.049721 1.765949 4.067117 0 0 0 144 128 112 255 
-2.983687 0.8701319 5.085652 0 0 0 160 143 125 255 
1.444133 0.02822097 5.821867 0 0 0 109 92 74 255 
-2.75058 1.587638 4.2681 0 0 0 163 152 132 255 
-0.216913 -0.1414303 6.199246 0 0 0 100 90 78 255 
-1.172271 0.9721382 4.981852 0 0 0 159 142 124 255 
1.659422 -0.6313686 6.473434 0 0 0 108 97 79 255 
-1.137162 2.015381 3.864807 0 0 0 178 165 156 255 
0.7267064 -0.3892066 6.059088 0 0 0 126 115 97 255 
-0.8409306 1.343997 4.677239 0 0 0 83 60 42 255 
0.5516332 1.78797 4.269723 0 0 0 117 101 85 255 
1.427595 1.439167 4.336649 0 0 0 102 85 67 255 
-0.559064 1.722487 4.116093 0 0 0 152 135 117 255 
-1.698962 -0.3725251 6.308981 0 0 0 150 137 123 255 
-1.80008 -0.5088025 6.532779 0 0 0 153 136 118 255 
0.2664351 2.127546 3.579812 0 0 0 154 138 122 255 
0.7554798 2.208147 3.626466 0 0 0 119 103 87 255 
1.459414 -0.1969454 6.07885 0 0 0 135 124 106 255 
-1.244974 2.304495 3.530387 0 0 0 171 155 130 255 
1.760011 -0.5823961 6.439145 0 0 0 104 88 72 255 
-3.500417 -0.2099699 6.395866 0 0 0 101 84 68 255 
-0.506732 -0.561134 6.445597 0 0 0 169 158 140 255 
0.7403012 -0.2429921 5.999839 0 0 0 137 126 108 255 
-0.5929927 -0.03592002 5.912829 0 0 0 168 157 139 255 
-2.504723 1.198522 4.664751 0 0 0 127 108 91 255 
-0.6739058 2.054827 3.663383 0 0 0 141 130 112 255 
-0.7669908 1.455144 4.467111 0 0 0 140 123 105 255 
-0.7772592 -0.3715643 6.382092 0 0 0 124 107 89 255 
-2.675629 0.7434109 5.300122 0 0 0 126 103 85 255 
-0.8788555 -0.1042972 6.045589 0 0 0 166 154 140 255 
-1.253077 1.078749 4.760503 0 0 0 157 141 125 255 
0.3971807 0.7836161 5.44359 0 0 0 130 126 123 255 
-1.290199 -0.6725768 6.624101 0 0 0 164 152 138 255 
-1.427202 0.5265418 5.413363 0 0 0 115 98 88 255 
-0.9208366 -0.2663776 6.275324 0 0 0 149 133 117 255 
1.345729 1.715389 3.914196 0 0 0 148 132 116 255 
-1.721569 0.6582149 5.107154 0 0 0 154 139 120 255 
-1.745697 -0.31377 6.222665 0 0 0 161 146 127 255 
-2.634339 1.24746 4.538425 0 0 0 151 133 113 255 
-2.096935 -0.26941 6.097952 0 0 0 139 122 104 255 
-1.937282 1.36666 4.668341 0 0 0 118 106 94 255 
-2.656753 1.019169 5.064478 0 0 0 174 163 149 255 
-0.07938494 -0.6412132 6.478086 0 0 0 177 171 159 255 
-1.946743 1.34263 4.744827 0 0 0 125 108 92 255 
-0.9103999 0.8515755 5.086729 0 0 0 152 135 117 255 
-1.099209 1.441608 4.348672 0 0 0 125 108 90 255 
-2.745934 0.4904365 5.592331 0 0 0 157 140 122 255 
-0.07219509 1.417202 5.08597 0 0 0 197 135 160 255 
-2.135741 1.531514 4.586675 0 0 0 121 102 85 255 
-2.337127 0.8721874 4.950315 0 0 0 132 115 99 255 
0.06185637 -0.1802729 6.190658 0 0 0 167 159 148 255 
-2.431227 0.3541236 5.557001 0 0 0 163 151 137 255 
-2.473687 -0.02275496 5.894344 0 0 0 117 96 77 255 
-1.442318 1.23874 4.626316 0 0 0 124 116 97 255 
-2.610982 0.7029001 5.328506 0 0 0 118 99 82 255 
-0.9611183 0.5854436 5.287753 0 0 0 113 95 75 255 
0.2113677 0.8977199 5.413563 0 0 0 129 128 124 255 
0.9814578 1.577222 4.481021 0 0 0 141 125 109 255 
-2.840554 2.173449 3.543497 0 0 0 168 156 142 255 
-2.657425 2.151377 3.534892 0 0 0 183 171 159 255 
0.4939705 0.7951452 5.411869 0 0 0 133 126 116 255 
-2.905399 0.9827815 4.838182 0 0 0 168 153 132 255 
-2.699286 -0.2784351 6.29716 0 0 0 151 140 122 255 
-0.105443 0.5429274 5.650828 0 0 0 146 134 121 255 
-3.078554 0.526448 5.514644 0 0 0 139 118 99 255 
-0.9527689 1.131023 4.81256 0 0 0 109 90 73 255 
0.2949235 1.812892 4.345628 0 0 0 143 126 108 255 
-3.073879 1.479673 4.486897 0 0 0 138 121 101 255 
1.663742 -0.7367335 6.570592 0 0 0 112 101 83 255 
-3.246434 0.3902613 5.617121 0 0 0 137 118 101 255 
1.340242 -0.5737711 6.210697 0 0 0 126 110 94 255 
1.602981 -0.6092675 6.372149 0 0 0 118 107 89 255 
1.774227 -0.5460212 6.388649 0 0 0 135 127 108 255 
1.760011 -0.5823961 6.439145 0 0 0 104 88 72 255 
-1.18125 -0.4029523 6.362632 0 0 0 123 105 83 255 
1.625308 -0.6347681 6.432967 0 0 0 149 138 120 255 
-1.56435 2.68036 2.934136 0 0 0 117 100 80 255 
1.550547 -0.7087088 6.452541 0 0 0 145 137 118 255 
1.525501 -0.7121745 6.478698 0 0 0 144 133 115 255 
-0.4201128 0.3165578 5.706065 0 0 0 122 106 93 255 
0.3704264 0.1477076 5.821362 0 0 0 156 149 130 255 
1.677362 -0.4373507 6.211828 0 0 0 144 128 112 255 
-2.327173 0.9556106 4.883886 0 0 0 131 114 98 255 
-2.239229 2.014114 3.847006 0 0 0 225 198 169 255 
0.4500096 -0.7414127 6.296641 0 0 0 175 167 153 255 
0.6453961 -0.1632212 5.938444 0 0 0 154 145 130 255 
-0.1934619 -0.7670663 6.625259 0 0 0 137 126 106 255 
-0.7971981 2.039539 3.727556 0 0 0 158 150 137 255 
0.4256984 -0.755397 6.334752 0 0 0 151 142 127 255 
-3.062615 1.051368 4.795952 0 0 0 166 155 137 255 
-0.2004891 -0.788788 6.584873 0 0 0 137 126 106 255 
1.482137 -0.7253708 6.466504 0 0 0 153 142 122 255 
-0.6190147 0.4930045 5.61718 0 0 0 141 129 115 255 
0.3940175 -0.7143838 6.289639 0 0 0 163 154 139 255 
-0.6542696 1.095058 5.041599 0 0 0 143 125 108 255 
-0.6843041 1.074207 5.04922 0 0 0 112 91 74 255 
-1.215368 0.3353214 5.61173 0 0 0 159 140 125 255 
-0.6995589 -0.1906234 6.208099 0 0 0 145 136 121 255 
-2.742393 0.4764819 5.574313 0 0 0 154 137 119 255 
-0.7176951 -0.2981058 6.270691 0 0 0 123 107 91 255 
-1.342041 -0.4570136 6.412236 0 0 0 152 141 123 255 
-0.7589438 1.43422 4.544766 0 0 0 98 81 62 255 
-0.7795647 1.479108 4.436215 0 0 0 114 97 79 255 
-0.8177963 -0.1332397 6.131653 0 0 0 123 108 89 255 
-2.941157 1.393689 4.514476 0 0 0 142 125 105 255 
-1.876772 1.473782 4.520443 0 0 0 175 167 154 255 
-0.8273522 -0.03768886 5.928677 0 0 0 134 117 99 255 
-2.934811 1.97594 3.755935 0 0 0 146 129 109 255 
-0.84964 -0.00112327 5.886296 0 0 0 118 101 83 255 
-0.8573086 1.990422 3.731291 0 0 0 137 125 113 255 
-3.042187 0.8602165 5.092089 0 0 0 118 100 80 255 
-0.8687446 2.200381 3.566036 0 0 0 167 159 148 255 
-1.852816 0.01051314 5.843912 0 0 0 157 145 131 255 
-0.9007536 -0.1380926 6.121971 0 0 0 170 154 138 255 
-3.014172 0.766818 5.166041 0 0 0 123 104 87 255 
-0.9130598 -0.05345312 5.93873 0 0 0 148 131 113 255 
-1.024544 0.9450994 5.00021 0 0 0 178 166 150 255 
-3.018044 0.9276455 4.906168 0 0 0 143 125 105 255 
1.007493 -0.3005356 5.989204 0 0 0 127 116 98 255 
-0.7165681 1.467817 4.567128 0 0 0 154 143 123 255 
-1.08209 -0.07391541 5.985525 0 0 0 151 134 116 255 
-2.459226 2.056854 3.842287 0 0 0 154 137 121 255 
-2.628998 1.077808 4.681783 0 0 0 155 136 119 255 
-1.101201 -0.5481528 6.457841 0 0 0 174 166 151 255 
-1.502857 2.310512 3.451449 0 0 0 127 110 92 255 
-1.163461 -0.5265074 6.45034 0 0 0 127 110 92 255 
-2.704208 0.9990563 5.082992 0 0 0 154 137 119 255 
-1.22324 0.4690702 5.467425 0 0 0 133 121 107 255 
-1.484666 0.987206 4.794128 0 0 0 144 133 115 255 
-2.666055 2.146349 3.60393 0 0 0 170 158 143 255 
-1.267946 1.027412 4.818583 0 0 0 134 115 100 255 
-0.4230727 -0.277804 6.288249 0 0 0 129 117 101 255 
-1.321541 0.9996093 4.764562 0 0 0 135 118 102 255 
-1.366661 0.8002861 5.000474 0 0 0 118 99 82 255 
-2.742369 0.6239196 5.306457 0 0 0 111 94 76 255 
-1.394088 0.5956938 5.275838 0 0 0 163 155 142 255 
-1.43369 1.390148 4.335851 0 0 0 150 138 124 255 
-1.449145 1.249291 4.604707 0 0 0 131 120 102 255 
-2.367191 -0.1675097 6.030324 0 0 0 117 98 81 255 
-1.523408 0.1908279 5.633893 0 0 0 154 136 116 255 
0.8035715 0.3715332 5.564214 0 0 0 149 140 125 255 
-1.584235 -0.4778944 6.551735 0 0 0 149 131 119 255 
-1.117358 -0.03186224 5.914628 0 0 0 133 116 100 255 
-2.202109 0.6751724 5.238031 0 0 0 170 158 144 255 
-1.652708 1.354427 4.600369 0 0 0 156 149 133 255 
-2.134961 2.162528 3.491938 0 0 0 110 94 78 255 
-2.81306 0.5131372 5.542642 0 0 0 132 115 97 255 
-1.685865 -0.3372588 6.228367 0 0 0 120 103 85 255 
-1.341458 -0.01737345 5.933136 0 0 0 130 127 122 255 
-2.222451 0.2530147 5.601299 0 0 0 162 146 130 255 
-1.102038 -0.4919733 6.395437 0 0 0 160 143 125 255 
0.7582918 -0.5791304 6.197348 0 0 0 157 146 126 255 
-2.435717 -0.3541151 6.153532 0 0 0 136 125 105 255 
-1.699161 0.007412988 5.73938 0 0 0 166 153 136 255 
0.5624737 1.760681 4.240925 0 0 0 157 141 125 255 
-1.749152 -0.3445686 6.195227 0 0 0 165 150 131 255 
-0.1661039 -0.2067671 6.252583 0 0 0 121 109 97 255 
-1.75529 -0.2725087 6.132497 0 0 0 120 101 84 255 
-2.815062 1.47942 4.339911 0 0 0 166 151 132 255 
-1.744915 1.853393 3.984076 0 0 0 185 176 158 255 
-1.830466 0.9298013 4.888818 0 0 0 155 136 119 255 
-0.5855129 -0.3458191 6.313459 0 0 0 72 67 73 255 
0.711947 1.979873 3.836177 0 0 0 143 126 108 255 
-1.75084 1.372526 4.614089 0 0 0 160 150 140 255 
-1.970016 -0.3064943 6.149693 0 0 0 113 96 78 255 
-2.23349 0.9824279 4.864149 0 0 0 161 144 126 255 
-2.984276 0.8111759 5.145136 0 0 0 170 155 136 255 
-1.984301 1.40723 4.638516 0 0 0 86 69 59 255 
-2.249451 2.127952 3.623343 0 0 0 189 180 170 255 
-1.742229 0.01028237 5.750038 0 0 0 138 121 105 255 
-2.030147 0.08404279 5.769527 0 0 0 155 144 126 255 
0.7034485 -0.3537603 6.063318 0 0 0 153 142 124 255 
-2.891773 0.5761881 5.441866 0 0 0 166 149 129 255 
0.1003846 -0.2053532 6.184621 0 0 0 168 162 150 255 
0.08432004 0.1309616 5.869731 0 0 0 135 123 109 255 
0.5772054 -0.8553005 6.499482 0 0 0 161 153 140 255 
-3.445841 0.7900274 4.984577 0 0 0 176 167 152 255 
-2.170998 0.1706436 5.714541 0 0 0 135 123 107 255 
-2.78359 0.9739761 5.078971 0 0 0 107 90 72 255 
-2.253338 0.6336107 5.321742 0 0 0 124 113 95 255 
-2.255099 0.9794046 4.868317 0 0 0 136 119 101 255 
-3.288206 0.4336523 5.562288 0 0 0 174 158 142 255 
-2.360338 0.7232936 5.346322 0 0 0 163 155 136 255 
-2.847061 -0.2472124 6.291422 0 0 0 120 103 87 255 
1.03795 2.186491 3.582745 0 0 0 136 120 104 255 
-0.185093 -0.2801199 6.272217 0 0 0 111 95 82 255 
-2.460819 1.140243 4.767768 0 0 0 142 123 106 255 
0.6121264 1.701899 4.484635 0 0 0 140 123 107 255 
-2.613895 0.4215517 5.628226 0 0 0 150 135 116 255 
0.2985797 1.988021 3.780838 0 0 0 159 148 130 255 
-2.598763 1.608218 4.28423 0 0 0 184 168 155 255 
-3.060359 0.7935783 5.148194 0 0 0 122 101 82 255 
-1.971745 -0.2259298 6.061033 0 0 0 115 96 79 255 
-2.646193 0.5425335 5.40421 0 0 0 167 156 138 255 
-3.125023 -0.2973218 6.404236 0 0 0 121 104 86 255 
-3.059369 1.640464 4.06117 0 0 0 130 112 92 255 
-2.659983 1.449296 4.319669 0 0 0 173 159 141 255 
-1.95962 0.5292971 5.385414 0 0 0 149 132 114 255 
-2.685195 1.184922 4.61566 0 0 0 113 94 77 255 
-3.138585 0.4945827 5.470951 0 0 0 169 154 135 255 
-0.662831 -0.6728444 6.514324 0 0 0 164 147 127 255 
-2.708813 1.120985 4.718485 0 0 0 163 150 133 255 
-2.700562 1.595107 4.174445 0 0 0 156 141 122 255 
-2.790094 1.016357 5.126771 0 0 0 107 90 72 255 
-2.745705 1.078075 4.841204 0 0 0 177 161 146 255 
-1.685914 -0.3793509 6.260814 0 0 0 167 156 138 255 
-2.803327 0.5217411 5.468671 0 0 0 140 123 105 255 
-2.790315 1.491299 4.507163 0 0 0 131 113 93 255 
-2.838635 0.864987 5.137725 0 0 0 162 145 127 255 
-2.960368 0.8650366 5.12612 0 0 0 163 146 128 255 
-2.836938 1.179432 4.623945 0 0 0 125 106 89 255 
-1.651132 1.885566 3.975911 0 0 0 197 184 169 255 
-2.838707 1.246289 4.575621 0 0 0 158 140 120 255 
-2.811921 1.027566 4.929985 0 0 0 148 125 107 255 
-2.893414 0.5583771 5.552147 0 0 0 135 118 100 255 
-2.925195 0.3416379 5.677055 0 0 0 115 96 79 255 
-2.934106 0.4045709 5.712014 0 0 0 144 125 108 255 
-2.842801 0.3632544 5.690858 0 0 0 153 134 117 255 
-2.907861 1.485574 4.531995 0 0 0 165 150 131 255 
-2.863575 2.207883 3.505623 0 0 0 163 146 128 255 
0.9266948 -0.3474214 6.426882 0 0 0 158 147 130 255 
-2.971198 0.5736395 5.436549 0 0 0 168 155 136 255 
-3.254279 1.085043 4.778759 0 0 0 170 154 131 255 
-2.970041 -7.613953e-05 5.907476 0 0 0 115 96 81 255 
-3.121853 0.8624821 4.922686 0 0 0 179 161 147 255 
-2.928218 2.064337 3.702195 0 0 0 126 109 91 255 
-3.303401 0.884803 4.963037 0 0 0 151 140 122 255 
-2.980308 1.126194 4.679859 0 0 0 158 147 127 255 
-3.195224 0.6521167 5.262611 0 0 0 143 125 105 255 
-2.999556 2.147853 3.511313 0 0 0 129 107 89 255 
-3.219477 -0.1652167 6.314071 0 0 0 148 137 119 255 
-3.365008 0.1837422 5.806187 0 0 0 136 118 98 255 
-3.01351 1.607666 4.020863 0 0 0 141 124 106 255 
1.229922 0.06433046 5.734135 0 0 0 158 149 134 255 
-3.095378 0.5073971 5.46735 0 0 0 168 149 132 255 
-3.416591 0.4875309 5.474902 0 0 0 178 162 146 255 
-3.126573 0.1401784 5.803708 0 0 0 121 102 85 255 
-3.16348 -0.3784452 6.428418 0 0 0 150 133 115 255 
-3.143997 0.7335229 5.147149 0 0 0 166 149 131 255 
-0.7802872 1.474176 4.431553 0 0 0 114 97 79 255 
-1.313485 2.277067 3.501781 0 0 0 104 103 85 255 
-3.178872 0.7984693 5.061147 0 0 0 149 137 118 255 
-2.582463 1.408598 4.522868 0 0 0 167 147 120 255 
-3.175299 2.078751 3.574881 0 0 0 125 107 87 255 
-0.6843041 1.074207 5.04922 0 0 0 112 91 74 255 
-3.268494 -0.1010431 6.049768 0 0 0 151 132 115 255 
-2.638815 -0.4381968 6.377507 0 0 0 125 108 90 255 
-0.3311844 0.5493466 5.635781 0 0 0 96 83 73 255 
-0.4799992 1.230171 5.103036 0 0 0 113 90 74 255 
0.2789403 0.06874774 5.904221 0 0 0 123 112 94 255 
-0.5377715 1.102449 5.147813 0 0 0 146 125 108 255 
0.250071 0.8261983 5.526896 0 0 0 93 84 75 255 
-1.313414 0.9396493 4.895218 0 0 0 111 92 75 255 
-0.5271757 0.3273599 5.658562 0 0 0 114 97 87 255 
-0.2101098 0.1078274 5.837214 0 0 0 159 142 124 255 
-2.725702 0.7775316 5.226738 0 0 0 128 111 91 255 
1.376729 -0.2552826 6.073332 0 0 0 104 88 72 255 
-2.558749 -0.2544921 6.3671 0 0 0 131 120 102 255 
-2.523468 -0.6166205 6.554938 0 0 0 152 137 118 255 
1.855835 -0.1452636 6.065657 0 0 0 120 110 98 255 
1.637292 1.45989 4.289982 0 0 0 103 86 70 255 
-2.531095 -0.3046733 6.2734 0 0 0 159 147 135 255 
1.507589 0.00102586 5.862347 0 0 0 141 130 110 255 
-2.45053 1.026434 4.881703 0 0 0 171 161 149 255 
1.333229 -0.6645352 6.275787 0 0 0 116 105 87 255 
-2.827017 0.6694555 5.26113 0 0 0 114 97 79 255 
1.243766 -0.1282353 5.831374 0 0 0 153 142 122 255 
1.222197 -0.296926 6.056295 0 0 0 113 97 81 255 
-2.551378 0.8446942 5.236839 0 0 0 110 93 75 255 
1.224705 1.687096 4.206076 0 0 0 97 81 65 255 
-1.204849 0.207254 5.71081 0 0 0 152 135 117 255 
1.090896 -0.2926936 6.021449 0 0 0 160 148 133 255 
-2.560276 0.4907089 5.424166 0 0 0 128 111 93 255 
-0.5547016 -0.2820456 6.253124 0 0 0 99 98 96 255 
-1.161045 0.4214905 5.513292 0 0 0 135 119 103 255 
1.035439 1.838165 3.883301 0 0 0 95 79 63 255 
-1.463887 -0.05284412 5.989082 0 0 0 147 141 129 255 
1.031287 -0.1667166 5.903321 0 0 0 118 107 89 255 
0.2789403 0.06874774 5.904221 0 0 0 123 112 94 255 
0.9898787 -0.4087355 6.083879 0 0 0 131 123 104 255 
-3.193773 0.2328364 5.75606 0 0 0 157 138 121 255 
0.8234076 2.031547 3.794869 0 0 0 92 73 58 255 
-2.154414 0.1591748 5.670224 0 0 0 153 141 127 255 
-2.047322 0.6064939 5.243699 0 0 0 136 121 102 255 
0.7457612 -0.6657065 6.284992 0 0 0 119 104 85 255 
0.7429367 1.747213 4.125826 0 0 0 151 134 116 255 
-0.7458302 0.3423589 5.716872 0 0 0 103 87 71 255 
-3.167403 2.036159 3.707026 0 0 0 162 149 130 255 
-0.989694 0.1081952 5.790806 0 0 0 149 141 128 255 
0.7178002 0.07763413 5.752912 0 0 0 121 110 92 255 
0.7205873 0.3090483 5.640739 0 0 0 148 137 119 255 
-1.396157 1.453642 4.215118 0 0 0 156 139 121 255 
0.6749418 -0.1377713 5.890996 0 0 0 135 123 109 255 
-1.216895 -0.2390055 6.230811 0 0 0 147 130 112 255 
0.5887661 -0.1701056 5.92834 0 0 0 112 101 83 255 
-2.028324 -0.2682829 6.046387 0 0 0 151 132 117 255 
0.591697 1.843908 3.969846 0 0 0 104 87 69 255 
-2.558611 1.329747 4.468666 0 0 0 144 122 99 255 
0.6108287 0.3648751 5.632834 0 0 0 129 118 100 255 
-0.9315693 2.164773 3.660394 0 0 0 162 157 143 255 
0.5758543 0.6794549 5.448236 0 0 0 127 117 105 255 
0.5444271 0.2586762 5.670484 0 0 0 159 147 133 255 
-0.4487979 1.608369 4.518705 0 0 0 105 87 65 255 
0.4719172 -0.1109541 5.902074 0 0 0 129 118 100 255 
-0.8358032 -0.1000913 5.964912 0 0 0 168 160 141 255 
0.5100273 0.5953011 5.570612 0 0 0 117 107 95 255 
-0.401078 -0.6480026 6.497521 0 0 0 138 126 112 255 
0.3609505 -0.1954924 6.005595 0 0 0 137 129 110 255 
-2.378052 0.2692184 5.704619 0 0 0 107 94 77 255 
0.2482356 0.8211016 5.520279 0 0 0 93 84 75 255 
1.313922 1.739163 3.861692 0 0 0 112 96 80 255 
-1.692656 0.6115445 5.28012 0 0 0 106 89 71 255 
-2.4047 0.9464466 4.948536 0 0 0 148 138 123 255 
0.1911539 -0.1977054 6.087196 0 0 0 148 139 122 255 
-2.805715 0.8821455 5.121134 0 0 0 154 135 118 255 
0.2069035 0.9246016 5.397601 0 0 0 95 88 78 255 
0.10612 0.06693663 5.926345 0 0 0 130 119 101 255 
1.77008 1.434176 4.266176 0 0 0 97 81 65 255 
-1.086033 -0.5432213 6.438145 0 0 0 148 133 114 255 
0.1062384 1.086162 5.312116 0 0 0 133 129 120 255 
1.816301 1.341501 4.331021 0 0 0 134 118 105 255 
-2.462312 1.249955 4.684906 0 0 0 105 86 69 255 
-2.604044 0.5119791 5.553085 0 0 0 171 155 141 255 
1.190875 -0.6978071 6.264435 0 0 0 111 99 87 255 
0.0772423 0.782151 5.541412 0 0 0 95 82 73 255 
-2.8282 1.426338 4.455986 0 0 0 166 151 132 255 
-0.009113885 0.1546085 5.857441 0 0 0 138 127 109 255 
-2.833272 1.145824 4.626459 0 0 0 130 112 92 255 
-0.07490756 -0.6977175 6.55063 0 0 0 155 146 131 255 
-0.05415449 0.06009674 5.971376 0 0 0 156 145 127 255 
1.246404 0.0452995 5.746794 0 0 0 126 114 100 255 
-1.409029 0.3141931 5.584128 0 0 0 134 116 96 255 
-1.743471 -0.06637423 5.911316 0 0 0 157 141 125 255 
-2.995065 0.8457237 5.12851 0 0 0 137 118 101 255 
-0.3845326 -0.7314394 6.619385 0 0 0 175 167 154 255 
1.675964 -0.03506796 6.017151 0 0 0 108 95 86 255 
-1.739326 -0.2040472 6.087347 0 0 0 159 141 121 255 
1.680953 -0.2928681 6.129185 0 0 0 108 93 74 255 
-2.093377 2.669649 3.009419 0 0 0 107 89 77 255 
-0.3592718 1.513528 4.893303 0 0 0 144 125 108 255 
-2.91732 1.555668 4.315191 0 0 0 121 104 85 255 
-0.4096085 -0.5860569 6.433351 0 0 0 135 118 100 255 
-1.731212 0.9011503 4.875642 0 0 0 143 126 108 255 
-1.690173 0.4721485 5.418831 0 0 0 125 108 88 255 
-0.4250667 -0.6783208 6.551711 0 0 0 150 136 123 255 
-2.563393 1.401334 4.511745 0 0 0 180 163 145 255 
-0.4576682 1.055998 5.258678 0 0 0 147 128 113 255 
-0.4841042 0.4893882 5.686339 0 0 0 123 111 99 255 
-0.5119634 -0.004804585 5.883436 0 0 0 126 109 93 255 
-2.571994 1.268108 4.554333 0 0 0 157 139 121 255 
-0.5353691 -0.1750857 6.201691 0 0 0 117 103 90 255 
-2.821286 1.585424 4.095554 0 0 0 151 135 110 255 
-2.618484 -0.1805069 6.00493 0 0 0 131 114 96 255 
-3.219595 0.4755523 5.630035 0 0 0 158 139 124 255 
-1.335045 -0.6280881 6.601465 0 0 0 130 114 98 255 
-2.618307 1.173397 4.652 0 0 0 135 116 99 255 
-2.999556 2.147853 3.511313 0 0 0 129 107 89 255 
-1.277908 0.3900471 5.531591 0 0 0 120 103 87 255 
-2.893414 0.5583771 5.552147 0 0 0 135 118 100 255 
-2.893414 0.5583771 5.552147 0 0 0 135 118 100 255 
-2.243878 -0.3965764 6.234076 0 0 0 165 150 131 255 
-2.698513 1.585928 4.166202 0 0 0 156 141 122 255 
-2.238427 2.134081 3.571345 0 0 0 139 124 105 255 
-0.8567581 0.4824206 5.60279 0 0 0 165 149 136 255 
-2.1519 1.459955 4.589806 0 0 0 108 89 72 255 
-2.724829 1.419625 4.45752 0 0 0 134 117 97 255 
-2.072596 -0.2887492 6.110957 0 0 0 158 141 123 255 
-2.326623 0.7672588 5.207189 0 0 0 166 156 144 255 
-1.755597 -0.2746995 6.12967 0 0 0 120 101 84 255 
-0.9349378 1.387125 4.529659 0 0 0 150 131 114 255 
-1.723804 1.142751 4.773558 0 0 0 144 127 111 255 
-2.333202 1.628894 4.338217 0 0 0 136 119 100 255 
-1.695032 -0.03539738 5.862322 0 0 0 129 111 89 255 
-0.8773537 2.173286 3.647345 0 0 0 150 137 128 255 
-1.675512 1.424332 4.447817 0 0 0 142 130 116 255 
0.8221442 -0.7128985 6.30525 0 0 0 131 120 102 255 
-1.393805 0.5745628 5.250547 0 0 0 163 155 142 255 
-1.393899 0.5757645 5.252175 0 0 0 163 155 142 255 
0.6160092 -0.1383321 5.900238 0 0 0 161 149 135 255 
-1.046967 1.47858 4.326871 0 0 0 125 109 93 255 
0.8879209 0.4460772 5.539433 0 0 0 155 146 131 255 
-1.019171 1.391737 4.446041 0 0 0 159 142 124 255 
-0.941661 -0.3456894 6.327427 0 0 0 121 104 86 255 
-0.7795647 1.479108 4.436215 0 0 0 114 97 79 255 
0.6511368 1.527286 4.820185 0 0 0 100 72 51 255 
1.036068 -0.3794589 6.065874 0 0 0 117 109 90 255 
-0.7563239 1.452337 4.562989 0 0 0 98 81 62 255 
-0.7181492 -0.3041666 6.261586 0 0 0 123 107 91 255 
