ply
format ascii 1.0
comment VCGLIB generated
element vertex 944
property float x
property float y
property float z
property float nx
property float ny
property float nz
property uchar red
property uchar green
property uchar blue
property uchar alpha
element face 0
property list uchar int vertex_indices
end_header
0.5453216 0.6390301 4.558261 0 0 0 112 111 95 255 
0.1289245 0.9259402 4.189657 0 0 0 135 71 80 255 
-0.4667267 2.27511 3.478673 0 0 0 199 197 194 255 
0.4520564 0.2833126 3.754974 0 0 0 111 112 101 255 
0.481041 0.9832042 4.377619 0 0 0 123 136 130 255 
0.421619 0.9829521 4.307723 0 0 0 183 186 180 255 
0.1174012 -0.6769605 3.0336 0 0 0 133 126 110 255 
0.4108776 1.211554 4.490458 0 0 0 166 172 164 255 
0.756928 -2.357761 8.213897 0 0 0 115 116 105 255 
0.547699 1.054531 4.543252 0 0 0 171 176 167 255 
1.310464 1.524983 4.320455 0 0 0 98 86 74 255 
-3.280728 0.2363296 5.762471 0 0 0 152 152 144 255 
1.433618 2.352059 3.131082 0 0 0 154 144 139 255 
-5.409622 -1.332409 7.885972 0 0 0 135 136 122 255 
-1.410441 2.986547 2.661022 0 0 0 126 109 91 255 
-1.494165 1.356918 4.428504 0 0 0 162 163 158 255 
1.726628 2.689737 2.735717 0 0 0 116 100 84 255 
1.912262 2.699846 2.767202 0 0 0 96 83 66 255 
5.287117 -3.783371 9.477991 0 0 0 114 113 112 255 
1.137396 0.2581793 5.596767 0 0 0 171 167 156 255 
2.828453 1.784441 3.901839 0 0 0 152 139 123 255 
-2.305914 0.6834988 5.425581 0 0 0 171 169 157 255 
0.4702891 -0.2734976 3.770539 0 0 0 147 145 133 255 
1.387241 3.170472 2.227908 0 0 0 96 75 54 255 
1.970319 2.558545 2.960989 0 0 0 144 138 122 255 
-0.06832999 1.109507 4.645332 0 0 0 150 152 139 255 
2.208451 1.348302 4.397529 0 0 0 0 0 0 255 
0.4185559 0.1920203 3.71136 0 0 0 152 153 144 255 
0.5402682 0.671172 5.568226 0 0 0 173 170 161 255 
0.2457486 1.520995 4.732189 0 0 0 133 71 79 255 
0.5352826 0.2750558 4.020407 0 0 0 142 93 106 255 
0.1075809 1.241666 4.50562 0 0 0 161 144 116 255 
0.3093163 -0.3095597 3.254158 0 0 0 145 164 161 255 
0.1880047 -0.1513827 3.061997 0 0 0 121 62 68 255 
-1.603658 1.667686 4.173098 0 0 0 206 178 154 255 
-2.455702 1.360395 4.583383 0 0 0 245 233 209 255 
-0.2924646 1.712902 4.851286 0 0 0 162 148 135 255 
-2.876336 0.9700363 4.902561 0 0 0 136 130 118 255 
0.06701361 -0.2333815 6.20195 0 0 0 173 173 163 255 
-0.09415147 1.855944 3.878807 0 0 0 169 163 151 255 
5.305895 -3.777152 9.796538 0 0 0 103 94 85 255 
0.1679158 0.2176492 3.536261 0 0 0 139 136 120 255 
-1.33571 1.614172 4.281736 0 0 0 162 143 129 255 
2.137845 0.1199874 5.558853 0 0 0 0 0 0 255 
-0.9719249 -3.924676 9.896304 0 0 0 186 195 192 255 
-4.941267 -0.8741196 7.235517 0 0 0 155 152 145 255 
-0.3135351 1.621159 4.548633 0 0 0 159 148 128 255 
-1.121489 -3.54518 9.582913 0 0 0 183 188 184 255 
-4.941267 -0.8741196 7.235517 0 0 0 155 152 145 255 
-1.234751 0.5121904 5.364771 0 0 0 160 157 145 255 
0.1501805 -0.3176293 3.080687 0 0 0 146 154 141 255 
0.0313589 1.129037 5.412824 0 0 0 103 90 79 255 
3.116265 1.765507 3.777815 0 0 0 100 91 74 255 
-2.978055 -0.9140156 6.86805 0 0 0 166 163 153 255 
0.2327492 0.2709938 3.585553 0 0 0 106 98 77 255 
0.6332577 -1.005727 6.60522 0 0 0 133 127 115 255 
0.51943 0.2256723 3.963698 0 0 0 216 138 164 255 
-0.7601393 1.887113 3.99231 0 0 0 194 181 164 255 
-0.7572874 1.886255 3.990046 0 0 0 194 181 164 255 
0.52338 0.2275281 3.954414 0 0 0 216 138 164 255 
-2.679144 1.056567 4.787039 0 0 0 164 164 156 255 
1.127681 -1.595237 7.286838 0 0 0 166 157 142 255 
-2.961794 -0.908673 6.84841 0 0 0 166 163 153 255 
-5.674598 -1.863391 8.203548 0 0 0 98 89 75 255 
-5.702089 -1.871316 8.230356 0 0 0 98 89 75 255 
0.4654464 -0.2321644 3.40497 0 0 0 145 148 127 255 
0.6648701 1.611287 4.817522 0 0 0 121 107 81 255 
0.5613058 0.7357602 4.589754 0 0 0 180 184 172 255 
0.5743951 0.8251629 4.506832 0 0 0 190 120 133 255 
-0.7440821 1.471922 4.666037 0 0 0 119 102 84 255 
0.2204777 1.135142 4.371528 0 0 0 185 120 124 255 
-1.256176 1.069285 4.802227 0 0 0 0 0 0 255 
2.487978 0.7302833 5.072101 0 0 0 0 0 0 255 
2.789929 1.638409 3.90191 0 0 0 0 0 0 255 
0.1470335 0.04502968 3.309851 0 0 0 94 55 51 255 
0.9609753 2.822073 2.813477 0 0 0 103 97 76 255 
2.05897 1.51929 3.988957 0 0 0 133 124 107 255 
0.5672083 0.7027168 4.395079 0 0 0 183 117 134 255 
-2.111446 1.445405 4.637317 0 0 0 193 179 166 255 
0.5340362 0.3232308 4.144314 0 0 0 158 110 123 255 
0.4562731 0.1999747 4.339459 0 0 0 155 157 143 255 
-0.1044609 1.12639 4.808467 0 0 0 213 141 176 255 
0.242439 0.1861296 3.513737 0 0 0 156 155 137 255 
0.4782261 -0.5333017 3.457138 0 0 0 149 147 138 255 
0.1354924 0.1252843 3.439413 0 0 0 141 137 125 255 
-2.539525 1.10333 4.782704 0 0 0 127 127 119 255 
0.1217629 0.3224979 3.636456 0 0 0 100 60 52 255 
0.4371245 0.2636105 3.709317 0 0 0 140 143 136 255 
0.6529648 0.701288 5.396551 0 0 0 153 151 138 255 
0.5610713 1.066642 4.926223 0 0 0 170 110 120 255 
2.317041 2.199459 3.343387 0 0 0 109 96 80 255 
1.439221 2.767065 2.819341 0 0 0 93 84 67 255 
-4.2549 -0.6492016 6.884225 0 0 0 147 141 129 255 
-2.398023 1.996848 3.887937 0 0 0 204 183 156 255 
0.04237951 -0.8986229 6.615774 0 0 0 140 137 122 255 
0.4969389 0.04909826 4.058298 0 0 0 145 141 129 255 
-2.373582 1.311783 4.611785 0 0 0 199 190 173 255 
-2.246034 1.416217 4.554548 0 0 0 0 0 0 255 
0.8084253 0.5626083 5.422891 0 0 0 152 151 134 255 
0.6119754 0.9772201 4.692639 0 0 0 167 121 124 255 
0.1524099 1.256367 4.505601 0 0 0 147 92 97 255 
-0.2602379 1.587267 4.8086 0 0 0 251 248 228 255 
-0.02068511 1.481195 4.904837 0 0 0 152 139 131 255 
-0.227805 1.624012 4.765278 0 0 0 245 228 208 255 
0.1360691 1.655961 4.859961 0 0 0 154 142 134 255 
-0.1743989 2.334781 3.526439 0 0 0 0 0 0 255 
2.358527 1.389373 4.046566 0 0 0 127 110 92 255 
1.617369 2.059347 3.556402 0 0 0 130 123 110 255 
1.789769 2.623801 3.061982 0 0 0 0 0 0 255 
2.446619 2.397948 3.144584 0 0 0 83 81 60 255 
1.80156 2.853545 2.652008 0 0 0 89 74 55 255 
0.5849118 0.8351647 4.479507 0 0 0 173 103 114 255 
-1.28351 2.206757 3.703771 0 0 0 166 144 121 255 
0.494379 -0.1992722 3.613104 0 0 0 214 137 157 255 
0.4108012 0.7395199 4.085102 0 0 0 160 170 159 255 
0.4288606 1.017616 4.312207 0 0 0 83 97 88 255 
0.5981449 1.126093 5.004826 0 0 0 121 106 83 255 
1.797828 2.509253 3.103447 0 0 0 128 115 99 255 
1.633519 2.627974 2.939057 0 0 0 107 87 80 255 
0.04900553 -0.3147078 3.098515 0 0 0 87 87 88 255 
0.1582846 -0.1908512 3.137528 0 0 0 109 59 62 255 
0.293687 0.7609815 4.040243 0 0 0 0 0 0 255 
0.5244845 -0.1024103 3.565254 0 0 0 194 109 132 255 
0.5120159 -0.1476547 3.571838 0 0 0 136 66 86 255 
0.1078108 0.9279882 4.221234 0 0 0 175 160 145 255 
-0.7099708 -3.993593 9.898052 0 0 0 195 201 201 255 
0.441783 -0.231459 3.410611 0 0 0 113 106 87 255 
0.5432539 -0.1958631 3.412144 0 0 0 182 109 129 255 
0.1607333 0.1062275 3.418359 0 0 0 157 144 129 255 
0.5237932 -0.154851 3.753138 0 0 0 152 150 137 255 
0.5653231 0.7655662 4.594856 0 0 0 188 193 173 255 
0.06626524 0.1983422 3.533076 0 0 0 0 0 0 255 
0.5314325 0.1246227 3.880733 0 0 0 191 129 154 255 
0.5769039 0.8520551 4.672463 0 0 0 188 174 163 255 
0.558533 0.6912839 4.600232 0 0 0 146 139 128 255 
0.5780914 0.7670533 4.5304 0 0 0 175 116 132 255 
-0.8381809 1.443167 4.556847 0 0 0 159 147 132 255 
0.5621437 0.8011721 4.389761 0 0 0 139 103 99 255 
0.5980124 1.063394 4.715344 0 0 0 158 92 104 255 
2.214691 0.6697074 5.173057 0 0 0 128 120 101 255 
1.434915 1.810859 3.754961 0 0 0 171 162 145 255 
-0.1988128 0.4500072 4.085765 0 0 0 143 90 113 255 
0.1696339 1.393147 4.505824 0 0 0 146 84 87 255 
0.8791496 2.176269 3.631946 0 0 0 164 155 140 255 
1.221635 2.423692 3.121532 0 0 0 105 98 82 255 
2.776831 1.686819 4.063305 0 0 0 131 124 108 255 
1.966919 2.512566 3.134942 0 0 0 96 88 65 255 
2.132243 2.448511 3.164316 0 0 0 92 80 66 255 
1.981976 2.579432 3.000922 0 0 0 105 98 79 255 
0.4949914 1.605123 4.926016 0 0 0 135 136 122 255 
0.2219108 1.572118 4.495754 0 0 0 236 227 212 255 
2.124053 2.439906 3.156028 0 0 0 123 114 97 255 
0.9036326 2.958217 2.601642 0 0 0 150 141 126 255 
2.744187 1.7028 4.019937 0 0 0 148 139 124 255 
1.291853 2.363646 3.258492 0 0 0 0 0 0 255 
1.867117 1.97373 3.571584 0 0 0 130 117 101 255 
0.3076864 1.48249 4.6059 0 0 0 150 140 128 255 
2.235969 1.349071 4.269227 0 0 0 155 142 125 255 
1.403081 2.334825 3.136762 0 0 0 133 124 107 255 
0.9075477 1.752562 4.137203 0 0 0 148 141 125 255 
2.214691 0.6697074 5.173057 0 0 0 128 120 101 255 
0.1609859 1.508846 4.755914 0 0 0 126 87 92 255 
-0.195375 1.550778 5.024 0 0 0 181 162 145 255 
-1.063118 2.11857 3.75054 0 0 0 161 158 150 255 
2.248397 1.015334 4.52733 0 0 0 148 138 128 255 
0.2553329 1.281035 4.510645 0 0 0 161 90 103 255 
0.2661142 1.421747 4.643704 0 0 0 137 76 90 255 
0.277763 1.604548 4.816187 0 0 0 125 63 74 255 
2.273774 1.282474 4.361191 0 0 0 131 114 94 255 
2.59816 1.52879 4.190807 0 0 0 147 136 116 255 
1.644986 2.034415 3.566419 0 0 0 152 145 129 255 
1.604264 2.072665 3.567064 0 0 0 153 146 130 255 
1.78393 2.110765 3.378227 0 0 0 157 150 132 255 
2.766223 1.693081 4.106 0 0 0 113 101 87 255 
2.587528 2.126999 3.561271 0 0 0 103 90 71 255 
0.5833215 1.126972 4.74879 0 0 0 172 108 120 255 
0.1610107 0.5325456 3.811424 0 0 0 98 57 45 255 
-0.06224029 0.08342275 3.48365 0 0 0 154 152 139 255 
0.1035768 0.08901426 3.410613 0 0 0 104 62 63 255 
0.532474 0.02189783 3.70462 0 0 0 214 138 166 255 
0.3937924 0.2339921 3.665824 0 0 0 110 112 99 255 
0.1240358 0.3917064 3.758825 0 0 0 114 77 65 255 
0.479593 0.2544168 3.782549 0 0 0 175 191 181 255 
0.537844 0.2980865 3.99986 0 0 0 214 136 160 255 
0.452462 -0.1349053 5.914925 0 0 0 143 139 128 255 
-0.1218308 0.7297896 4.294555 0 0 0 140 129 115 255 
0.3215145 0.6617052 3.878889 0 0 0 178 172 146 255 
0.5459297 0.5142115 4.106006 0 0 0 157 117 117 255 
-0.5036843 0.8996525 5.129445 0 0 0 0 0 0 255 
0.2221403 0.4954739 5.568616 0 0 0 158 159 145 255 
0.6171162 0.2924608 5.658412 0 0 0 178 174 163 255 
0.2335939 0.4953545 5.677229 0 0 0 134 130 121 255 
0.960568 0.1301526 5.848772 0 0 0 143 131 119 255 
1.997865 -0.4361868 6.264859 0 0 0 122 115 107 255 
0.6592043 0.5120719 5.48923 0 0 0 173 169 158 255 
-0.1147539 0.7251564 4.430763 0 0 0 173 124 148 255 
1.06479 0.3630692 5.502352 0 0 0 150 146 135 255 
0.5784477 0.8785942 4.695985 0 0 0 183 171 159 255 
1.884981 0.0137167 5.90229 0 0 0 174 170 159 255 
-0.7354602 1.8039 4.057373 0 0 0 171 163 152 255 
0.5733004 0.9714808 5.237195 0 0 0 159 146 130 255 
0.5262494 0.01934771 3.717309 0 0 0 214 138 166 255 
0.5605413 -0.5157866 6.146234 0 0 0 159 157 145 255 
0.2300449 0.6930036 3.993092 0 0 0 161 159 146 255 
-0.788783 1.446139 4.615303 0 0 0 98 82 66 255 
-1.160094 1.383988 4.47269 0 0 0 167 159 148 255 
0.4182743 0.842825 5.34893 0 0 0 174 167 157 255 
0.5954959 0.9498158 4.590647 0 0 0 167 99 112 255 
0.4164993 1.094506 4.410928 0 0 0 169 174 167 255 
0.4205665 1.121563 4.485502 0 0 0 169 171 157 255 
0.5748887 0.9710202 5.230545 0 0 0 159 146 130 255 
-0.3214869 1.508455 4.829197 0 0 0 178 166 152 255 
0.8475866 0.96843 5.228597 0 0 0 141 135 119 255 
0.6169925 1.281197 4.964338 0 0 0 175 109 113 255 
0.2813814 1.600143 4.806055 0 0 0 125 63 74 255 
0.2259456 1.70452 4.846472 0 0 0 127 119 108 255 
2.519007 0.5061654 5.248964 0 0 0 115 102 86 255 
1.40655 1.596963 4.208961 0 0 0 137 132 120 255 
1.786021 1.525401 4.161602 0 0 0 129 122 106 255 
2.59816 1.52879 4.190807 0 0 0 147 136 116 255 
1.959208 2.523182 3.122414 0 0 0 124 116 96 255 
0.1185596 0.4812598 3.753051 0 0 0 140 109 89 255 
-2.699181 1.208659 4.634029 0 0 0 204 195 180 255 
0.5375398 0.08814481 3.985131 0 0 0 146 144 131 255 
0.4663756 0.1434834 3.673492 0 0 0 137 149 137 255 
0.5186487 0.04085862 3.759321 0 0 0 204 128 156 255 
0.1643613 0.1998801 3.453076 0 0 0 137 128 121 255 
0.5825611 1.296168 4.807587 0 0 0 156 161 146 255 
0.5214686 0.0398735 3.75849 0 0 0 204 128 156 255 
0.5219127 0.03915729 3.758039 0 0 0 204 128 156 255 
0.5668879 0.5992926 4.301182 0 0 0 183 111 131 255 
0.2254126 1.227955 4.461446 0 0 0 153 90 98 255 
0.3627699 1.184766 4.422333 0 0 0 158 150 121 255 
-0.7278247 1.910818 3.917343 0 0 0 172 165 149 255 
0.791522 2.196064 3.65273 0 0 0 145 145 131 255 
0.01606116 1.696948 5.010413 0 0 0 160 151 142 255 
0.2415215 1.52317 4.743058 0 0 0 146 77 90 255 
0.5568937 0.6911908 4.401543 0 0 0 212 137 157 255 
0.4274164 1.050854 4.341844 0 0 0 125 130 123 255 
-0.4799962 -0.6351161 6.565475 0 0 0 172 166 152 255 
-0.2333013 -0.06562287 6.153111 0 0 0 104 102 96 255 
-0.9223033 -0.149869 6.227267 0 0 0 171 159 145 255 
0.4204543 0.7685375 4.133212 0 0 0 144 148 142 255 
2.236119 1.344393 4.319982 0 0 0 63 55 42 255 
0.3763916 1.217502 4.467682 0 0 0 131 135 115 255 
0.3897659 1.289927 4.563343 0 0 0 135 137 128 255 
-2.130657 1.455935 4.54049 0 0 0 143 132 126 255 
0.4530174 0.8537846 4.233557 0 0 0 152 156 151 255 
1.368295 1.788347 3.785238 0 0 0 154 147 139 255 
2.020823 -0.5226803 6.432081 0 0 0 113 110 100 255 
0.5069599 0.8129534 4.27189 0 0 0 82 96 92 255 
0.5063197 1.018004 4.4465 0 0 0 127 136 127 255 
0.3563633 0.993629 4.27545 0 0 0 112 114 98 255 
0.8947885 2.16687 3.644167 0 0 0 150 143 127 255 
0.08998881 0.3226511 3.67155 0 0 0 136 89 84 255 
0.418466 0.7521797 4.148181 0 0 0 102 109 104 255 
0.1165556 0.09222544 3.406906 0 0 0 95 55 62 255 
1.551211 2.027931 3.586684 0 0 0 127 121 114 255 
-0.02164846 0.9241381 4.297654 0 0 0 153 160 154 255 
-3.649078 -1.50634 7.256805 0 0 0 134 125 110 255 
-3.872547 0.1107267 5.807601 0 0 0 153 154 149 255 
-1.337106 -4.157498 10.41741 0 0 0 190 195 190 255 
-5.54635 -1.06882 7.333786 0 0 0 105 91 85 255 
-1.429413 0.5559502 5.459104 0 0 0 153 151 138 255 
-0.3556973 2.314507 3.460348 0 0 0 125 112 96 255 
1.43449 2.777578 2.832772 0 0 0 93 84 67 255 
0.1250218 0.5927269 3.924236 0 0 0 103 62 56 255 
0.3030388 0.2639631 3.594347 0 0 0 132 131 113 255 
0.1183038 0.1850338 3.482228 0 0 0 167 110 109 255 
-2.386761 1.295633 4.618385 0 0 0 149 140 123 255 
-1.283753 -1.953825 7.784626 0 0 0 138 131 119 255 
0.6254105 1.06034 4.695754 0 0 0 203 137 149 255 
1.410833 2.173213 3.47396 0 0 0 116 107 92 255 
0.5118071 -0.1383632 3.643029 0 0 0 218 140 156 255 
0.4830524 -0.289323 3.413979 0 0 0 198 123 144 255 
0.5154572 0.2634523 3.865239 0 0 0 171 162 145 255 
0.5716901 0.7049695 4.367116 0 0 0 164 91 111 255 
1.671794 1.615843 3.940238 0 0 0 150 140 128 255 
0.04784108 2.299644 3.345365 0 0 0 162 159 150 255 
-0.5984145 -3.229131 9.053483 0 0 0 175 180 174 255 
0.08938698 -0.1530251 6.06916 0 0 0 153 153 145 255 
-2.365199 1.192054 4.4878 0 0 0 128 124 112 255 
0.5183343 1.181383 4.589737 0 0 0 175 187 183 255 
0.3721045 -0.2813132 3.34121 0 0 0 0 0 0 255 
-2.386808 1.483694 4.503695 0 0 0 165 155 145 255 
0.5685329 0.735672 4.517979 0 0 0 170 116 130 255 
1.940557 0.9812909 4.781468 0 0 0 146 138 117 255 
0.6001538 0.78005 5.332984 0 0 0 165 165 155 255 
-1.582689 -4.064935 10.13465 0 0 0 140 141 135 255 
0.4206112 -3.544199 9.764448 0 0 0 167 174 167 255 
1.606002 2.005199 3.597683 0 0 0 143 136 118 255 
-1.547213 -3.493672 9.635351 0 0 0 166 167 162 255 
-0.7110407 2.130324 3.492979 0 0 0 0 0 0 255 
0.5006782 -0.154239 3.641976 0 0 0 198 126 146 255 
0.02394132 1.312993 4.641104 0 0 0 53 54 43 255 
-0.6526496 1.731877 4.011628 0 0 0 158 150 139 255 
-1.670587 1.757042 4.134387 0 0 0 213 197 184 255 
-2.195121 1.306664 4.509488 0 0 0 131 122 113 255 
0.06072676 -0.8545724 6.750022 0 0 0 164 170 161 255 
1.101711 -1.499391 7.084302 0 0 0 162 160 148 255 
0.3704965 0.02334568 3.42832 0 0 0 154 162 141 255 
1.253643 -1.745151 7.457666 0 0 0 155 153 140 255 
0.07585074 -0.7131333 6.40273 0 0 0 173 173 165 255 
-2.085526 1.4569 4.395826 0 0 0 171 163 152 255 
-0.3908145 1.675637 4.861944 0 0 0 173 160 144 255 
0.1103877 -0.4774369 2.880595 0 0 0 122 115 96 255 
0.2376187 -3.925987 9.885113 0 0 0 154 158 157 255 
1.253643 -1.745151 7.457666 0 0 0 155 153 140 255 
-5.922803 -0.7506753 6.675839 0 0 0 24 34 35 255 
-4.204731 -0.2822547 6.282454 0 0 0 0 0 0 255 
-0.02039711 0.9603354 4.366226 0 0 0 109 114 108 255 
0.4297209 -0.1757407 3.282873 0 0 0 0 0 0 255 
-0.1111583 0.2675234 3.761857 0 0 0 146 136 124 255 
0.5137203 1.585875 4.935911 0 0 0 141 138 126 255 
0.5290568 0.9676573 5.176036 0 0 0 147 132 112 255 
0.1246306 0.01933759 3.335528 0 0 0 75 48 43 255 
0.4737793 -0.4661557 3.264766 0 0 0 182 120 137 255 
-0.5694927 -4.130292 10.2496 0 0 0 180 190 189 255 
0.2798073 0.5136036 3.819097 0 0 0 120 119 101 255 
-1.141541 1.380213 4.423415 0 0 0 162 158 147 255 
0.4308649 -0.1821824 3.333726 0 0 0 125 125 107 255 
-0.4061474 -0.6344874 6.581549 0 0 0 146 146 138 255 
-1.455871 1.510051 4.067356 0 0 0 251 245 229 255 
0.256005 1.645455 4.516177 0 0 0 199 182 164 255 
-0.6629215 2.070622 3.619328 0 0 0 148 148 140 255 
0.3557867 1.021545 4.343124 0 0 0 162 174 162 255 
2.318682 2.221474 3.328424 0 0 0 83 76 58 255 
-0.708994 2.080767 3.55997 0 0 0 161 156 150 255 
0.5588049 0.5282333 4.444997 0 0 0 128 126 113 255 
-2.013445 1.425687 4.598536 0 0 0 118 118 110 255 
0.484982 0.09055493 3.843264 0 0 0 0 0 0 255 
-5.453661 -2.232647 8.646102 0 0 0 95 86 77 255 
0.5588049 0.5282333 4.444997 0 0 0 128 126 113 255 
-0.002492608 0.465927 3.840376 0 0 0 169 180 164 255 
0.4682595 0.1103603 4.234099 0 0 0 137 134 122 255 
-0.2135914 0.1557922 3.850602 0 0 0 176 91 125 255 
0.484982 0.09055493 3.843264 0 0 0 0 0 0 255 
0.5170069 0.0235306 3.746237 0 0 0 190 116 143 255 
0.3682257 0.08195185 3.48308 0 0 0 0 0 0 255 
0.433 -0.1834608 4.000451 0 0 0 139 130 121 255 
0.4175389 -3.530868 9.642124 0 0 0 177 182 176 255 
0.08114177 -0.1932656 3.134973 0 0 0 131 72 78 255 
0.4774487 -0.4264052 3.399246 0 0 0 202 128 155 255 
0.01710543 1.569873 4.876128 0 0 0 252 249 230 255 
0.3405869 0.5092976 3.843525 0 0 0 130 131 117 255 
0.5040672 -0.153479 3.587235 0 0 0 147 83 100 255 
0.0934945 1.227743 4.446155 0 0 0 173 154 137 255 
0.03189753 -0.01551131 3.403791 0 0 0 142 83 77 255 
1.165942 2.470598 3.130268 0 0 0 0 0 0 255 
1.421285 1.6039 4.175818 0 0 0 163 156 140 255 
0.3711621 1.671758 4.858356 0 0 0 0 0 0 255 
-0.1395053 1.554692 4.964477 0 0 0 215 197 175 255 
-2.150457 2.260314 3.526607 0 0 0 127 118 101 255 
0.007369225 1.5024 4.602705 0 0 0 0 0 0 255 
0.1063635 1.330371 4.666659 0 0 0 142 81 86 255 
-0.4376291 1.5344 4.810508 0 0 0 160 146 133 255 
0.63091 -1.564066 7.220212 0 0 0 157 156 144 255 
-0.1476022 1.441537 5.090145 0 0 0 128 112 99 255 
0.736467 -1.214329 6.719294 0 0 0 133 129 117 255 
0.5275035 0.2565205 5.732976 0 0 0 168 165 150 255 
1.672529 -0.01704949 5.991122 0 0 0 136 134 121 255 
0.3522724 1.027066 4.311354 0 0 0 173 177 162 255 
0.2845495 1.679276 4.844936 0 0 0 158 140 126 255 
1.061722 2.274503 3.500132 0 0 0 113 103 91 255 
1.051952 2.481274 3.078603 0 0 0 104 91 72 255 
-1.320323 2.283668 3.542954 0 0 0 102 97 92 255 
0.06315225 -0.2266784 3.103878 0 0 0 116 109 93 255 
0.3661243 -0.1104386 3.302874 0 0 0 0 0 0 255 
-0.1044609 1.12639 4.808467 0 0 0 213 141 176 255 
0.251882 0.2191302 3.536738 0 0 0 115 111 96 255 
0.1137495 0.1200354 3.430917 0 0 0 161 111 110 255 
0.5372964 0.2818941 4.090511 0 0 0 171 117 130 255 
0.5313383 0.2603841 4.190989 0 0 0 153 149 136 255 
0.5214458 0.3661795 3.969619 0 0 0 178 170 151 255 
0.5348166 0.3934094 4.228332 0 0 0 168 125 134 255 
0.2647011 0.8575184 4.146809 0 0 0 120 103 77 255 
0.09485454 0.965788 4.263588 0 0 0 0 0 0 255 
0.1850628 1.083371 4.330349 0 0 0 173 112 107 255 
0.6043034 1.494628 4.975658 0 0 0 0 0 0 255 
-0.7353472 2.042892 3.707922 0 0 0 164 163 158 255 
-0.7178237 1.881525 3.845424 0 0 0 202 191 173 255 
-0.5441334 2.091834 3.595783 0 0 0 152 148 137 255 
1.75806 1.692217 3.806586 0 0 0 122 113 98 255 
0.9664081 2.382428 3.38691 0 0 0 148 135 116 255 
-0.1032162 0.9962228 4.37939 0 0 0 167 173 169 255 
1.882714 2.039214 3.501188 0 0 0 111 104 86 255 
0.5098731 2.886143 2.83174 0 0 0 127 120 104 255 
1.158134 2.573413 3.017794 0 0 0 106 90 75 255 
1.300089 2.645542 2.957316 0 0 0 97 90 72 255 
0.3754822 -0.118013 3.293121 0 0 0 119 118 98 255 
0.4160663 -0.1759943 3.263088 0 0 0 160 172 161 255 
0.3739494 -0.178207 3.294364 0 0 0 163 175 161 255 
0.4802931 -0.2212906 3.418062 0 0 0 166 154 138 255 
0.3609618 0.06120162 5.848388 0 0 0 167 163 152 255 
0.555426 0.3831442 4.122279 0 0 0 0 0 0 255 
-0.3050697 -1.001609 6.864892 0 0 0 157 151 135 255 
0.2251523 0.2872008 3.596006 0 0 0 111 98 81 255 
-0.3048724 2.308042 3.480392 0 0 0 121 114 104 255 
-0.2592192 2.254209 3.541181 0 0 0 144 136 125 255 
0.651167 1.521304 5.047865 0 0 0 81 63 39 255 
-0.4930274 1.893247 3.955104 0 0 0 152 138 125 255 
-0.7258108 1.886197 3.888966 0 0 0 241 224 206 255 
0.4227451 1.217944 4.522593 0 0 0 181 188 180 255 
0.8047306 0.9886591 5.207478 0 0 0 166 159 143 255 
0.163222 0.9297363 4.203575 0 0 0 124 58 60 255 
0.5525882 0.5556562 4.246121 0 0 0 155 83 103 255 
0.6026467 0.2868634 5.646011 0 0 0 145 142 127 255 
0.8946016 -0.1005065 5.918016 0 0 0 112 103 88 255 
0.228303 0.832997 4.082527 0 0 0 113 72 57 255 
0.6028737 0.6849123 4.356283 0 0 0 175 127 133 255 
0.4692671 0.7311726 5.485622 0 0 0 125 125 117 255 
0.06757089 0.6386556 3.955854 0 0 0 175 170 150 255 
-1.425351 1.673909 4.181242 0 0 0 230 214 201 255 
-1.298228 1.632927 4.17335 0 0 0 215 202 183 255 
0.5683455 0.8747388 4.682302 0 0 0 172 115 132 255 
0.2203984 1.06835 4.322424 0 0 0 150 85 91 255 
-0.007381572 1.138644 4.561818 0 0 0 179 170 155 255 
0.5935625 1.119444 4.898704 0 0 0 149 88 94 255 
0.4227451 1.217944 4.522593 0 0 0 181 188 180 255 
0.5796936 1.175293 4.9946 0 0 0 155 87 102 255 
0.6048781 1.190131 5.031119 0 0 0 101 84 64 255 
-0.671536 1.928003 3.903767 0 0 0 196 179 155 255 
0.599398 1.406607 5.143929 0 0 0 130 83 75 255 
-0.4930274 1.893247 3.955104 0 0 0 152 138 125 255 
-1.127097 2.199589 3.649184 0 0 0 223 212 198 255 
0.1369975 1.704608 4.863276 0 0 0 228 215 197 255 
1.623101 1.270823 4.527608 0 0 0 125 114 94 255 
1.228732 2.035195 3.630083 0 0 0 122 110 94 255 
1.359821 2.15205 3.530419 0 0 0 105 96 81 255 
1.42592 2.240557 3.430508 0 0 0 122 113 96 255 
1.421287 2.247846 3.42678 0 0 0 149 142 124 255 
2.423403 2.225984 3.320812 0 0 0 114 106 85 255 
0.2323562 1.127071 4.383677 0 0 0 158 92 96 255 
0.5918429 -0.7965319 6.476773 0 0 0 138 134 122 255 
0.4813702 -0.2327793 3.402275 0 0 0 151 140 125 255 
1.278414 2.745599 2.885051 0 0 0 89 80 63 255 
0.5275761 2.905284 2.828821 0 0 0 89 82 72 255 
1.301084 2.320388 3.352277 0 0 0 125 118 99 255 
1.354992 2.275715 3.413877 0 0 0 148 141 123 255 
0.1677783 -0.643668 3.036619 0 0 0 143 144 129 255 
0.9913516 2.349206 3.453641 0 0 0 116 103 89 255 
1.871277 2.476044 3.141917 0 0 0 0 0 0 255 
1.355927 1.569485 4.265959 0 0 0 128 117 101 255 
2.134961 1.068312 4.514631 0 0 0 97 88 71 255 
1.837907 -0.09022651 6.071539 0 0 0 86 84 71 255 
0.1534897 0.7726712 4.061975 0 0 0 98 56 51 255 
-0.06832557 -0.1728194 6.152246 0 0 0 142 142 134 255 
-0.4336808 1.115703 5.209019 0 0 0 143 129 114 255 
0.3800332 0.8511182 5.4112 0 0 0 121 111 109 255 
0.04284896 1.059185 5.324285 0 0 0 80 70 58 255 
-1.781793 1.849352 4.056704 0 0 0 211 204 188 255 
-0.2691349 1.564569 4.833096 0 0 0 223 212 192 255 
0.2975576 1.346457 4.573967 0 0 0 180 158 141 255 
0.624458 1.296358 5.032424 0 0 0 151 120 108 255 
0.6240218 1.358573 4.817572 0 0 0 143 132 113 255 
-0.6527715 1.910484 3.89525 0 0 0 202 184 164 255 
-0.6946919 1.930184 3.899032 0 0 0 187 174 155 255 
0.2847661 1.535424 4.695141 0 0 0 175 109 113 255 
0.02426872 -0.6152112 2.761947 0 0 0 0 0 0 255 
-0.6187297 1.924141 3.89546 0 0 0 215 200 181 255 
-0.6508668 1.951109 3.945619 0 0 0 252 234 220 255 
-0.5325759 1.967851 3.914113 0 0 0 177 171 159 255 
1.861452 1.016457 4.684659 0 0 0 109 96 80 255 
0.4864776 1.686373 4.858564 0 0 0 156 147 130 255 
-0.6372277 2.289222 3.473561 0 0 0 169 160 153 255 
0.4378765 0.7112386 5.514458 0 0 0 125 125 113 255 
0.6819161 1.804818 4.048008 0 0 0 168 155 138 255 
0.7498519 1.982467 3.839076 0 0 0 121 108 92 255 
0.09243516 -0.144814 3.18752 0 0 0 146 81 85 255 
0.3519897 -0.003373274 3.386895 0 0 0 110 109 78 255 
-0.694004 -1.309136 7.318337 0 0 0 174 171 162 255 
0.2363588 0.2904408 3.595103 0 0 0 145 137 116 255 
0.5272231 0.1843988 3.829353 0 0 0 204 132 156 255 
0.8047033 -0.2608599 5.950148 0 0 0 132 126 114 255 
0.09484005 0.5101492 3.843516 0 0 0 0 0 0 255 
0.3445503 0.02466425 5.892796 0 0 0 152 151 138 255 
0.4834181 0.4468176 3.951762 0 0 0 128 136 123 255 
0.507612 0.5190026 3.971234 0 0 0 148 160 148 255 
0.1751354 0.7108006 3.988547 0 0 0 113 70 65 255 
0.3560563 1.196201 4.451947 0 0 0 152 139 116 255 
0.3129335 0.6979377 3.997186 0 0 0 172 174 158 255 
0.2025799 0.7567645 3.993015 0 0 0 92 53 46 255 
0.5485517 0.6249931 4.201805 0 0 0 175 166 154 255 
1.60708 -0.02425042 6.027458 0 0 0 114 114 102 255 
0.5765775 0.630332 4.335634 0 0 0 217 147 165 255 
0.1141579 0.8447369 4.160684 0 0 0 136 74 75 255 
1.332804 0.2086805 5.653861 0 0 0 133 127 113 255 
0.8085033 0.4229269 5.524822 0 0 0 140 138 125 255 
-1.289923 1.379643 4.358745 0 0 0 174 174 165 255 
0.2531864 0.8831383 4.150264 0 0 0 117 86 68 255 
0.5274292 0.1445992 3.838728 0 0 0 135 61 86 255 
0.5306002 0.1344498 3.863692 0 0 0 139 80 100 255 
0.1405013 0.5236693 3.769648 0 0 0 146 89 82 255 
0.5416819 0.3486974 4.075758 0 0 0 153 88 108 255 
0.5493219 0.4593902 4.124501 0 0 0 194 115 137 255 
0.568691 0.5304679 4.240617 0 0 0 201 153 163 255 
0.5572574 0.5292874 4.271595 0 0 0 201 153 163 255 
0.3003798 0.7876478 4.056066 0 0 0 173 171 156 255 
-1.595968 1.6766 4.152813 0 0 0 200 183 165 255 
0.3763858 1.031067 4.321454 0 0 0 178 191 181 255 
0.4556243 1.099606 4.450881 0 0 0 179 184 178 255 
1.376341 1.557629 4.274738 0 0 0 126 117 102 255 
0.1301947 0.5125461 3.734721 0 0 0 152 120 97 255 
0.07944962 2.387862 3.153673 0 0 0 123 121 108 255 
0.1482771 1.684294 4.891079 0 0 0 239 226 210 255 
0.1659654 1.668953 4.893496 0 0 0 218 185 178 255 
-0.1638115 1.554053 4.881988 0 0 0 196 176 152 255 
-0.2298469 1.569573 4.91155 0 0 0 230 216 195 255 
-0.2399894 1.503786 4.545475 0 0 0 172 155 144 255 
0.3304511 1.215423 4.454979 0 0 0 143 140 119 255 
0.4466742 1.142958 4.461793 0 0 0 68 76 63 255 
0.4646955 1.121004 4.467237 0 0 0 135 138 129 255 
0.3538267 1.002408 4.317751 0 0 0 145 155 146 255 
0.02784208 1.089794 4.503379 0 0 0 140 130 118 255 
0.1894073 1.032995 4.295994 0 0 0 174 111 112 255 
0.577138 0.8594048 4.494754 0 0 0 190 120 138 255 
-1.300121 1.620876 4.209098 0 0 0 231 216 193 255 
-0.8114783 1.384334 4.630567 0 0 0 126 113 97 255 
0.7262751 0.528383 5.455729 0 0 0 138 132 116 255 
0.7405403 0.4232063 5.534323 0 0 0 138 134 122 255 
-0.8788215 0.9735059 4.999711 0 0 0 130 116 99 255 
-0.1604211 0.7853694 4.44901 0 0 0 0 0 0 255 
-0.9759616 0.9756497 5.080198 0 0 0 160 144 129 255 
0.2056303 0.7220643 3.988482 0 0 0 139 111 95 255 
0.5528362 0.5364586 4.200257 0 0 0 226 148 172 255 
-0.124931 0.6948903 4.273642 0 0 0 147 137 123 255 
0.190563 1.695349 4.913969 0 0 0 175 147 133 255 
-1.401754 1.69812 4.349226 0 0 0 189 182 173 255 
0.3304511 1.215423 4.454979 0 0 0 143 140 119 255 
0.1443884 1.686721 4.899921 0 0 0 239 226 210 255 
0.1173858 0.585537 3.876048 0 0 0 120 67 53 255 
0.1268719 0.07827063 5.904838 0 0 0 150 146 135 255 
0.524429 0.1009642 3.801448 0 0 0 156 86 110 255 
-0.1611405 0.08872905 3.818395 0 0 0 0 0 0 255 
0.1489825 0.1408808 3.388034 0 0 0 155 105 108 255 
0.153023 0.1168168 3.360554 0 0 0 129 84 81 255 
0.167398 0.9764792 4.247979 0 0 0 185 116 121 255 
-0.2158581 1.638312 4.726882 0 0 0 211 196 167 255 
0.1140026 1.402045 4.731538 0 0 0 193 165 156 255 
0.9955499 -0.07216021 5.904083 0 0 0 144 142 130 255 
0.4022819 1.009267 4.317972 0 0 0 144 159 152 255 
0.4180606 0.8251716 4.158654 0 0 0 158 163 157 255 
0.9953677 -0.0723542 5.9157 0 0 0 144 142 130 255 
0.5966414 1.362552 4.920447 0 0 0 125 91 74 255 
0.8345647 2.899558 2.767273 0 0 0 113 99 90 255 
0.1454035 0.4600992 3.752693 0 0 0 177 97 106 255 
0.4313518 0.2356332 3.682558 0 0 0 151 155 148 255 
0.418686 0.738103 4.074351 0 0 0 120 128 122 255 
-0.02060226 1.120658 4.506417 0 0 0 54 63 62 255 
-0.3700658 1.797244 4.105751 0 0 0 123 114 107 255 
0.4313757 0.2356442 3.682522 0 0 0 144 149 143 255 
1.33839 2.029001 3.599539 0 0 0 125 115 98 255 
-0.6172265 2.287831 3.456025 0 0 0 140 135 125 255 
1.798949 2.478073 3.135248 0 0 0 106 96 80 255 
0.4963288 2.858709 2.852318 0 0 0 113 102 90 255 
0.576387 0.6766111 5.447117 0 0 0 155 153 140 255 
0.3647268 0.3684101 3.725786 0 0 0 146 147 133 255 
-0.9154728 1.414671 4.594713 0 0 0 158 145 130 255 
-1.761408 1.812731 4.101251 0 0 0 145 139 136 255 
0.2067025 2.068122 3.713915 0 0 0 129 119 106 255 
0.5647655 1.053971 4.721786 0 0 0 159 110 111 255 
-0.8607979 1.297358 4.764199 0 0 0 148 129 120 255 
1.650232 1.572319 4.093105 0 0 0 136 129 116 255 
1.007765 2.31075 3.493891 0 0 0 159 150 142 255 
0.8446152 2.132227 3.704443 0 0 0 92 71 52 255 
0.9010314 0.1288596 5.698551 0 0 0 190 184 177 255 
0.3591849 1.062656 4.335835 0 0 0 110 107 92 255 
0.5029966 1.169244 4.569099 0 0 0 142 155 143 255 
0.2001838 1.039992 4.296706 0 0 0 63 27 30 255 
0.5953254 0.9102602 4.555793 0 0 0 159 110 130 255 
-0.1350499 2.102186 3.661543 0 0 0 132 115 101 255 
0.2382075 -0.04042738 3.2355 0 0 0 91 69 51 255 
0.4096773 1.058508 4.36355 0 0 0 148 154 142 255 
-0.4345055 1.129701 5.118596 0 0 0 103 100 92 255 
0.2257877 1.144033 4.387596 0 0 0 199 119 136 255 
-1.718342 2.201164 3.454391 0 0 0 167 151 138 255 
0.188316 0.9704832 4.241797 0 0 0 148 84 90 255 
-1.367869 -3.711101 10.04926 0 0 0 168 173 167 255 
-0.06863521 1.535534 4.975639 0 0 0 136 123 110 255 
-1.475891 1.36183 4.185758 0 0 0 170 169 165 255 
0.4726539 -0.1700378 3.462322 0 0 0 169 179 155 255 
0.5092365 -0.3428904 3.600395 0 0 0 139 126 117 255 
-0.1319149 0.6379098 4.194725 0 0 0 149 133 120 255 
-0.3227241 1.501672 4.909163 0 0 0 143 126 106 255 
-0.6507481 1.740628 3.994819 0 0 0 163 155 144 255 
0.2014647 1.157539 4.369065 0 0 0 156 88 99 255 
-1.192801 1.63458 4.127413 0 0 0 177 173 164 255 
1.55113 1.933487 3.684602 0 0 0 118 105 88 255 
-1.409851 1.537781 4.229072 0 0 0 217 205 190 255 
-1.554909 1.671321 4.015423 0 0 0 222 206 193 255 
0.3296726 2.251458 3.470832 0 0 0 142 140 127 255 
0.494233 -0.1656368 3.531469 0 0 0 202 131 147 255 
-0.2361749 1.562559 4.936299 0 0 0 248 233 212 255 
0.9883888 2.386416 3.392034 0 0 0 138 129 112 255 
0.5471108 0.290273 4.140039 0 0 0 144 91 83 255 
0.553983 0.6307868 4.302722 0 0 0 186 113 129 255 
0.2051506 1.675576 4.870755 0 0 0 109 80 79 255 
0.2094022 -0.04904497 3.183656 0 0 0 104 82 66 255 
-0.1064758 0.8876787 4.68164 0 0 0 204 138 174 255 
0.3338743 0.8439847 4.610436 0 0 0 167 182 179 255 
0.7315487 1.417911 4.839751 0 0 0 106 82 61 255 
1.791672 1.591712 4.053465 0 0 0 152 145 129 255 
0.9337354 2.145779 3.715891 0 0 0 0 0 0 255 
-0.5147195 1.815895 4.125495 0 0 0 147 135 122 255 
1.689154 0.7684764 5.087341 0 0 0 158 151 133 255 
-0.5147195 1.815895 4.125495 0 0 0 147 135 122 255 
-1.373554 1.498373 4.27164 0 0 0 0 0 0 255 
-0.2453795 1.849242 3.880741 0 0 0 0 0 0 255 
-0.5800187 2.036669 3.588707 0 0 0 148 147 143 255 
1.362941 0.08820409 5.732999 0 0 0 0 0 0 255 
-2.534378 0.8254576 5.015021 0 0 0 140 134 122 255 
-1.584657 0.01229547 5.642889 0 0 0 161 160 152 255 
-3.757416 -0.1333662 6.114222 0 0 0 120 112 101 255 
-0.02199677 1.143839 5.376842 0 0 0 156 152 141 255 
-4.397101 -0.4854959 6.935849 0 0 0 132 133 119 255 
0.8927337 2.168028 3.665089 0 0 0 0 0 0 255 
-0.1549543 -0.8790953 6.667367 0 0 0 172 172 164 255 
0.5837848 0.1939491 4.01189 0 0 0 143 139 128 255 
-0.3130877 -0.879224 6.68934 0 0 0 138 126 111 255 
0.0340296 -0.8689512 6.627675 0 0 0 132 128 116 255 
0.7980793 -2.436661 8.206719 0 0 0 111 107 95 255 
0.3375074 -0.02569895 3.438503 0 0 0 0 0 0 255 
-0.4854169 2.100921 3.607371 0 0 0 146 142 131 255 
-0.7488927 1.939355 3.89185 0 0 0 149 142 132 255 
-2.249351 1.566339 4.477207 0 0 0 217 207 197 255 
0.962839 2.294098 3.511753 0 0 0 110 101 84 255 
-0.3002174 2.307389 3.461541 0 0 0 118 115 103 255 
-0.02514519 -0.6720241 6.439423 0 0 0 167 172 165 255 
0.5113528 0.09695305 3.815768 0 0 0 0 0 0 255 
0.4722369 0.4786219 3.954925 0 0 0 0 0 0 255 
0.4274814 0.4838161 4.310288 0 0 0 0 0 0 255 
0.5254391 0.4792997 4.460799 0 0 0 142 134 123 255 
-0.1311788 0.8381661 4.541575 0 0 0 209 135 168 255 
-1.122829 1.284542 4.589724 0 0 0 158 149 134 255 
-0.08313146 1.283348 4.912144 0 0 0 176 156 129 255 
0.1825724 1.200088 4.447281 0 0 0 192 122 131 255 
1.900704 2.474158 3.164651 0 0 0 105 99 83 255 
0.8784576 -0.1062508 5.976517 0 0 0 111 103 92 255 
-5.282754 -1.770676 8.043115 0 0 0 96 85 79 255 
0.1485731 1.880654 3.997513 0 0 0 178 177 164 255 
0.03550332 -3.785381 9.931583 0 0 0 177 182 178 255 
0.2836703 -0.1921014 3.174976 0 0 0 0 0 0 255 
-0.05871657 -0.7415138 6.558331 0 0 0 116 108 95 255 
-0.7393168 1.804656 4.062423 0 0 0 162 155 145 255 
0.7778258 2.212659 3.622494 0 0 0 154 153 135 255 
-1.458583 1.603672 4.361613 0 0 0 252 239 220 255 
0.08154736 0.8675444 4.172182 0 0 0 169 177 157 255 
0.1263369 0.6276883 3.920907 0 0 0 158 102 101 255 
0.6698327 -0.1464339 5.806788 0 0 0 171 172 158 255 
0.3921198 0.3986409 4.018349 0 0 0 0 0 0 255 
0.1228015 0.4099514 3.77874 0 0 0 120 75 69 255 
-0.08453756 1.154872 4.901983 0 0 0 172 117 123 255 
0.4561527 0.07753942 4.206577 0 0 0 151 145 133 255 
-1.374285 -3.590716 9.745596 0 0 0 0 0 0 255 
0.1262522 -0.1968255 3.091127 0 0 0 168 99 105 255 
0.1433834 -0.1778761 3.105905 0 0 0 0 0 0 255 
-5.581106 -1.155377 7.234248 0 0 0 91 81 78 255 
0.4565761 -0.2081284 3.643675 0 0 0 0 0 0 255 
0.5081711 -0.138824 3.649114 0 0 0 0 0 0 255 
0.6668633 -0.1489036 5.821697 0 0 0 171 172 158 255 
0.7885914 2.65347 2.943879 0 0 0 98 90 79 255 
1.326817 2.386959 3.130477 0 0 0 0 0 0 255 
0.2384099 0.5993003 3.880347 0 0 0 107 84 60 255 
1.240439 -0.1480687 5.859232 0 0 0 160 153 137 255 
0.5275035 0.2565205 5.732976 0 0 0 169 167 155 255 
0.4563821 0.5583066 4.749097 0 0 0 144 146 132 255 
0.1043471 0.830161 4.185347 0 0 0 0 0 0 255 
0.3201999 0.8404624 4.131612 0 0 0 166 173 155 255 
0.2382483 1.028441 4.243137 0 0 0 0 0 0 255 
-0.03898052 1.10034 4.571966 0 0 0 40 49 46 255 
0.1056683 1.187537 4.505986 0 0 0 155 98 105 255 
0.5976659 1.298008 4.818636 0 0 0 171 165 148 255 
-0.5999836 2.105894 3.591778 0 0 0 198 191 173 255 
-0.3935249 2.331755 3.265367 0 0 0 129 123 111 255 
0.4843762 2.385468 3.265729 0 0 0 0 0 0 255 
1.337589 2.329502 3.271528 0 0 0 124 115 100 255 
0.9375193 2.845431 2.789599 0 0 0 96 91 72 255 
0.8897374 2.898218 2.760064 0 0 0 93 87 71 255 
0.4855377 -0.3049734 3.362757 0 0 0 137 83 99 255 
0.4918445 0.8199319 5.348732 0 0 0 162 159 150 255 
0.4173259 0.2793602 3.798921 0 0 0 157 160 153 255 
-0.1183718 2.504912 3.082675 0 0 0 105 100 89 255 
0.7644269 2.524818 3.058487 0 0 0 103 95 76 255 
1.623741 2.157015 3.382481 0 0 0 123 114 97 255 
-0.129545 0.6901405 4.512311 0 0 0 156 124 130 255 
0.09261797 -4.011721 10.21385 0 0 0 141 147 144 255 
0.533928 -0.1411276 3.723948 0 0 0 143 141 128 255 
-0.9351933 1.757264 4.073046 0 0 0 134 125 116 255 
-1.443291 1.973247 4.05559 0 0 0 0 0 0 255 
0.3196336 0.5614334 5.631812 0 0 0 131 127 116 255 
0.2397851 1.347081 4.558179 0 0 0 143 86 89 255 
0.525322 -0.06010476 3.605412 0 0 0 209 136 153 255 
0.5423917 0.3180129 4.072325 0 0 0 213 144 163 255 
0.5505206 0.3475363 4.078538 0 0 0 210 143 161 255 
-0.2295022 -0.1083606 6.135238 0 0 0 179 171 160 255 
0.6002334 1.083949 4.730542 0 0 0 208 141 159 255 
0.4205421 1.009216 4.342463 0 0 0 158 152 139 255 
0.645213 1.244183 4.882154 0 0 0 139 77 82 255 
0.4749489 2.922312 2.771934 0 0 0 139 132 116 255 
1.394285 2.371896 3.110669 0 0 0 96 87 70 255 
1.375584 1.561595 4.290376 0 0 0 129 120 107 255 
-0.61836 0.4862649 5.665712 0 0 0 114 110 98 255 
1.318113 2.282337 3.428628 0 0 0 113 107 91 255 
-0.316854 2.371527 3.372301 0 0 0 122 118 109 255 
1.078189 1.706173 4.07656 0 0 0 136 130 114 255 
-0.4492942 2.291711 3.463842 0 0 0 153 149 137 255 
-0.3650841 2.233506 3.539242 0 0 0 119 113 101 255 
0.2144314 1.712411 4.878303 0 0 0 180 161 146 255 
-1.072904 0.4867571 5.596457 0 0 0 173 167 155 255 
0.5946836 1.294936 5.168103 0 0 0 109 92 66 255 
-0.03689417 0.02815431 3.411603 0 0 0 118 105 89 255 
-0.2379681 -0.03224109 3.721157 0 0 0 202 125 157 255 
1.820931 -0.100952 6.061352 0 0 0 85 84 69 255 
0.8102638 1.783241 4.05792 0 0 0 142 137 117 255 
1.025715 1.840337 3.892841 0 0 0 123 115 102 255 
1.033183 2.139395 3.618503 0 0 0 158 145 129 255 
1.897607 2.516761 3.121205 0 0 0 119 109 97 255 
0.1304295 0.1813652 3.454065 0 0 0 0 0 0 255 
-1.402572 2.651007 2.963563 0 0 0 141 128 112 255 
0.2391178 0.1890551 3.463032 0 0 0 149 143 131 255 
0.4578511 0.1543519 3.726038 0 0 0 168 181 167 255 
0.4609446 0.2685493 3.771321 0 0 0 126 136 128 255 
0.08214163 0.4833921 3.818888 0 0 0 0 0 0 255 
0.08933274 0.5196722 3.812212 0 0 0 121 102 85 255 
0.3472758 0.0377678 5.869328 0 0 0 149 147 134 255 
0.5257544 0.4191265 4.104728 0 0 0 211 138 158 255 
0.5193326 0.4306062 4.166576 0 0 0 224 140 166 255 
0.1800768 0.7793464 4.050203 0 0 0 0 0 0 255 
-1.463875 1.443175 4.27663 0 0 0 144 143 138 255 
0.219666 0.944824 4.222322 0 0 0 122 73 66 255 
-0.8141589 1.400487 4.569709 0 0 0 124 114 102 255 
0.037497 1.1049 4.440171 0 0 0 182 174 160 255 
0.05940267 1.17146 4.506457 0 0 0 157 143 116 255 
-1.050458 1.750114 4.03514 0 0 0 0 0 0 255 
0.4198406 1.20364 4.487541 0 0 0 171 181 170 255 
-0.7373285 1.892033 3.90377 0 0 0 211 198 182 255 
-5.509473 -2.188615 8.48815 0 0 0 87 76 74 255 
0.5251108 0.1975129 3.905891 0 0 0 149 77 101 255 
0.4530714 0.2657468 3.787738 0 0 0 126 136 128 255 
0.5320194 0.5053681 4.113921 0 0 0 120 90 80 255 
0.261343 0.4770038 5.664717 0 0 0 121 119 106 255 
0.565501 0.6331952 4.339913 0 0 0 165 101 116 255 
0.4788895 1.113483 4.497301 0 0 0 176 182 172 255 
0.3903533 1.182427 4.431058 0 0 0 121 125 111 255 
0.5491312 0.5220286 4.161797 0 0 0 207 142 159 255 
0.4708858 0.02170644 3.83852 0 0 0 210 132 156 255 
0.3077841 2.263697 3.339239 0 0 0 0 0 0 255 
0.04078757 1.153088 4.489411 0 0 0 177 160 143 255 
0.5726271 0.748044 4.453444 0 0 0 180 111 129 255 
-0.01384241 -0.2164816 3.137323 0 0 0 88 90 84 255 
0.2335506 0.4422876 5.687783 0 0 0 126 119 107 255 
1.01312 -1.220993 6.770959 0 0 0 121 114 103 255 
2.1142 1.473399 4.060331 0 0 0 137 132 115 255 
-0.9102488 1.776238 4.049099 0 0 0 115 111 102 255 
-0.6825672 1.917046 3.897717 0 0 0 209 194 177 255 
-0.2926769 2.317082 3.454836 0 0 0 132 124 116 255 
-0.1080599 2.496131 3.070832 0 0 0 113 107 97 255 
-1.465149 2.200959 3.625434 0 0 0 208 187 160 255 
0.3907273 1.028703 4.322433 0 0 0 52 56 59 255 
0.5050457 -0.2843315 3.461306 0 0 0 166 107 117 255 
0.106222 -0.08762898 3.22835 0 0 0 80 30 35 255 
0.4973446 -0.3762802 3.359211 0 0 0 115 65 84 255 
1.321034 1.611655 4.232763 0 0 0 127 121 106 255 
0.4126403 -0.1963328 3.316227 0 0 0 106 114 100 255 
0.5068025 1.168493 4.557657 0 0 0 146 157 146 255 
0.6082361 1.260202 4.93498 0 0 0 168 94 103 255 
1.543354 1.107763 4.604379 0 0 0 82 75 61 255 
0.4866608 -0.3640285 3.357636 0 0 0 74 39 52 255 
0.236073 1.169536 4.405197 0 0 0 65 43 44 255 
0.5740996 1.003608 4.581673 0 0 0 99 74 63 255 
0.4991328 -0.08769299 3.564348 0 0 0 148 98 109 255 
0.6464606 2.007749 3.863577 0 0 0 136 123 107 255 
-0.2508332 1.306573 5.224087 0 0 0 177 158 126 255 
0.743762 1.749811 4.300031 0 0 0 0 0 0 255 
0.743762 1.749811 4.300031 0 0 0 0 0 0 255 
-1.578101 0.01372767 5.633902 0 0 0 161 160 152 255 
-0.2534148 -4.016984 10.1427 0 0 0 182 192 194 255 
0.4225944 0.06793015 4.067284 0 0 0 210 127 153 255 
-1.280331 1.749642 4.019308 0 0 0 252 252 249 255 
-0.03154469 0.09760017 3.477919 0 0 0 0 0 0 255 
-0.5728437 2.206519 3.541922 0 0 0 151 143 132 255 
-0.467478 2.15835 3.519888 0 0 0 178 170 157 255 
1.700317 0.83118 4.926509 0 0 0 141 134 116 255 
-0.2745754 1.550572 5.020282 0 0 0 235 211 191 255 
0.05908868 0.9466137 4.229041 0 0 0 179 173 157 255 
1.352378 2.280782 3.427366 0 0 0 152 144 131 255 
0.1970755 1.036191 4.232342 0 0 0 188 122 126 255 
0.5338517 1.009055 4.666086 0 0 0 168 163 143 255 
0.2818437 -0.1109232 4.119685 0 0 0 145 105 116 255 
0.08039889 0.9927955 4.324287 0 0 0 167 149 135 255 
1.703862 -0.02581234 6.008022 0 0 0 60 58 54 255 
1.412906 2.34991 3.132931 0 0 0 29 21 20 255 
0.1767949 0.837799 4.102296 0 0 0 141 87 85 255 
-0.8069225 1.394217 4.632124 0 0 0 169 152 138 255 
0.4088947 1.048599 4.357213 0 0 0 93 94 88 255 
0.5289124 0.8069635 4.391937 0 0 0 93 100 90 255 
-0.1318723 0.7942609 4.523621 0 0 0 142 86 111 255 
0.9227292 0.06555985 5.756675 0 0 0 175 167 151 255 
-0.7281559 0.4439264 5.678661 0 0 0 63 57 51 255 
0.1667708 -0.2283277 3.109686 0 0 0 97 50 55 255 
0.1667708 -0.2283277 3.109686 0 0 0 97 50 55 255 
0.105996 1.242546 4.505313 0 0 0 0 0 0 255 
2.168954 1.456771 4.152113 0 0 0 0 0 0 255 
0.5393855 -0.467184 3.28038 0 0 0 0 0 0 255 
-0.2247507 -0.3560781 3.509083 0 0 0 135 84 101 255 
-1.388149 1.478201 4.265654 0 0 0 154 147 131 255 
-1.324717 -4.125844 10.13024 0 0 0 149 149 145 255 
0.2610841 0.5110405 3.855913 0 0 0 0 0 0 255 
-0.01502198 0.162635 3.570614 0 0 0 168 169 155 255 
-2.761831 1.069671 4.788816 0 0 0 153 154 146 255 
0.7331917 0.5037944 5.488106 0 0 0 149 143 129 255 
-0.4408882 -0.6448817 6.518866 0 0 0 0 0 0 255 
-1.352577 1.743683 4.05641 0 0 0 0 0 0 255 
0.1748796 1.210506 4.624085 0 0 0 150 89 94 255 
1.871277 2.476044 3.141917 0 0 0 0 0 0 255 
0.0496079 -0.7225617 6.452485 0 0 0 175 176 168 255 
-0.01653262 -0.3442918 3.112258 0 0 0 115 118 101 255 
0.2494437 -0.3855011 2.982918 0 0 0 107 113 101 255 
0.5305435 0.04443923 3.830769 0 0 0 160 108 123 255 
-0.1061517 0.6569256 4.178503 0 0 0 0 0 0 255 
0.04713171 1.662918 4.936916 0 0 0 173 167 152 255 
-1.134188 2.141155 3.66783 0 0 0 241 225 209 255 
0.5970293 1.125278 4.676115 0 0 0 158 111 117 255 
-1.322615 2.055671 3.823302 0 0 0 0 0 0 255 
-4.248235 -0.463744 6.561207 0 0 0 142 134 115 255 
0.3202357 0.00557794 3.385121 0 0 0 160 155 126 255 
-5.513968 -2.185456 8.543396 0 0 0 90 77 68 255 
0.482636 -0.4805267 3.492766 0 0 0 127 125 112 255 
0.03338511 1.657843 5.006418 0 0 0 148 139 130 255 
1.429275 2.030271 3.556653 0 0 0 124 111 95 255 
0.5845727 1.266249 5.171727 0 0 0 95 80 54 255 
0.09381481 -0.4316294 2.865529 0 0 0 97 89 68 255 
0.08212359 -0.4327528 2.886595 0 0 0 96 90 68 255 
0.4620651 0.1581029 3.720764 0 0 0 163 174 158 255 
0.3892218 0.4983268 3.809541 0 0 0 0 0 0 255 
-0.01069793 0.8408191 4.213022 0 0 0 0 0 0 255 
0.6208043 0.7126749 4.355799 0 0 0 167 122 132 255 
-1.289764 1.618285 4.139538 0 0 0 255 243 219 255 
0.4164106 1.019394 4.340532 0 0 0 56 67 61 255 
0.6161191 1.306074 4.832628 0 0 0 137 98 93 255 
0.5394269 0.07629155 3.964396 0 0 0 89 91 87 255 
-1.443203 1.651138 4.404147 0 0 0 154 146 133 255 
2.738613 1.644344 4.083009 0 0 0 122 113 96 255 
0.1472003 0.8210467 4.094617 0 0 0 156 98 96 255 
0.3809901 0.5142088 3.821489 0 0 0 0 0 0 255 
0.5331517 0.01464012 3.744636 0 0 0 212 135 155 255 
-1.935974 1.6409 4.111361 0 0 0 255 244 228 255 
0.2313048 0.8437127 4.080889 0 0 0 123 74 66 255 
-0.7679083 1.452685 4.628952 0 0 0 106 89 71 255 
0.1801772 1.100322 4.353406 0 0 0 125 63 66 255 
-1.571041 3.492413 2.284534 0 0 0 111 108 93 255 
-0.3451042 1.52965 4.794077 0 0 0 170 156 143 255 
-0.4815919 1.890986 3.794623 0 0 0 178 166 152 255 
0.03657067 0.4448741 3.845948 0 0 0 132 106 91 255 
-0.2307852 0.5526318 4.301127 0 0 0 146 140 124 255 
-1.45134 1.138965 4.999025 0 0 0 161 146 129 255 
0.01222146 0.6964021 4.023349 0 0 0 131 116 103 255 
0.5335184 0.2401403 3.877525 0 0 0 208 133 154 255 
0.05233435 0.9877341 4.262775 0 0 0 141 123 109 255 
0.1046079 1.181294 4.469664 0 0 0 183 163 142 255 
0.1212605 1.218789 4.485741 0 0 0 157 136 117 255 
-0.3366948 1.539627 4.997886 0 0 0 0 0 0 255 
-0.02498931 1.536739 4.776082 0 0 0 130 117 101 255 
0.4002135 -0.509495 3.409698 0 0 0 0 0 0 255 
0.4929458 -0.3732572 3.372638 0 0 0 123 65 87 255 
0.4369652 -0.3888741 3.475995 0 0 0 0 0 0 255 
0.4993954 -0.2114108 3.557561 0 0 0 206 133 153 255 
0.1082625 0.1164337 3.456955 0 0 0 0 0 0 255 
0.1502727 0.3405384 3.640428 0 0 0 142 115 94 255 
0.2449978 0.7513344 5.487055 0 0 0 171 170 150 255 
0.2976062 1.637203 4.876074 0 0 0 145 78 85 255 
0.1171379 1.078817 5.366739 0 0 0 144 134 124 255 
0.3321841 1.056633 4.315529 0 0 0 134 128 106 255 
-0.6856729 2.129986 3.618945 0 0 0 218 204 182 255 
0.2554561 -0.1839721 3.156448 0 0 0 119 101 77 255 
0.1139371 -0.1964542 3.149208 0 0 0 106 48 53 255 
0.04956286 -0.2133447 3.095761 0 0 0 134 128 109 255 
0.5476507 0.4674579 4.246603 0 0 0 142 90 92 255 
0.3521806 0.1716931 3.567781 0 0 0 128 126 113 255 
0.4825875 -0.02104877 3.715801 0 0 0 196 127 145 255 
0.8616789 2.204477 3.613597 0 0 0 131 119 103 255 
1.801422 1.427327 4.244716 0 0 0 154 141 125 255 
-0.1872967 2.332727 3.429164 0 0 0 130 123 113 255 
-0.2024776 1.622719 4.685032 0 0 0 224 204 179 255 
-0.04830784 -0.6915928 2.768333 0 0 0 131 128 119 255 
-0.7932289 1.934621 4.000588 0 0 0 179 165 149 255 
0.5608343 0.4305247 4.116015 0 0 0 159 88 107 255 
-1.293737 1.616093 4.205087 0 0 0 205 184 157 255 
0.5615583 0.5055351 4.167697 0 0 0 181 110 128 255 
0.4983617 1.129987 4.508795 0 0 0 174 176 165 255 
2.245764 1.990915 3.61817 0 0 0 131 119 99 255 
0.3431773 1.048169 4.320152 0 0 0 130 129 109 255 
0.4244573 1.178122 4.477228 0 0 0 147 151 136 255 
0.1598265 0.9909802 4.252616 0 0 0 174 111 102 255 
0.08755 0.919086 4.534276 0 0 0 158 131 110 255 
0.1309658 0.27718 3.551059 0 0 0 147 104 92 255 
0.4244573 1.178122 4.477228 0 0 0 147 151 136 255 
0.2811322 0.7715046 3.945481 0 0 0 115 79 66 255 
0.6564871 1.093029 4.786405 0 0 0 149 123 100 255 
0.5509821 0.4689301 4.233044 0 0 0 117 77 80 255 
0.7401904 0.5352324 5.455581 0 0 0 137 133 121 255 
0.9143157 0.09049617 5.791431 0 0 0 163 159 142 255 
0.3564698 0.4508264 3.793802 0 0 0 164 169 160 255 
0.5119098 0.3612265 4.086905 0 0 0 206 133 155 255 
0.4834455 0.01571158 3.767111 0 0 0 197 108 156 255 
2.664497 1.282827 4.387391 0 0 0 101 93 86 255 
0.2289833 0.9839466 4.241376 0 0 0 131 78 74 255 
0.1193877 0.005033628 3.320772 0 0 0 143 82 82 255 
-0.6977788 1.909505 3.893368 0 0 0 172 159 143 255 
0.8391726 -0.4993325 6.133643 0 0 0 142 128 116 255 
0.4848189 -0.4069692 3.455585 0 0 0 144 97 115 255 
-0.2303197 0.1683592 3.878718 0 0 0 136 81 104 255 
0.1220419 -0.4296708 2.916232 0 0 0 62 55 36 255 
-1.399691 -3.639048 9.75123 0 0 0 118 116 105 255 
-0.1883054 0.8942051 5.384267 0 0 0 152 137 116 255 
1.650772 2.696903 2.878361 0 0 0 131 124 108 255 
0.5505631 0.5457739 4.463946 0 0 0 145 141 129 255 
-1.336969 2.093579 3.776213 0 0 0 238 210 184 255 
0.09055603 0.5056954 3.803329 0 0 0 123 103 84 255 
0.05379609 -0.9269949 6.895998 0 0 0 150 147 140 255 
-1.252471 -1.224491 7.049681 0 0 0 133 119 106 255 
0.1174012 -0.6769605 3.0336 0 0 0 133 126 110 255 
0.7776802 1.714934 4.417571 0 0 0 164 151 135 255 
4.794338 -1.967966 7.805563 0 0 0 128 119 110 255 
0.1255364 2.899 2.588129 0 0 0 164 151 135 255 
0.3850817 2.852943 2.566284 0 0 0 158 146 130 255 
-0.4130048 3.131762 2.423945 0 0 0 112 100 84 255 
0.007078211 -0.540258 2.789539 0 0 0 144 152 141 255 
0.6034241 2.944428 2.790331 0 0 0 162 146 131 255 
-1.555835 1.669581 4.01861 0 0 0 174 153 124 255 
3.620139 -1.506063 7.012274 0 0 0 166 162 153 255 
-3.759083 -3.479771 9.331567 0 0 0 131 118 99 255 
1.758322 -0.08791015 6.022914 0 0 0 0 0 0 255 
-0.2779932 0.9144682 5.40638 0 0 0 0 0 0 255 
-0.3472909 1.885368 3.771173 0 0 0 179 170 153 255 
0.8572806 1.892035 3.908612 0 0 0 133 121 107 255 
-0.758145 2.139842 3.662375 0 0 0 0 0 0 255 
4.648515 -2.547604 8.49255 0 0 0 139 133 119 255 
0.1831742 0.09436397 3.412163 0 0 0 155 145 133 255 
-2.426703 0.8802629 4.837498 0 0 0 186 174 158 255 
0.1334299 -0.314664 2.908989 0 0 0 135 124 104 255 
3.866897 -1.443965 7.130116 0 0 0 148 138 129 255 
-2.553674 1.018992 4.736533 0 0 0 170 162 151 255 
0.3315575 1.454759 4.793771 0 0 0 179 179 160 255 
