ply
format ascii 1.0
comment Created by CloudCompare v2.11 alpha (Anoia)
comment Created 2025/12/9 17:47
obj_info Generated by CloudCompare!
element vertex 1412
property float x
property float y
property float z
property float scalar_Scalar_field
end_header
0.438228 -0.0742501 0.0302234 25 
0.438452 -0.0743227 0.0310134 25 
0.439076 -0.0745207 0.0316544 22 
0.439202 -0.0745623 0.0324824 21 
0.437736 -0.0741039 0.0338954 28 
0.439205 -0.0745674 0.0342274 22 
0.440735 -0.0750499 0.0345444 22 
0.440009 -0.0748241 0.0356814 21 
0.440287 -0.0749135 0.0364534 23 
0.439715 -0.0747357 0.0375304 24 
0.439443 -0.0746525 0.0384974 22 
0.440974 -0.0751355 0.0388264 20 
0.440151 -0.0748788 0.0399864 21 
0.440932 -0.0751262 0.0405834 24 
0.441565 -0.0753271 0.0412344 27 
0.441192 -0.0752122 0.0422334 33 
0.440721 -0.0750661 0.0432634 30 
0.440451 -0.0749834 0.0442234 31 
0.441184 -0.0752157 0.0448414 35 
0.441567 -0.0753381 0.0455794 44 
0.442354 -0.0755875 0.0461834 41 
0.442386 -0.0755996 0.0470414 40 
0.442116 -0.0755168 0.0479984 37 
0.442653 -0.0756876 0.0486884 35 
0.443141 -0.075843 0.0493954 42 
0.44358 -0.0759828 0.0501204 40 
0.443006 -0.0758047 0.0511724 41 
0.443952 -0.0761039 0.0517354 39 
0.443784 -0.0760531 0.0526554 42 
0.443616 -0.0760024 0.0535744 43 
0.444209 -0.0761909 0.0542534 48 
0.444601 -0.076316 0.0549964 53 
0.444688 -0.0763453 0.0558354 54 
0.445132 -0.0764869 0.0565634 50 
0.444863 -0.0764045 0.0575104 51 
0.444544 -0.0763064 0.0584714 43 
0.444836 -0.0764002 0.0592464 43 
0.445282 -0.0765422 0.0599754 44 
0.445473 -0.0766044 0.0607814 48 
0.44592 -0.076747 0.0615124 47 
0.446215 -0.0768418 0.0622884 51 
0.446921 -0.0770656 0.0629464 59 
0.447526 -0.0772578 0.0636354 60 
0.447464 -0.0772403 0.0645174 62 
0.447968 -0.0774008 0.0652374 65 
0.44801 -0.0774159 0.0660894 57 
0.448258 -0.0774959 0.0668834 60 
0.448146 -0.0774627 0.0677784 62 
0.448343 -0.0775268 0.0685854 54 
0.449265 -0.0778185 0.0691944 56 
0.450139 -0.0780952 0.0698204 53 
0.450079 -0.0780785 0.0707014 54 
0.450852 -0.0783236 0.0713574 54 
0.451106 -0.0784053 0.0721544 60 
0.451203 -0.0784381 0.0729944 62 
0.451563 -0.0785531 0.0737644 70 
0.451714 -0.0786026 0.0745894 71 
0.452652 -0.0788996 0.0752114 75 
0.453541 -0.0791812 0.0758484 77 
0.453063 -0.0790328 0.0768374 84 
0.453585 -0.079199 0.0775714 78 
0.454056 -0.0793492 0.0783194 81 
0.454476 -0.0794831 0.0790814 78 
0.455215 -0.0797175 0.0797654 78 
0.455053 -0.0796686 0.0806724 71 
0.455316 -0.0797534 0.0814754 65 
0.456112 -0.0800058 0.0821504 77 
0.455632 -0.0798569 0.0831334 78 
0.45611 -0.0800092 0.0838864 80 
0.45643 -0.0801118 0.0846784 84 
0.457231 -0.0803658 0.0853584 93 
0.457553 -0.0804691 0.0861524 104 
0.457876 -0.0805726 0.0869463 108 
0.458092 -0.0806427 0.0877654 103 
0.458524 -0.0807806 0.0885364 104 
0.458634 -0.0808173 0.0893802 107 
0.458583 -0.0808034 0.0902595 110 
0.459287 -0.0810268 0.0909731 113 
0.45913 -0.0809792 0.0918756 109 
0.45908 -0.0809658 0.0927538 110 
0.459193 -0.0810034 0.0935967 112 
0.459361 -0.0810581 0.0944281 118 
0.459745 -0.0811809 0.0952145 105 
0.460239 -0.0813382 0.0959794 100 
0.4603 -0.0813595 0.0968342 105 
0.460687 -0.0814833 0.0976227 110 
0.460967 -0.0815733 0.0984338 114 
0.460759 -0.0815099 0.0993425 117 
0.461094 -0.0816174 0.100143 124 
0.460995 -0.0815884 0.101029 129 
0.461006 -0.0815938 0.101893 135 
0.461343 -0.0817018 0.102694 137 
0.461083 -0.0816222 0.103609 133 
0.460987 -0.0815939 0.104492 128 
0.460891 -0.081566 0.105374 125 
0.461067 -0.0816234 0.106205 128 
0.460973 -0.0815958 0.107086 130 
0.46115 -0.0816536 0.107917 138 
0.461111 -0.0816434 0.108787 139 
0.461724 -0.0818383 0.109542 138 
0.461361 -0.0817259 0.110468 146 
0.46089 -0.0815798 0.111411 143 
0.460745 -0.0815363 0.112296 145 
0.460763 -0.0815441 0.113153 148 
0.46062 -0.081501 0.114036 145 
0.460045 -0.0813224 0.114988 148 
0.45985 -0.0812629 0.115877 151 
0.459548 -0.0811699 0.116782 155 
0.4593 -0.0810941 0.117677 156 
0.459269 -0.0810861 0.118536 160 
0.458862 -0.0809602 0.119453 161 
0.45819 -0.0807508 0.120408 161 
0.457521 -0.0805422 0.121359 161 
0.457705 -0.0806021 0.122182 164 
0.45757 -0.0805617 0.123052 159 
0.457595 -0.0805717 0.123897 159 
0.456348 -0.0801812 0.124923 161 
0.456374 -0.0801916 0.125765 166 
0.455768 -0.0800027 0.126695 163 
0.455479 -0.079914 0.127578 164 
0.455192 -0.0798256 0.12846 165 
0.455063 -0.0797871 0.129319 168 
0.454883 -0.0797323 0.130185 166 
0.454755 -0.0796942 0.131043 168 
0.453739 -0.0793765 0.132011 175 
0.453927 -0.0794376 0.132827 175 
0.453959 -0.0794497 0.133661 175 
0.453209 -0.0792156 0.13459 181 
0.452307 -0.0789337 0.135532 182 
0.45203 -0.0788485 0.136399 181 
0.45165 -0.078731 0.137276 174 
0.451375 -0.0786464 0.13814 174 
0.45105 -0.0785459 0.139008 174 
0.450828 -0.0784781 0.139863 178 
0.450556 -0.0783945 0.140722 181 
0.45008 -0.0782466 0.141601 182 
0.449861 -0.0781797 0.142452 183 
0.449388 -0.0780327 0.143328 185 
0.448102 -0.07763 0.14428 190 
0.448395 -0.0777242 0.145076 184 
0.448537 -0.0777707 0.145887 186 
0.447663 -0.0774977 0.146792 187 
0.44735 -0.077401 0.147643 186 
0.447037 -0.0773046 0.148492 189 
0.446978 -0.0772879 0.149318 189 
0.446516 -0.0771445 0.150178 192 
0.446459 -0.0771283 0.151002 187 
0.445999 -0.0769856 0.151858 193 
0.445943 -0.0769697 0.15268 185 
0.446037 -0.0770015 0.153491 183 
0.445781 -0.0769228 0.154328 192 
0.445626 -0.076876 0.155156 188 
0.445773 -0.076924 0.155962 183 
0.44577 -0.0769249 0.156779 187 
0.445066 -0.0767053 0.157643 185 
0.445114 -0.0767223 0.158455 185 
0.444364 -0.0764881 0.159317 186 
0.444313 -0.076474 0.160133 188 
0.445261 -0.0767743 0.16089 185 
0.444512 -0.0765405 0.161748 188 
0.444214 -0.0764486 0.162578 186 
0.444165 -0.0764353 0.163393 185 
0.444516 -0.0765475 0.164187 183 
0.444369 -0.0765031 0.165007 185 
0.444123 -0.0764277 0.165832 186 
0.444425 -0.0765247 0.16663 190 
0.44428 -0.0764809 0.167448 187 
0.444036 -0.076406 0.168271 182 
0.44419 -0.0764566 0.169076 182 
0.444047 -0.0764134 0.169893 184 
0.4449 -0.0766839 0.170674 188 
0.444907 -0.076688 0.171486 189 
0.444715 -0.0766295 0.172305 189 
0.444126 -0.0764459 0.173135 183 
0.444085 -0.0764349 0.173947 191 
0.443598 -0.0762834 0.174771 195 
0.444054 -0.0764291 0.17557 183 
0.444313 -0.0765126 0.176375 185 
0.444773 -0.0766592 0.177177 178 
0.444834 -0.0766805 0.177988 181 
0.444996 -0.0767334 0.178798 178 
0.444959 -0.0767236 0.179611 176 
0.445022 -0.0767455 0.180422 175 
0.445036 -0.0767518 0.181235 173 
0.445051 -0.0767583 0.182047 172 
0.444717 -0.076655 0.182862 166 
0.445032 -0.0767561 0.183672 166 
0.445248 -0.0768261 0.184484 171 
0.445615 -0.0769436 0.185296 171 
0.445632 -0.076951 0.18611 175 
0.44545 -0.0768956 0.186923 175 
0.44617 -0.0771244 0.18774 180 
0.446894 -0.0773541 0.18856 186 
0.447014 -0.0773941 0.189377 188 
0.447085 -0.0774184 0.190194 185 
0.447308 -0.0774906 0.191013 186 
0.44728 -0.0774834 0.19183 184 
0.447656 -0.0776038 0.192653 192 
0.447577 -0.0775811 0.19347 194 
0.447955 -0.0777021 0.194295 197 
0.448131 -0.0777595 0.195117 193 
0.448461 -0.0778652 0.195944 196 
0.448689 -0.0779391 0.19677 194 
0.44836 -0.0778373 0.197581 192 
0.448184 -0.0777837 0.198395 196 
0.448973 -0.0780343 0.19924 195 
0.449715 -0.0782699 0.200086 199 
0.450511 -0.0785228 0.200937 204 
0.449977 -0.0783565 0.201741 198 
0.4497 -0.0782713 0.202553 201 
0.45014 -0.0784117 0.203394 201 
0.450684 -0.078585 0.204241 203 
0.450921 -0.0786617 0.205077 205 
0.451056 -0.0787063 0.205909 202 
0.450987 -0.0786863 0.206731 199 
0.451123 -0.0787313 0.207564 197 
0.451518 -0.0788576 0.208411 197 
0.451605 -0.0788869 0.209243 201 
0.453401 -0.0794549 0.210173 196 
0.453386 -0.0794521 0.211004 195 
0.453632 -0.0795314 0.21185 196 
0.453566 -0.0795126 0.212678 198 
0.453917 -0.0796252 0.213532 195 
0.453956 -0.0796396 0.214368 195 
0.454048 -0.0796706 0.215207 196 
0.454455 -0.0798006 0.216069 194 
0.454391 -0.0797826 0.216899 192 
0.454852 -0.0799298 0.217768 194 
0.455472 -0.0801271 0.218651 189 
0.455989 -0.0802921 0.219528 185 
0.456455 -0.080441 0.220404 179 
0.457347 -0.080724 0.221317 184 
0.457393 -0.0807405 0.222162 183 
0.457811 -0.0808743 0.223039 185 
0.457752 -0.0808577 0.223877 186 
0.458066 -0.0809586 0.224748 186 
0.458434 -0.0810767 0.225625 183 
0.459232 -0.08133 0.226545 176 
0.459604 -0.0814492 0.227427 167 
0.459708 -0.0814842 0.228284 165 
0.460243 -0.0816549 0.229185 163 
0.460619 -0.0817753 0.230073 170 
0.461862 -0.082169 0.231052 176 
0.460942 -0.0818812 0.231807 179 
0.461105 -0.0819345 0.232676 179 
0.461269 -0.0819881 0.233545 176 
0.461433 -0.0820419 0.234416 176 
0.462521 -0.0823869 0.235393 179 
0.462742 -0.0824586 0.236274 178 
0.462474 -0.0823762 0.237098 188 
0.462261 -0.0823111 0.237929 181 
0.462104 -0.0822634 0.238765 180 
0.462653 -0.0824388 0.239689 186 
0.462824 -0.0824945 0.240567 193 
0.461256 -0.0820022 0.241225 195 
0.460723 -0.0818362 0.242011 193 
0.460569 -0.0817897 0.242845 192 
0.460093 -0.0816416 0.243636 194 
0.459833 -0.0815617 0.244454 191 
0.459897 -0.0815838 0.245317 197 
0.459155 -0.081352 0.246067 201 
0.458363 -0.0811043 0.246808 198 
0.458107 -0.0810257 0.247623 198 
0.457799 -0.0809306 0.24843 199 
0.457812 -0.0809366 0.249283 198 
0.457559 -0.0808588 0.250097 195 
0.4572 -0.0807476 0.250895 197 
0.456948 -0.0806703 0.251707 198 
0.457016 -0.0806938 0.252569 198 
0.456766 -0.0806169 0.253382 194 
0.455405 -0.0801899 0.254017 190 
0.455316 -0.0801637 0.254851 191 
0.455122 -0.0801045 0.255669 187 
0.454771 -0.0799957 0.256461 185 
0.454894 -0.0800366 0.257331 182 
0.454913 -0.0800445 0.258184 184 
0.455037 -0.0800858 0.259055 176 
0.454688 -0.0799777 0.259846 177 
0.454708 -0.0799861 0.2607 176 
0.455151 -0.0801278 0.26163 176 
0.454909 -0.0800534 0.262439 176 
0.455195 -0.0801456 0.263343 185 
0.455429 -0.0802215 0.264239 189 
0.455558 -0.0802643 0.265117 193 
0.455847 -0.0803574 0.266027 190 
0.455713 -0.080317 0.266857 186 
0.45595 -0.0803939 0.267759 186 
0.455976 -0.0804041 0.268621 189 
0.457013 -0.0807333 0.269681 191 
0.457094 -0.0807608 0.270557 187 
0.457068 -0.0807548 0.271413 190 
0.45731 -0.0808332 0.272323 191 
0.457019 -0.0807433 0.273126 190 
0.457476 -0.0808896 0.274082 190 
0.457507 -0.0809012 0.274952 192 
0.457966 -0.0810482 0.275912 193 
0.458159 -0.0811111 0.276819 190 
0.458191 -0.0811233 0.277692 190 
0.458439 -0.0812035 0.278613 187 
0.458419 -0.0811992 0.279476 186 
0.458507 -0.081229 0.280364 192 
0.458811 -0.081327 0.281301 192 
0.458846 -0.0813402 0.282179 191 
0.458828 -0.0813365 0.283046 192 
0.459459 -0.0815377 0.284061 193 
0.46031 -0.0818082 0.285129 191 
0.460348 -0.0818223 0.286014 190 
0.459735 -0.081631 0.286747 190 
0.460045 -0.081731 0.287695 190 
0.459543 -0.0815744 0.288453 190 
0.459149 -0.0814524 0.289235 190 
0.459136 -0.0814502 0.290108 189 
0.458906 -0.0813799 0.290929 190 
0.458948 -0.0813951 0.291816 192 
0.459044 -0.0814275 0.292717 195 
0.458816 -0.0813577 0.293539 194 
0.458265 -0.0811858 0.294279 190 
0.458201 -0.0811675 0.29514 187 
0.456953 -0.0807759 0.295701 190 
0.456997 -0.0807919 0.296588 192 
0.457525 -0.0809607 0.297602 191 
0.456872 -0.0807565 0.29831 195 
0.457347 -0.0809086 0.299314 198 
0.456641 -0.0806879 0.300006 198 
0.456312 -0.0805863 0.300797 201 
0.456359 -0.0806031 0.301688 198 
0.456246 -0.0805694 0.302537 202 
0.456079 -0.080519 0.303372 199 
0.455807 -0.0804349 0.304177 198 
0.456069 -0.08052 0.30513 201 
0.455477 -0.0803349 0.305846 199 
0.454513 -0.0800328 0.306455 197 
0.455149 -0.0802356 0.307515 197 
0.454134 -0.0799174 0.308107 192 
0.453866 -0.0798347 0.30891 193 
0.453492 -0.0797189 0.309682 196 
0.453437 -0.0797036 0.310546 199 
0.453276 -0.0796551 0.311379 195 
0.452905 -0.0795398 0.31215 191 
0.452904 -0.0795417 0.313031 190 
0.452851 -0.079527 0.313897 193 
0.452428 -0.0793957 0.314651 191 
0.452429 -0.079398 0.315534 190 
0.452008 -0.0792671 0.316287 190 
0.450904 -0.0789208 0.31683 189 
0.451116 -0.0789897 0.317776 192 
0.450488 -0.0787936 0.318462 188 
0.450595 -0.0788296 0.319377 188 
0.450493 -0.0787994 0.320228 186 
0.450392 -0.0787694 0.321078 188 
0.450186 -0.0787065 0.321895 190 
0.44998 -0.0786437 0.322713 185 
0.449723 -0.0785646 0.323513 181 
0.450042 -0.0786674 0.324501 186 
0.44989 -0.0786215 0.325337 182 
0.449059 -0.0783613 0.325948 178 
0.448492 -0.0781842 0.326644 178 
0.449176 -0.0784024 0.327758 177 
0.448609 -0.0782253 0.328453 180 
0.44846 -0.0781803 0.329288 181 
0.448363 -0.0781518 0.330142 179 
0.448423 -0.0781728 0.33105 177 
0.448274 -0.0781282 0.331887 178 
0.448179 -0.0781001 0.332742 178 
0.448084 -0.0780721 0.333597 180 
0.447989 -0.0780443 0.334454 177 
0.448051 -0.0780659 0.335366 179 
0.448061 -0.0780712 0.33626 179 
0.448019 -0.0780602 0.337137 175 
0.447874 -0.0780164 0.337977 176 
0.447521 -0.077907 0.338742 173 
0.44722 -0.0778142 0.339526 169 
0.447857 -0.0780174 0.340652 175 
0.447296 -0.0778425 0.341341 171 
0.447413 -0.0778815 0.342279 170 
0.446491 -0.0775923 0.342831 169 
0.446556 -0.077615 0.34375 168 
0.446725 -0.0776706 0.34471 168 
0.44648 -0.0775951 0.345513 171 
0.44639 -0.077569 0.346376 168 
0.446405 -0.0775757 0.347279 165 
0.445953 -0.0774351 0.348004 164 
0.445968 -0.0774421 0.348908 167 
0.446036 -0.0774655 0.349834 159 
0.446467 -0.077604 0.350903 164 
0.446692 -0.0776771 0.351893 163 
0.446657 -0.0776682 0.352783 160 
0.446362 -0.0775771 0.353569 151 
0.446328 -0.0775684 0.35446 148 
0.446398 -0.0775927 0.355393 150 
0.446468 -0.0776171 0.356327 158 
0.446643 -0.0776746 0.357305 152 
0.446454 -0.0776169 0.358136 147 
0.44663 -0.0776747 0.359117 143 
0.44665 -0.0776832 0.360035 142 
0.44667 -0.0776918 0.360954 138 
0.44643 -0.077618 0.361765 136 
0.446503 -0.0776432 0.362708 128 
0.446995 -0.0778009 0.363829 132 
0.447017 -0.07781 0.364753 133 
0.446987 -0.0778027 0.365656 133 
0.4468 -0.0777458 0.366492 132 
0.446876 -0.0777718 0.367442 136 
0.447214 -0.0778808 0.368506 134 
0.447396 -0.0779404 0.369505 138 
0.44742 -0.0779502 0.370437 137 
0.447445 -0.0779602 0.371369 133 
0.447944 -0.0781202 0.372513 131 
0.44739 -0.0779473 0.373192 139 
0.447258 -0.0779077 0.374058 138 
0.447969 -0.0781348 0.375302 131 
0.448208 -0.0782123 0.376337 129 
0.4485 -0.0783068 0.377398 135 
0.448422 -0.0782843 0.378293 133 
0.448503 -0.0783121 0.379261 138 
0.449062 -0.0784913 0.380451 129 
0.448826 -0.0784186 0.381277 123 
0.448802 -0.0784133 0.382201 125 
0.449098 -0.0785091 0.383275 131 
0.448915 -0.0784535 0.384127 129 
0.448946 -0.0784654 0.385079 124 
0.449137 -0.078528 0.386109 122 
0.449275 -0.0785739 0.387115 126 
0.440532 -0.0784587 -0.0223796 9 
0.442341 -0.0790444 -0.0223526 8 
0.440698 -0.0785169 -0.0206076 8 
0.443546 -0.0794374 -0.0210866 8 
0.446801 -0.0804891 -0.0217536 9 
0.443196 -0.0793287 -0.0190516 6 
0.443203 -0.0793332 -0.0181266 6 
0.441506 -0.0787884 -0.0163756 10 
0.443374 -0.0793927 -0.0163526 8 
0.443122 -0.0793139 -0.0153056 10 
0.442821 -0.0792187 -0.0142356 8 
0.442829 -0.0792238 -0.0133166 11 
0.443356 -0.0793958 -0.0126436 9 
0.442797 -0.0792176 -0.0114566 8 
0.441777 -0.0788908 -0.0100566 7 
0.442507 -0.0791286 -0.00948059 11 
0.443551 -0.0794673 -0.0090466 10 
0.444079 -0.07964 -0.00837159 9 
0.443676 -0.079512 -0.00726559 9 
0.442809 -0.0792347 -0.00594958 13 
0.443182 -0.0793571 -0.00520458 13 
0.44273 -0.0792135 -0.00408358 15 
0.443671 -0.0795192 -0.00359559 11 
0.442088 -0.0790107 -0.00196859 12 
0.441896 -0.078951 -0.000972595 10 
0.442833 -0.0792555 -0.000480588 14 
0.440954 -0.0786513 0.00126341 12 
0.443685 -0.0795346 0.000964407 16 
0.442516 -0.0791597 0.00238741 15 
0.442788 -0.0792494 0.00317641 12 
0.442188 -0.079058 0.00434441 16 
0.442767 -0.0792469 0.0049984 16 
0.4413 -0.078776 0.00653442 19 
0.441164 -0.0787342 0.00749441 22 
0.44113 -0.0787253 0.00840941 18 
0.443037 -0.0793426 0.00850042 14 
0.441317 -0.0787899 0.0101284 16 
0.440877 -0.0786503 0.0112104 17 
0.441302 -0.0787893 0.0119294 19 
0.441371 -0.0788137 0.0127974 15 
0.441186 -0.0787563 0.0137694 16 
0.440749 -0.0786174 0.0148434 17 
0.44001 -0.0783812 0.0160384 20 
0.44094 -0.0786833 0.0165504 20 
0.438744 -0.0779767 0.0183304 23 
0.440071 -0.0784071 0.0186824 22 
0.439689 -0.078286 0.0197234 24 
0.439711 -0.078295 0.0206014 30 
0.438179 -0.077803 0.0220934 23 
0.438351 -0.0778606 0.0229084 25 
0.438974 -0.0780635 0.0235454 23 
0.438646 -0.07796 0.0245554 27 
0.43862 -0.0779534 0.0254464 28 
0.437448 -0.0775774 0.0267774 29 
0.43787 -0.0777156 0.0274924 30 
0.437199 -0.0775012 0.0286244 29 
0.437125 -0.0774793 0.0295274 29 
0.437001 -0.0774415 0.0304474 29 
0.43782 -0.0777078 0.0310134 25 
0.438243 -0.0778464 0.0317294 25 
0.437475 -0.0776005 0.0328874 26 
0.437848 -0.0777231 0.0336214 23 
0.43867 -0.0779905 0.0341914 26 
0.437555 -0.0776326 0.0354704 19 
0.438575 -0.0779639 0.0359704 20 
0.438752 -0.0780231 0.0367774 24 
0.439478 -0.0782595 0.0373874 25 
0.440608 -0.0786262 0.0378564 23 
0.440185 -0.0784918 0.0388794 22 
0.440866 -0.0787136 0.0395114 23 
0.439144 -0.0781599 0.0409854 24 
0.438527 -0.0779629 0.0420674 26 
0.439952 -0.0784248 0.0424404 30 
0.439583 -0.0783077 0.0434354 35 
0.439713 -0.0783519 0.0442574 39 
0.440694 -0.0786707 0.0447904 38 
0.440225 -0.0785212 0.0458164 41 
0.441058 -0.0787922 0.0464024 40 
0.441241 -0.0788532 0.0472084 41 
0.441977 -0.079093 0.0478314 40 
0.441456 -0.078927 0.0488704 44 
0.442143 -0.0791508 0.0495114 46 
0.44258 -0.0792939 0.0502354 44 
0.442867 -0.0793884 0.0510094 49 
0.443154 -0.0794831 0.0517844 52 
0.44243 -0.0792517 0.0528814 52 
0.443527 -0.0796077 0.0533984 48 
0.443359 -0.0795557 0.0543164 48 
0.4438 -0.0797001 0.0550444 50 
0.444293 -0.0798613 0.0557564 51 
0.444533 -0.0799407 0.0565474 54 
0.444722 -0.0800039 0.0573554 54 
0.445065 -0.0801166 0.0581154 58 
0.445001 -0.0800979 0.0590004 60 
0.445344 -0.080211 0.0597614 63 
0.446098 -0.0804564 0.0604014 54 
0.44583 -0.0803719 0.0613464 55 
0.445614 -0.0803042 0.0622734 53 
0.4455 -0.0802696 0.0631694 53 
0.445796 -0.080367 0.0639464 49 
0.44604 -0.0804481 0.0647384 49 
0.446388 -0.0805624 0.0655004 49 
0.446583 -0.0806274 0.0663074 49 
0.447292 -0.0808583 0.0669704 48 
0.448157 -0.0811399 0.0675904 53 
0.448716 -0.0813225 0.0682994 44 
0.4499 -0.0817067 0.0688384 47 
0.449424 -0.0815552 0.0698344 56 
0.44952 -0.0815882 0.0706734 66 
0.449461 -0.0815711 0.0715534 72 
0.449765 -0.0816714 0.0723354 73 
0.450642 -0.0819568 0.0729664 69 
0.451105 -0.0821084 0.0737094 65 
0.451099 -0.0821086 0.0745754 65 
0.451355 -0.0821932 0.0753744 63 
0.45203 -0.0824133 0.0760654 57 
0.452971 -0.0827191 0.0766904 67 
0.453546 -0.0829069 0.0774114 67 
0.454175 -0.0831124 0.0781204 72 
0.454066 -0.0830792 0.0790154 76 
0.454645 -0.0832683 0.0797394 79 
0.454748 -0.0833037 0.0805824 80 
0.455117 -0.083425 0.0813594 85 
0.455063 -0.0834093 0.0822404 89 
0.455061 -0.083411 0.0831074 88 
0.455539 -0.0835672 0.0838614 94 
0.45607 -0.083741 0.0846034 97 
0.45655 -0.0838982 0.0853584 103 
0.456872 -0.084004 0.0861524 106 
0.457193 -0.0841101 0.0869463 103 
0.457516 -0.0842164 0.087741 95 
0.457572 -0.0842365 0.0885968 96 
0.457467 -0.0842047 0.0894879 101 
0.457953 -0.0843637 0.0902476 112 
0.458494 -0.0845405 0.0909967 112 
0.458229 -0.084457 0.0919223 107 
0.458288 -0.0844779 0.0927769 109 
0.459208 -0.0847774 0.0934475 106 
0.460404 -0.0851658 0.0940631 108 
0.460084 -0.0850647 0.0949999 106 
0.460253 -0.0851214 0.0958337 106 
0.45999 -0.0850383 0.0967565 113 
0.459943 -0.0850253 0.0976337 121 
0.46006 -0.085065 0.0984774 113 
0.460123 -0.0850874 0.0993318 109 
0.460078 -0.085075 0.100207 116 
0.460684 -0.0852729 0.100955 124 
0.46102 -0.0853836 0.101757 113 
0.460326 -0.0851614 0.102756 108 
0.460717 -0.0852898 0.103548 106 
0.460892 -0.0853484 0.10438 99 
0.46058 -0.0852495 0.105304 102 
0.46081 -0.0853259 0.106126 104 
0.460661 -0.0852799 0.107017 106 
0.460622 -0.0852692 0.107888 105 
0.461288 -0.0854865 0.108633 103 
0.460815 -0.0853358 0.10958 116 
0.460561 -0.0852556 0.110487 121 
0.460957 -0.0853857 0.111281 125 
0.46065 -0.0852884 0.112195 132 
0.460614 -0.0852788 0.113062 136 
0.460362 -0.0851995 0.113964 135 
0.460381 -0.0852078 0.114821 143 
0.460455 -0.0852338 0.115669 145 
0.460314 -0.0851901 0.11655 155 
0.460713 -0.0853212 0.117346 146 
0.460195 -0.0851557 0.118286 147 
0.45941 -0.0849038 0.119264 156 
0.458842 -0.0847224 0.120206 157 
0.458705 -0.0846801 0.12108 155 
0.458462 -0.0846035 0.12197 157 
0.457952 -0.0844408 0.122897 158 
0.457658 -0.0843476 0.12379 162 
0.456356 -0.0839288 0.124825 161 
0.456012 -0.0838197 0.125721 160 
0.456145 -0.0838647 0.126549 163 
0.456332 -0.083927 0.12737 169 
0.455304 -0.0835968 0.128354 170 
0.454912 -0.0834721 0.12925 172 
0.454837 -0.0834497 0.130103 169 
0.454552 -0.0833596 0.130982 174 
0.454111 -0.0832191 0.13188 176 
0.453724 -0.0830959 0.132768 175 
0.453495 -0.0830238 0.133636 171 
0.453214 -0.0829351 0.134508 171 
0.453195 -0.0829309 0.135349 176 
0.45193 -0.082524 0.136333 177 
0.451499 -0.0823864 0.137217 178 
0.451379 -0.0823495 0.138065 178 
0.450795 -0.0821628 0.138962 176 
0.450625 -0.0821098 0.139813 181 
0.451125 -0.0822734 0.140591 180 
0.450493 -0.082071 0.141489 178 
0.450017 -0.081919 0.142368 181 
0.44985 -0.081867 0.143215 183 
0.449684 -0.0818152 0.14406 178 
0.449365 -0.0817141 0.144919 181 
0.448487 -0.081432 0.145829 181 
0.447968 -0.0812662 0.146703 183 
0.447248 -0.0810355 0.147593 181 
0.446936 -0.0809364 0.148443 186 
0.446978 -0.0809519 0.149261 183 
0.446616 -0.0808369 0.150114 186 
0.446306 -0.0807387 0.15096 184 
0.445998 -0.0806408 0.151805 180 
0.447049 -0.0809829 0.152541 180 
0.445935 -0.0806245 0.153448 180 
0.44578 -0.0805761 0.154279 181 
0.445625 -0.0805279 0.155108 182 
0.44552 -0.0804961 0.155934 179 
0.445617 -0.0805293 0.156744 177 
0.445264 -0.0804169 0.157586 183 
0.445211 -0.0804019 0.158406 182 
0.44526 -0.0804195 0.159219 179 
0.445159 -0.0803887 0.160042 183 
0.445158 -0.0803905 0.160858 182 
0.445008 -0.0803439 0.161682 185 
0.444959 -0.0803299 0.1625 183 
0.44491 -0.0803161 0.163318 187 
0.444862 -0.0803024 0.164136 187 
0.444714 -0.0802567 0.164958 191 
0.444618 -0.0802273 0.165777 191 
0.444821 -0.0802949 0.166582 189 
0.444675 -0.0802498 0.167403 190 
0.44443 -0.0801726 0.168227 185 
0.444386 -0.0801601 0.169042 182 
0.444442 -0.08018 0.169853 185 
0.444847 -0.0803131 0.170652 184 
0.444654 -0.0802527 0.171473 186 
0.444462 -0.0801926 0.172292 179 
0.44452 -0.0802132 0.173104 182 
0.444779 -0.0802987 0.17391 178 
0.444538 -0.0802229 0.174729 180 
0.444598 -0.0802442 0.175541 175 
0.444808 -0.080314 0.17635 178 
0.44462 -0.080255 0.177167 180 
0.444532 -0.0802284 0.177982 175 
0.444544 -0.0802343 0.178794 172 
0.444606 -0.0802564 0.179606 171 
0.44452 -0.0802304 0.18042 172 
0.444933 -0.080366 0.181229 167 
0.445197 -0.0804535 0.18204 164 
0.445262 -0.0804765 0.182854 166 
0.445628 -0.0805969 0.183666 161 
0.445795 -0.0806527 0.18448 165 
0.445662 -0.0806115 0.185296 165 
0.446281 -0.080814 0.186111 173 
0.446853 -0.0810009 0.186929 183 
0.447124 -0.0810906 0.187748 193 
0.447093 -0.0810824 0.188565 193 
0.447315 -0.0811562 0.189385 190 
0.447235 -0.0811321 0.190203 189 
0.447003 -0.0810592 0.191018 189 
0.44748 -0.0812153 0.191842 192 
0.447502 -0.0812245 0.192661 190 
0.447829 -0.0813321 0.193486 192 
0.448258 -0.081473 0.194315 195 
0.448333 -0.0814992 0.195137 194 
0.449784 -0.0819709 0.195992 199 
0.449861 -0.0819977 0.196818 198 
0.449683 -0.081942 0.197637 197 
0.449812 -0.0819858 0.198464 197 
0.450095 -0.0820795 0.199297 200 
0.44997 -0.0820408 0.200117 199 
0.450101 -0.0820852 0.200946 202 
0.450284 -0.0821464 0.201777 203 
0.450417 -0.0821913 0.202608 203 
0.450499 -0.0822198 0.203437 199 
0.450633 -0.0822651 0.204268 199 
0.450973 -0.0823772 0.20511 196 
0.451263 -0.082473 0.20595 200 
0.451554 -0.0825692 0.206792 197 
0.451949 -0.0826991 0.207641 201 
0.453124 -0.0830814 0.208533 200 
0.453315 -0.0831454 0.209375 202 
0.453403 -0.0831759 0.210212 201 
0.453596 -0.0832404 0.211056 196 
0.453999 -0.0833727 0.211914 197 
0.453985 -0.0833701 0.212747 192 
0.454233 -0.0834523 0.213597 192 
0.454848 -0.0836535 0.214473 190 
0.454993 -0.0837024 0.215319 190 
0.45598 -0.0840241 0.216226 190 
0.456128 -0.0840738 0.217075 188 
0.456276 -0.0841237 0.217925 193 
0.456372 -0.0841568 0.218772 193 
0.456944 -0.0843442 0.219657 189 
0.457042 -0.0843778 0.220506 183 
0.45783 -0.0846351 0.221413 181 
0.45777 -0.0846176 0.222252 178 
0.458083 -0.0847209 0.223122 183 
0.459091 -0.0850495 0.224056 182 
0.458872 -0.0849806 0.224883 178 
0.459296 -0.0851198 0.225768 176 
0.459292 -0.0851205 0.226615 175 
0.459826 -0.0852952 0.227515 170 
0.460146 -0.0854009 0.228395 171 
0.459929 -0.0853327 0.229223 165 
0.459551 -0.0852125 0.230034 167 
0.459873 -0.0853187 0.230917 163 
0.460142 -0.0854078 0.231796 171 
0.460898 -0.0856545 0.232728 174 
0.461494 -0.0858497 0.233647 178 
0.461279 -0.0857823 0.234477 179 
0.460742 -0.0856101 0.235269 182 
0.461177 -0.0857533 0.236173 189 
0.461615 -0.0858969 0.237079 190 
0.461782 -0.0859532 0.237955 189 
0.462168 -0.0860801 0.238858 194 
0.460063 -0.0854005 0.239454 192 
0.459639 -0.0852651 0.240254 192 
0.45927 -0.0851476 0.24106 192 
0.459117 -0.0850999 0.241892 192 
0.457788 -0.0846715 0.24257 192 
0.45801 -0.0847454 0.24345 193 
0.457273 -0.0845087 0.2442 195 
0.457229 -0.0844966 0.245044 202 
0.457027 -0.084433 0.245866 199 
0.456719 -0.0843353 0.246673 201 
0.456412 -0.0842379 0.247478 201 
0.456159 -0.0841579 0.248291 202 
0.455431 -0.0839242 0.249033 197 
0.454864 -0.0837425 0.249797 198 
0.455933 -0.0840909 0.250806 193 
0.455419 -0.0839262 0.251577 193 
0.454222 -0.0835406 0.252241 191 
0.45387 -0.0834284 0.253033 190 
0.453571 -0.0833336 0.253832 191 
0.453692 -0.0833748 0.254699 184 
0.453708 -0.0833822 0.255549 182 
0.453568 -0.0833388 0.256374 181 
0.453639 -0.0833636 0.257234 179 
0.453552 -0.0833376 0.258068 180 
0.453781 -0.0834137 0.258956 177 
0.453748 -0.0834051 0.2598 180 
0.454188 -0.0835498 0.260728 177 
0.454789 -0.0837463 0.261686 185 
0.453863 -0.0834483 0.262373 189 
0.453675 -0.0833893 0.26319 189 
0.45354 -0.0833476 0.264017 186 
0.453563 -0.0833571 0.264874 186 
0.453744 -0.0834178 0.26576 189 
0.454083 -0.0835298 0.266678 190 
0.454266 -0.0835911 0.267567 186 
0.454608 -0.0837039 0.268488 189 
0.454739 -0.0837486 0.26937 190 
0.455083 -0.0838621 0.270296 185 
0.455694 -0.0840619 0.271275 188 
0.456626 -0.0843662 0.272323 193 
0.456229 -0.0842395 0.273105 190 
0.456152 -0.0842166 0.273951 184 
0.456342 -0.0842801 0.274853 187 
0.456586 -0.0843612 0.275767 188 
0.456724 -0.084408 0.276661 190 
0.457076 -0.0845243 0.277601 190 
0.45743 -0.0846411 0.278543 190 
0.457517 -0.0846713 0.27943 187 
0.457873 -0.0847887 0.280376 187 
0.458553 -0.0850113 0.281396 187 
0.458265 -0.0849201 0.282203 191 
0.458355 -0.0849512 0.283095 192 
0.45823 -0.0849127 0.283938 189 
0.458429 -0.0849792 0.284856 190 
0.458628 -0.0850459 0.285776 187 
0.459586 -0.0853585 0.286873 188 
0.458975 -0.0851626 0.287606 193 
0.459556 -0.0853531 0.28862 188 
0.458676 -0.0850698 0.289287 183 
0.458555 -0.0850325 0.290134 183 
0.458812 -0.085118 0.291074 184 
0.458691 -0.0850809 0.291922 184 
0.459655 -0.0853954 0.293039 183 
0.458668 -0.0850776 0.293674 184 
0.458549 -0.0850411 0.294523 182 
0.458376 -0.0849872 0.295359 180 
0.458691 -0.0850913 0.29632 183 
0.458465 -0.0850202 0.297143 181 
0.458024 -0.0848793 0.29791 185 
0.457692 -0.0847737 0.298704 185 
0.45763 -0.0847558 0.299569 187 
0.457461 -0.0847031 0.300406 189 
0.45697 -0.0845459 0.301156 193 
0.45691 -0.0845284 0.302021 194 
0.456528 -0.0844066 0.302799 198 
0.456415 -0.0843721 0.30365 197 
0.456464 -0.08439 0.304546 194 
0.456137 -0.0842862 0.305338 192 
0.455865 -0.0842 0.306145 187 
0.456022 -0.0842531 0.307073 193 
0.456019 -0.0842542 0.307956 194 
0.455427 -0.0840643 0.308671 194 
0.45473 -0.0838405 0.309354 190 
0.454249 -0.0836864 0.310098 193 
0.453397 -0.0834123 0.310732 195 
0.453078 -0.0833108 0.31152 197 
0.453024 -0.0832954 0.312386 198 
0.453182 -0.0833489 0.313316 199 
0.453076 -0.0833166 0.314167 198 
0.452865 -0.0832501 0.314987 195 
0.45276 -0.0832182 0.31584 195 
0.452761 -0.0832207 0.316725 197 
0.452392 -0.0831032 0.317496 197 
0.452236 -0.0830545 0.318333 193 
0.45245 -0.0831261 0.319286 197 
0.451555 -0.0828379 0.319891 194 
0.451242 -0.0827385 0.320677 191 
0.45072 -0.0825712 0.321396 191 
0.450304 -0.0824383 0.322148 196 
0.450098 -0.0823737 0.322967 193 
0.449684 -0.0822414 0.323717 195 
0.449636 -0.0822282 0.324587 192 
0.449537 -0.0821981 0.32544 187 
0.449648 -0.082236 0.326364 185 
0.450757 -0.0825979 0.327621 186 
0.449085 -0.0820577 0.32795 182 
0.448779 -0.0819604 0.328735 185 
0.447848 -0.0816607 0.329306 183 
0.447596 -0.0815809 0.330106 186 
0.447656 -0.0816024 0.331014 183 
0.44756 -0.0815734 0.331869 185 
0.44762 -0.0815951 0.332778 182 
0.447629 -0.0816002 0.33367 188 
0.447431 -0.0815378 0.33449 185 
0.447285 -0.0814925 0.335329 186 
0.447555 -0.0815823 0.336316 184 
0.447565 -0.0815878 0.337212 180 
0.447264 -0.0814922 0.337996 179 
0.447119 -0.0814474 0.338837 179 
0.447287 -0.0815039 0.339791 179 
0.446416 -0.0812235 0.340366 178 
0.446273 -0.0811791 0.341207 176 
0.446648 -0.0813031 0.34224 176 
0.446143 -0.0811412 0.342947 174 
0.446571 -0.0812822 0.344003 170 
0.446533 -0.081272 0.344886 166 
0.445666 -0.0809927 0.345454 168 
0.446094 -0.0811339 0.346515 161 
0.44585 -0.0810567 0.347319 162 
0.445813 -0.0810469 0.348204 158 
0.447076 -0.081459 0.349594 157 
0.445793 -0.0810445 0.349995 160 
0.446588 -0.0813048 0.351209 155 
0.445721 -0.0810257 0.35177 152 
0.445686 -0.0810165 0.352659 154 
0.445911 -0.0810916 0.353652 152 
0.445981 -0.0811164 0.354585 145 
0.445947 -0.0811075 0.355477 139 
0.446017 -0.0811325 0.356412 145 
0.445984 -0.0811239 0.357305 154 
0.445899 -0.0810985 0.358179 151 
0.445503 -0.080972 0.358924 155 
0.445731 -0.081048 0.359927 155 
0.445855 -0.0810905 0.360889 145 
0.44624 -0.0812178 0.361962 143 
0.445897 -0.0811084 0.36273 140 
0.446022 -0.0811513 0.363696 140 
0.446096 -0.0811775 0.364642 128 
0.446484 -0.0813056 0.365723 136 
0.446402 -0.0812812 0.366604 142 
0.446164 -0.0812059 0.367419 137 
0.446239 -0.0812326 0.36837 134 
0.446787 -0.0814126 0.369528 141 
0.446549 -0.0813375 0.370345 132 
0.446573 -0.0813477 0.371277 133 
0.447176 -0.0815455 0.372466 129 
0.446991 -0.0814877 0.373309 135 
0.447122 -0.0815325 0.374292 136 
0.447201 -0.0815603 0.375254 141 
0.447755 -0.0817424 0.376432 144 
0.447624 -0.081702 0.377302 146 
0.447441 -0.0816446 0.378149 144 
0.447627 -0.0817073 0.379165 136 
0.447761 -0.0817531 0.380158 134 
0.447843 -0.0817818 0.38113 138 
0.448031 -0.0818451 0.382151 131 
0.447795 -0.0817709 0.382977 128 
0.447719 -0.0817484 0.383878 129 
0.447697 -0.0817432 0.384804 129 
0.448152 -0.0818932 0.385958 124 
0.448715 -0.0820784 0.387166 120 
0.440482 -0.0820637 -0.0226886 7 
0.440796 -0.0821699 -0.0219156 8 
0.439879 -0.0818686 -0.0205306 4 
0.44045 -0.0820596 -0.0198866 3 
0.440918 -0.0822171 -0.0191916 6 
0.440464 -0.0820688 -0.0180416 5 
0.439043 -0.0816003 -0.0164236 9 
0.439 -0.0815885 -0.0154826 10 
0.441772 -0.0825085 -0.0159036 9 
0.441369 -0.0823772 -0.0147846 7 
0.442562 -0.0827747 -0.0144336 9 
0.43975 -0.0818454 -0.0121676 9 
0.441858 -0.082546 -0.0122516 10 
0.442435 -0.082739 -0.0116026 13 
0.444361 -0.0833792 -0.0115876 8 
0.441991 -0.0825965 -0.00955259 11 
0.440925 -0.0822455 -0.00813658 10 
0.442064 -0.0826249 -0.00774958 10 
0.441613 -0.0824778 -0.00662459 11 
0.443013 -0.0829438 -0.00635258 9 
0.441329 -0.0823881 -0.0046646 12 
0.44083 -0.0822251 -0.00352458 11 
0.441969 -0.0826044 -0.00312958 14 
0.44106 -0.0823057 -0.00180758 11 
0.442302 -0.0827192 -0.00145459 13 
0.442419 -0.0827598 -0.000594582 15 
0.441817 -0.0825627 0.000583414 15 
0.441933 -0.0826035 0.00144041 11 
0.440672 -0.0821878 0.0029044 12 
0.440484 -0.0821276 0.00389141 12 
0.441671 -0.082523 0.00427741 13 
0.441584 -0.0824964 0.00522042 13 
0.440988 -0.0823012 0.00638141 13 
0.44182 -0.0825789 0.00692641 19 
0.442143 -0.0826881 0.00769142 17 
0.439923 -0.0819545 0.00953742 16 
0.441564 -0.0825006 0.00974141 15 
0.440819 -0.0822557 0.0109544 18 
0.439421 -0.0817947 0.0124374 22 
0.439994 -0.0819868 0.0130924 19 
0.440064 -0.0820119 0.0139574 21 
0.438824 -0.0816032 0.0153624 16 
0.438643 -0.0815453 0.0163264 18 
0.438813 -0.0816039 0.0171454 23 
0.439235 -0.0817459 0.0178634 22 
0.438453 -0.0814889 0.0190674 21 
0.437725 -0.0812497 0.0202454 17 
0.438346 -0.0814575 0.0208814 20 
0.437271 -0.0811033 0.0221924 24 
0.437691 -0.0812447 0.0229084 22 
0.436225 -0.080761 0.0243654 22 
0.436941 -0.0810005 0.0249634 23 
0.437014 -0.0810267 0.0258134 28 
0.436493 -0.0808561 0.0268924 30 
0.436468 -0.0808498 0.0277774 29 
0.436344 -0.0808108 0.0287004 25 
0.43622 -0.080772 0.0296214 24 
0.436295 -0.0807987 0.0304664 25 
0.436222 -0.0807765 0.0313664 27 
0.436198 -0.0807708 0.0322464 24 
0.436421 -0.0808469 0.0330344 19 
0.436744 -0.0809558 0.0337854 20 
0.437413 -0.0811799 0.0344104 21 
0.438185 -0.0814375 0.0349994 18 
0.438112 -0.0814157 0.0358974 18 
0.437446 -0.0811967 0.0370094 25 
0.437771 -0.0813066 0.0377624 23 
0.438842 -0.0816639 0.0382484 26 
0.438821 -0.0816588 0.0391274 26 
0.437956 -0.081374 0.0403024 30 
0.439427 -0.0818639 0.0406534 26 
0.438958 -0.0817105 0.0416864 29 
0.438789 -0.0816565 0.0426134 36 
0.43867 -0.0816191 0.0435204 37 
0.438999 -0.0817302 0.0442744 38 
0.438781 -0.0816602 0.0452144 44 
0.439659 -0.0819532 0.0457824 47 
0.439491 -0.0818996 0.0467044 43 
0.439773 -0.0819949 0.0474754 46 
0.440404 -0.0822064 0.0481314 44 
0.441139 -0.0824518 0.0487544 47 
0.441071 -0.0824316 0.0496424 46 
0.441205 -0.0824779 0.0504644 47 
0.441088 -0.0824413 0.0513674 46 
0.441524 -0.0825878 0.0520914 47 
0.442061 -0.082768 0.0527844 51 
0.442953 -0.0830659 0.0533664 49 
0.443191 -0.0831467 0.0541574 50 
0.442822 -0.0830265 0.0551394 56 
0.442908 -0.0830572 0.0559764 55 
0.443552 -0.0832725 0.0566414 62 
0.443892 -0.0833876 0.0574014 59 
0.444031 -0.0834356 0.0582244 57 
0.443866 -0.0833828 0.0591384 59 
0.444462 -0.0835826 0.0598224 64 
0.44506 -0.0837829 0.0605084 61 
0.445405 -0.0838993 0.0612704 56 
0.445291 -0.0838636 0.0621684 56 
0.445279 -0.0838618 0.0630354 60 
0.446341 -0.084216 0.0635904 57 
0.446843 -0.0843845 0.0643104 60 
0.446269 -0.0841961 0.0653394 51 
0.44713 -0.0844839 0.0659584 48 
0.44712 -0.0844827 0.0668254 47 
0.447368 -0.0845669 0.0676194 48 
0.447411 -0.084583 0.0684714 51 
0.448588 -0.0849755 0.0690094 53 
0.44827 -0.084872 0.0699614 61 
0.448365 -0.0849057 0.0707994 64 
0.448771 -0.0850424 0.0715534 69 
0.449178 -0.0851794 0.0723074 72 
0.449327 -0.0852309 0.0731324 68 
0.449735 -0.0853685 0.0738874 68 
0.451083 -0.0858175 0.0743984 63 
0.451705 -0.0860259 0.0751024 59 
0.451386 -0.0859221 0.0760514 65 
0.451852 -0.0860788 0.0767974 65 
0.452582 -0.0863231 0.0774784 66 
0.45321 -0.0865333 0.0781864 66 
0.453312 -0.0865691 0.0790284 71 
0.453308 -0.0865701 0.0798964 77 
0.453201 -0.0865364 0.0807894 85 
0.453831 -0.0867477 0.0815014 86 
0.45457 -0.0869948 0.0821894 83 
0.455205 -0.0872076 0.0829044 88 
0.455576 -0.0873328 0.0836844 88 
0.455523 -0.0873171 0.0845654 87 
0.455949 -0.0874604 0.0853334 82 
0.456536 -0.0876573 0.0860654 85 
0.456697 -0.0877129 0.0868972 90 
0.456806 -0.0877509 0.087741 96 
0.457343 -0.0879312 0.088488 102 
0.457238 -0.0878985 0.0893802 111 
0.457134 -0.0878661 0.0902714 108 
0.458103 -0.0881896 0.0909259 100 
0.458268 -0.0882465 0.0917587 99 
0.458649 -0.088375 0.0925451 104 
0.458816 -0.0884323 0.0933784 103 
0.459577 -0.088687 0.094086 105 
0.459205 -0.0885656 0.0950338 106 
0.459373 -0.0886235 0.0958674 103 
0.459057 -0.0885205 0.0968009 106 
0.459712 -0.0887402 0.0975346 112 
0.459829 -0.0887808 0.0983793 117 
0.460108 -0.0888756 0.0991914 114 
0.459522 -0.0886834 0.100175 108 
0.459803 -0.0887784 0.100987 106 
0.460354 -0.0889635 0.101746 101 
0.460257 -0.0889333 0.102632 93 
0.460594 -0.0890471 0.103435 93 
0.460443 -0.0889992 0.10433 102 
0.46051 -0.0890235 0.105183 96 
0.460795 -0.0891199 0.105997 105 
0.460483 -0.0890186 0.106919 109 
0.461475 -0.0893498 0.107605 121 
0.461055 -0.0892125 0.108546 127 
0.460854 -0.0891477 0.109447 128 
0.461087 -0.0892272 0.11027 129 
0.461321 -0.089307 0.111094 136 
0.461067 -0.0892247 0.112002 138 
0.461465 -0.0893589 0.112799 146 
0.461321 -0.089313 0.113686 147 
0.460635 -0.0890875 0.114662 145 
0.460763 -0.0891321 0.115502 142 
0.460459 -0.0890331 0.116412 144 
0.46048 -0.0890422 0.117269 146 
0.4591 -0.0885862 0.118344 150 
0.4588 -0.0884888 0.119247 149 
0.458395 -0.0883561 0.120165 158 
0.458418 -0.088366 0.121016 156 
0.458228 -0.088305 0.121899 158 
0.457399 -0.0880317 0.122873 160 
0.457158 -0.0879538 0.12376 164 
0.456759 -0.0878233 0.124667 161 
0.456733 -0.0878165 0.125521 163 
0.457025 -0.0879157 0.12633 172 
0.456894 -0.087874 0.127197 177 
0.456021 -0.0875864 0.128164 168 
0.454417 -0.0870558 0.129223 168 
0.454184 -0.0869806 0.130096 167 
0.454319 -0.0870274 0.130922 174 
0.453931 -0.0869004 0.131814 172 
0.453648 -0.0868086 0.132691 175 
0.453419 -0.0867344 0.133559 175 
0.45293 -0.086574 0.134458 180 
0.452598 -0.086466 0.135336 174 
0.452165 -0.086324 0.136225 178 
0.452199 -0.0863373 0.137058 180 
0.451922 -0.0862475 0.137925 180 
0.450666 -0.0858324 0.1389 176 
0.450496 -0.0857779 0.139752 176 
0.450224 -0.0856895 0.140613 178 
0.450107 -0.0856526 0.141457 179 
0.449734 -0.0855307 0.142326 180 
0.449516 -0.0854602 0.143179 184 
0.449145 -0.0853391 0.144045 183 
0.449031 -0.0853032 0.144884 186 
0.448866 -0.0852506 0.145728 184 
0.447787 -0.0848941 0.146656 188 
0.446916 -0.0846068 0.147561 188 
0.446654 -0.0845218 0.148407 186 
0.446242 -0.0843869 0.149266 183 
0.446184 -0.0843695 0.150092 182 
0.446025 -0.0843188 0.150927 184 
0.445717 -0.0842183 0.151773 183 
0.44571 -0.0842181 0.152593 182 
0.445705 -0.0842181 0.153414 185 
0.445699 -0.0842183 0.154234 183 
0.445745 -0.0842354 0.15505 186 
0.445741 -0.084236 0.155869 182 
0.445487 -0.0841535 0.156706 182 
0.445033 -0.0840047 0.157555 180 
0.445031 -0.0840059 0.158373 178 
0.444679 -0.083891 0.159213 180 
0.444878 -0.083959 0.160017 182 
0.444927 -0.0839774 0.160831 178 
0.444927 -0.0839793 0.161648 183 
0.444778 -0.0839316 0.162473 183 
0.444679 -0.0839008 0.163294 181 
0.444731 -0.0839199 0.164107 181 
0.444933 -0.083989 0.164913 181 
0.444836 -0.0839587 0.165734 182 
0.44439 -0.0838126 0.16657 184 
0.444594 -0.0838822 0.167376 188 
0.444698 -0.0839188 0.168187 188 
0.444554 -0.0838727 0.169008 182 
0.444659 -0.0839098 0.169819 183 
0.444416 -0.0838309 0.170643 184 
0.444523 -0.0838683 0.171454 186 
0.444431 -0.0838396 0.172271 183 
0.444389 -0.0838277 0.173087 184 
0.444448 -0.0838491 0.1739 184 
0.444606 -0.0839038 0.17471 183 
0.444716 -0.0839422 0.175522 182 
0.444677 -0.083931 0.176337 180 
0.445388 -0.0841692 0.177137 176 
0.44575 -0.0842915 0.177946 174 
0.445111 -0.0840812 0.178774 174 
0.444974 -0.0840375 0.179591 173 
0.444987 -0.0840439 0.180406 167 
0.445201 -0.0841169 0.181218 162 
0.445266 -0.0841403 0.182033 165 
0.445631 -0.0842638 0.182846 165 
0.445998 -0.0843877 0.183661 165 
0.446266 -0.0844786 0.184477 172 
0.446535 -0.0845698 0.185294 176 
0.446804 -0.0846613 0.186112 181 
0.446873 -0.084686 0.186931 187 
0.44669 -0.0846272 0.187749 190 
0.446608 -0.0846021 0.188567 192 
0.447082 -0.0847615 0.189389 190 
0.447254 -0.0848206 0.19021 186 
0.447478 -0.0848969 0.191032 188 
0.447601 -0.0849397 0.191854 186 
0.447674 -0.0849659 0.192676 188 
0.448204 -0.085144 0.193506 189 
0.449042 -0.0854244 0.194345 192 
0.44927 -0.0855023 0.195173 196 
0.449397 -0.0855465 0.196 201 
0.449525 -0.0855909 0.196827 199 
0.449347 -0.0855337 0.197647 197 
0.449578 -0.0856125 0.198478 195 
0.449913 -0.0857257 0.199313 199 
0.449736 -0.085669 0.200133 198 
0.450021 -0.0857656 0.200968 200 
0.450358 -0.0858795 0.201807 201 
0.450593 -0.0859598 0.202643 201 
0.451912 -0.0864002 0.203525 201 
0.451737 -0.086344 0.204347 202 
0.45265 -0.0866492 0.205218 199 
0.452631 -0.0866449 0.206049 202 
0.452768 -0.0866925 0.206887 202 
0.45275 -0.0866886 0.207718 202 
0.452526 -0.0866159 0.208538 200 
0.452821 -0.086716 0.209387 200 
0.454055 -0.0871283 0.21029 200 
0.45404 -0.0871252 0.211124 199 
0.454129 -0.087157 0.211965 193 
0.454639 -0.0873283 0.212833 193 
0.455255 -0.0875352 0.21371 190 
0.455558 -0.0876379 0.214568 192 
0.455809 -0.0877234 0.215424 192 
0.455903 -0.0877566 0.216271 189 
0.456314 -0.0878954 0.21714 190 
0.456568 -0.0879818 0.218 189 
0.456929 -0.0881038 0.21887 186 
0.458196 -0.088527 0.219812 182 
0.457815 -0.0884023 0.220627 178 
0.458127 -0.088508 0.221497 174 
0.458173 -0.0885254 0.222346 173 
0.45838 -0.0885962 0.22321 177 
0.458908 -0.088774 0.224104 178 
0.459171 -0.0888634 0.224975 181 
0.459113 -0.0888461 0.225818 181 
0.459914 -0.0891146 0.226742 178 
0.459053 -0.08883 0.227509 176 
0.459372 -0.0889382 0.22839 173 
0.459209 -0.088886 0.229223 171 
0.459315 -0.0889233 0.230084 174 
0.459368 -0.088943 0.230939 172 
0.459422 -0.0889629 0.231796 174 
0.459476 -0.088983 0.232652 179 
0.458941 -0.088807 0.233445 183 
0.459265 -0.0889167 0.234331 185 
0.459106 -0.088866 0.235165 187 
0.458841 -0.08878 0.235985 186 
0.458738 -0.0887476 0.236824 187 
0.458689 -0.0887333 0.23767 191 
0.458747 -0.0887548 0.238528 195 
0.458539 -0.0886875 0.239354 193 
0.458384 -0.0886382 0.240187 193 
0.457431 -0.0883229 0.240916 193 
0.456694 -0.0880798 0.24167 194 
0.456436 -0.0879962 0.242485 195 
0.456233 -0.0879305 0.243307 199 
0.455712 -0.0877594 0.244085 199 
0.45551 -0.0876943 0.244905 199 
0.455257 -0.0876119 0.245718 205 
0.455531 -0.0877052 0.246605 201 
0.454909 -0.0875004 0.247364 198 
0.454552 -0.0873837 0.24816 198 
0.453672 -0.0870929 0.248878 196 
0.453162 -0.086925 0.249647 195 
0.452757 -0.0867924 0.250432 191 
0.452875 -0.0868337 0.251295 195 
0.452733 -0.0867883 0.252118 193 
0.452591 -0.0867432 0.252942 191 
0.452346 -0.0866636 0.253749 185 
0.451997 -0.0865496 0.254538 183 
0.452065 -0.0865744 0.255395 181 
0.452082 -0.086582 0.256244 177 
0.451944 -0.0865379 0.257068 178 
0.452066 -0.0865806 0.257935 179 
0.451616 -0.086433 0.258705 184 
0.451324 -0.0863377 0.259501 184 
0.451863 -0.0865192 0.260443 185 
0.452196 -0.086632 0.261351 192 
0.452009 -0.0865717 0.262166 192 
0.452239 -0.0866502 0.263057 188 
0.452417 -0.0867117 0.263941 188 
0.452754 -0.0868257 0.264854 191 
0.452725 -0.0868181 0.265701 188 
0.452749 -0.0868281 0.266558 189 
0.452826 -0.0868557 0.267426 190 
0.453218 -0.0869882 0.268356 188 
0.453401 -0.0870513 0.269247 190 
0.453323 -0.0870271 0.270087 187 
0.453507 -0.0870906 0.27098 187 
0.453745 -0.0871719 0.271885 191 
0.453984 -0.0872534 0.272792 192 
0.455123 -0.0876345 0.273886 192 
0.455047 -0.0876112 0.274731 190 
0.455449 -0.0877469 0.275678 192 
0.454843 -0.0875475 0.276413 193 
0.45599 -0.0879312 0.277521 194 
0.456235 -0.088015 0.27844 195 
0.456322 -0.0880458 0.279325 195 
0.456462 -0.0880946 0.280223 192 
0.456817 -0.0882148 0.28117 194 
0.456745 -0.0881928 0.282023 190 
0.456727 -0.0881889 0.282889 190 
0.456977 -0.0882742 0.283816 190 
0.457175 -0.088342 0.284733 189 
0.457319 -0.0883922 0.285638 185 
0.457465 -0.0884427 0.286545 183 
0.458581 -0.0888163 0.287682 183 
0.458512 -0.0887956 0.288543 186 
0.459202 -0.0890272 0.289586 180 
0.458053 -0.0886469 0.290187 173 
0.458364 -0.0887524 0.29114 172 
0.458351 -0.0887504 0.292015 172 
0.458177 -0.0886946 0.292851 178 
0.458112 -0.0886749 0.293714 176 
0.458859 -0.0889255 0.294783 176 
0.457983 -0.0886362 0.295442 177 
0.457865 -0.0885991 0.296292 177 
0.457856 -0.0885981 0.297171 182 
0.457955 -0.0886332 0.298079 185 
0.457839 -0.0885966 0.298931 184 
0.457562 -0.0885063 0.29974 185 
0.457339 -0.0884342 0.300564 184 
0.457386 -0.088452 0.301459 193 
0.457056 -0.0883444 0.302254 196 
0.456835 -0.0882729 0.303078 193 
0.457315 -0.0884346 0.304093 191 
0.456556 -0.0881841 0.304769 190 
0.456176 -0.0880596 0.305548 189 
0.456011 -0.0880068 0.306386 190 
0.455686 -0.0879006 0.307179 189 
0.455415 -0.0878125 0.307986 188 
0.455412 -0.0878137 0.308871 189 
0.455356 -0.0877973 0.30974 191 
0.455301 -0.087781 0.31061 189 
0.454926 -0.0876581 0.311387 192 
0.454925 -0.0876599 0.312273 191 
0.454604 -0.0875551 0.313065 195 
0.454551 -0.0875395 0.313936 197 
0.453592 -0.0872223 0.314535 196 
0.453221 -0.0871008 0.315309 193 
0.453063 -0.0870503 0.316147 193 
0.452852 -0.0869823 0.316969 195 
0.452695 -0.0869321 0.317807 199 
0.45238 -0.0868291 0.318597 195 
0.452012 -0.0867088 0.319369 196 
0.452121 -0.0867472 0.320291 200 
0.452072 -0.0867329 0.321163 200 
0.4516 -0.0865779 0.321901 194 
0.449921 -0.0860208 0.322249 196 
0.449664 -0.0859371 0.323051 193 
0.449302 -0.0858188 0.323819 192 
0.449307 -0.0858226 0.324707 185 
0.448999 -0.0857221 0.325492 187 
0.4489 -0.0856914 0.326346 185 
0.449011 -0.0857303 0.327271 190 
0.448861 -0.0856824 0.328109 190 
0.448242 -0.0854784 0.328788 188 
0.448458 -0.0855524 0.329749 190 
0.448153 -0.0854529 0.330534 191 
0.447484 -0.0852323 0.331193 188 
0.447285 -0.085168 0.332013 183 
0.44693 -0.085052 0.332778 190 
0.446784 -0.0850053 0.333616 186 
0.446586 -0.0849414 0.334435 187 
0.446699 -0.0849813 0.335366 185 
0.446813 -0.0850213 0.336297 178 
0.446668 -0.0849751 0.337137 176 
0.446834 -0.0850327 0.33809 172 
0.446638 -0.0849694 0.338912 174 
0.446701 -0.0849927 0.339829 178 
0.446247 -0.0848433 0.340557 173 
0.445793 -0.0846943 0.341283 170 
0.445495 -0.0845972 0.342067 174 
0.446077 -0.0847933 0.34318 170 
0.446195 -0.0848344 0.34412 171 
0.445638 -0.0846513 0.344808 168 
0.445136 -0.0844858 0.345513 170 
0.445563 -0.0846305 0.346574 172 
0.445785 -0.0847066 0.347559 168 
0.445024 -0.0844552 0.348164 164 
0.445712 -0.0846866 0.349331 165 
0.445004 -0.0844525 0.349955 159 
0.444761 -0.0843739 0.35076 162 
0.445088 -0.0844849 0.351791 156 
0.445571 -0.084648 0.352886 153 
0.445796 -0.0847252 0.353881 153 
0.445347 -0.0845776 0.354606 157 
0.445365 -0.0845858 0.355519 155 
0.445331 -0.0845768 0.356412 160 
0.445402 -0.0846025 0.357348 160 
0.445317 -0.0845764 0.358221 163 
0.445545 -0.0846544 0.359224 159 
0.445616 -0.0846805 0.360165 147 
0.445481 -0.0846374 0.361019 140 
0.445658 -0.0846985 0.362005 140 
0.445939 -0.0847946 0.363037 136 
0.445909 -0.0847866 0.363939 144 
0.44567 -0.0847092 0.364753 146 
0.445536 -0.0846666 0.365611 135 
0.446028 -0.0848329 0.366739 134 
0.44579 -0.0847557 0.367555 135 
0.44597 -0.0848179 0.368552 131 
0.446203 -0.0848978 0.369574 125 
0.446384 -0.0849604 0.370575 127 
0.446409 -0.0849709 0.371508 128 
0.446434 -0.0849814 0.372443 131 
0.44604 -0.0848523 0.373192 138 
0.446223 -0.0849154 0.374198 135 
0.446092 -0.0848739 0.375065 137 
0.446223 -0.0849198 0.376051 139 
0.446302 -0.0849485 0.377015 134 
0.447383 -0.085311 0.378438 134 
0.4472 -0.0852521 0.379286 136 
0.447387 -0.0853167 0.380305 132 
0.447627 -0.085399 0.38135 134 
0.447286 -0.0852875 0.382127 132 
0.447368 -0.0853172 0.383101 131 
0.447716 -0.0854354 0.384201 126 
0.447959 -0.0855186 0.385255 127 
0.448096 -0.0855666 0.38626 126 
0.447649 -0.0854199 0.386988 131 
0.440455 -0.085691 -0.0230236 5 
0.439385 -0.0853296 -0.0215566 6 
0.440672 -0.0857693 -0.0212706 6 
0.439296 -0.0853039 -0.0196586 9 
0.441302 -0.0859879 -0.0197236 4 
0.439668 -0.0854347 -0.0179916 7 
0.439983 -0.0855438 -0.0172216 5 
0.442821 -0.0865109 -0.0176806 9 
0.442415 -0.0863749 -0.0165536 9 
0.439854 -0.0855067 -0.0143896 7 
0.440272 -0.0856509 -0.0136696 10 
0.441923 -0.0862144 -0.0135386 8 
0.438662 -0.085108 -0.0110616 7 
0.441582 -0.0861026 -0.0115296 7 
0.440157 -0.0856207 -0.00993658 10 
0.440372 -0.0856959 -0.00911958 10 
0.440434 -0.0857191 -0.00823259 13 
0.440598 -0.0857771 -0.00739258 13 
0.440303 -0.0856791 -0.00634059 13 
0.44103 -0.0859283 -0.00576159 12 
0.44094 -0.0858997 -0.00480559 15 
0.441412 -0.0860626 -0.00410759 13 
0.44076 -0.085843 -0.00289759 11 
0.440569 -0.0857803 -0.00189958 12 
0.440837 -0.0858736 -0.00110958 12 
0.441157 -0.0859845 -0.000342588 14 
0.44158 -0.0861304 0.000378404 10 
0.439355 -0.0853761 0.00227441 13 
0.439825 -0.0855383 0.00297141 12 
