0.439506,-0.237391,0.000703009,189
0.439308,-0.237256,0.00161535,193
0.439711,-0.237537,0.00253153,194
0.439459,-0.237366,0.00344296,191
0.439536,-0.237421,0.00435734,192
0.438525,-0.236727,0.00525625,191
0.438603,-0.236783,0.00616897,192
0.438301,-0.236577,0.00707486,191
0.437838,-0.236261,0.00797601,193
0.438081,-0.23643,0.00889176,193
0.43789,-0.236302,0.00979749,196
0.437918,-0.236323,0.0107085,194
0.437458,-0.236009,0.011605,197
0.437217,-0.235845,0.0125066,192
0.43633,-0.235236,0.0133848,192
0.435342,-0.234557,0.0142552,194
0.434998,-0.234322,0.0151466,193
0.434602,-0.234052,0.0160345,194
0.434633,-0.234076,0.0169394,196
0.434506,-0.23399,0.0178372,200
0.434379,-0.233905,0.0187346,201
0.434306,-0.233858,0.0196343,198
0.433968,-0.233627,0.0205197,197
0.433843,-0.233544,0.0214156,201
0.433349,-0.233205,0.0222897,202
0.43365,-0.233415,0.0232093,202
0.433474,-0.233297,0.0241008,198
0.432349,-0.232523,0.0249308,199
0.431966,-0.232261,0.0258051,199
0.431689,-0.232073,0.0266852,205
0.431256,-0.231776,0.0275531,203
0.430772,-0.231445,0.0284155,207
0.430498,-0.231259,0.0292918,210
0.43033,-0.231146,0.0301752,209
0.428346,-0.22978,0.0309129,210
0.428233,-0.229704,0.0317956,211
0.427914,-0.229487,0.0326605,210
0.427699,-0.229341,0.0335333,211
0.427536,-0.229231,0.03441,209
0.427477,-0.229193,0.0352956,208
0.427162,-0.228978,0.0361571,208
0.42695,-0.228834,0.0370274,211
0.427047,-0.228904,0.0379272,212
0.426888,-0.228796,0.0388021,211
0.42632,-0.228407,0.0396345,209
0.424838,-0.227387,0.0403687,209
0.424581,-0.227213,0.0412277,211
0.424376,-0.227073,0.0420914,211
0.423868,-0.226725,0.0429206,210
0.423816,-0.226692,0.0437998,209
0.423865,-0.226729,0.0446907,210
0.423815,-0.226696,0.0455703,209
0.423512,-0.22649,0.0464195,206
0.423564,-0.226528,0.0473112,207
0.423616,-0.226566,0.0482035,207
0.423517,-0.226501,0.0490771,210
0.421411,-0.22505,0.04969,207
0.420866,-0.224677,0.0504997,209
0.42077,-0.224613,0.0513676,210
0.420974,-0.224756,0.0522763,210
0.42053,-0.224453,0.0530965,207
0.420437,-0.22439,0.0539642,206
0.420343,-0.224328,0.0548319,206
0.4203,-0.224301,0.0557068,204
0.420208,-0.22424,0.0565746,205
0.41888,-0.223326,0.0572566,204
0.418051,-0.222757,0.0580091,202
0.417912,-0.222663,0.0588649,204
0.417774,-0.222571,0.0597206,202
0.417343,-0.222275,0.0605293,201
0.417353,-0.222285,0.0614077,203
0.417266,-0.222227,0.0622706,204
0.416496,-0.221698,0.0630199,198
0.416654,-0.22181,0.0639225,202
0.416228,-0.221518,0.0647264,202
0.415803,-0.221227,0.0655289,200
0.41504,-0.220704,0.0662707,201
0.414812,-0.220549,0.0671043,202
0.41473,-0.220494,0.0679635,201
0.414406,-0.220274,0.0687788,200
0.414229,-0.220153,0.0696199,197
0.41439,-0.220267,0.0705238,201
0.414213,-0.220147,0.0713651,199
0.414085,-0.220062,0.0722153,198
0.413717,-0.21981,0.0730189,198
0.412535,-0.218997,0.0736617,198
0.412315,-0.218847,0.07449,198
0.412047,-0.218665,0.0753083,196
0.411684,-0.218417,0.0761067,195
0.411371,-0.218203,0.0769138,196
0.411248,-0.218121,0.0777595,199
0.411316,-0.21817,0.0786452,198
0.4111,-0.218023,0.0794712,196
0.410979,-0.217942,0.0803172,195
0.411096,-0.218026,0.0812146,195
0.411071,-0.218011,0.082082,194
0.411142,-0.218062,0.0829709,196
0.410833,-0.217851,0.0837757,197
0.411333,-0.218199,0.0847623,200
0.410455,-0.217595,0.0854372,201
0.410101,-0.217353,0.0862293,197
0.409653,-0.217047,0.0869986,197
0.410105,-0.217361,0.0879777,199
0.41113,-0.21807,0.0890952,197
0.409402,-0.216881,0.0895585,200
0.409429,-0.216902,0.0904389,202
0.409552,-0.216989,0.0913432,202
0.409202,-0.21675,0.0921322,201
0.409043,-0.216642,0.0929673,196
0.409213,-0.216762,0.0938853,191
0.409243,-0.216785,0.0947689,195
0.409416,-0.216907,0.0956895,195
0.409068,-0.21667,0.0964774,195
0.409289,-0.216824,0.0974121,192
0.409226,-0.216783,0.0982739,191
0.409353,-0.216873,0.0991863,191
0.409623,-0.217062,0.100138,196
0.409704,-0.21712,0.101041,197
0.409738,-0.217146,0.101931,202
0.409535,-0.217009,0.102758,200
0.40957,-0.217035,0.10365,199
0.409464,-0.216964,0.104503,200
0.409357,-0.216893,0.105356,198
0.409868,-0.217248,0.106385,201
0.40981,-0.217211,0.107254,203
0.409753,-0.217173,0.108123,194
0.409981,-0.217333,0.109076,194
0.41021,-0.217494,0.110031,192
0.410345,-0.217589,0.110959,193
0.410241,-0.21752,0.111818,192
0.410186,-0.217484,0.112691,190
0.410322,-0.217581,0.113623,188
0.410554,-0.217744,0.114585,188
0.410979,-0.218039,0.115608,188
0.410495,-0.217707,0.116352,184
0.410633,-0.217805,0.117289,185
0.411877,-0.218666,0.118575,187
0.410864,-0.217969,0.119152,186
0.41086,-0.217969,0.120047,188
0.411241,-0.218235,0.121066,193
0.411478,-0.218401,0.122042,194
0.411958,-0.218735,0.123099,189
0.411957,-0.218736,0.124,187
0.412342,-0.219005,0.12503,185
0.412438,-0.219074,0.125966,185
0.412777,-0.21931,0.126984,185
0.412245,-0.218945,0.127711,187
0.41307,-0.219517,0.128897,186
0.413169,-0.219588,0.12984,188
0.413512,-0.219827,0.130867,183
0.413368,-0.21973,0.131728,182
0.413517,-0.219836,0.132692,182
0.413618,-0.219908,0.13364,181
0.413475,-0.219812,0.134502,180
0.413772,-0.22002,0.135522,180
0.414267,-0.220363,0.136615,181
0.414174,-0.220302,0.137498,183
0.414229,-0.220342,0.138436,181
0.41453,-0.220552,0.139464,178
0.414487,-0.220525,0.140368,183
0.414789,-0.220737,0.141401,181
0.414551,-0.220575,0.142234,181
0.414461,-0.220515,0.143122,183
0.414715,-0.220693,0.144141,179
0.414773,-0.220736,0.145087,181
0.414586,-0.220609,0.14594,178
0.415385,-0.221163,0.147174,169
0.415198,-0.221037,0.148029,168
0.415159,-0.221012,0.148942,168
0.415171,-0.221023,0.149875,170
0.416423,-0.22189,0.1513,173
0.415492,-0.221249,0.151863,165
0.414762,-0.220748,0.152502,173
0.415319,-0.221135,0.153658,167
0.415283,-0.221113,0.154576,169
0.415198,-0.221057,0.155475,167
0.415113,-0.221001,0.156375,167
0.415127,-0.221013,0.157316,170
0.414697,-0.220718,0.158073,168
0.41486,-0.220834,0.159077,171
0.414036,-0.220267,0.159667,172
0.414744,-0.220759,0.160902,172
0.414266,-0.220431,0.161637,167
0.414085,-0.220309,0.162497,171
0.413559,-0.219948,0.16321,173
0.413183,-0.219691,0.163984,177
0.412758,-0.2194,0.164737,172
0.412825,-0.219449,0.165704,168
0.412205,-0.219024,0.16637,165
0.411101,-0.218263,0.166819,164
0.410535,-0.217876,0.167504,166
0.410117,-0.217589,0.168252,174
0.409845,-0.217404,0.169065,173
0.40967,-0.217286,0.169921,169
0.409447,-0.217134,0.170755,174
0.408743,-0.21665,0.17137,171
0.408233,-0.216301,0.17207,166
0.40782,-0.216018,0.172815,161
0.407552,-0.215836,0.173625,168
0.407572,-0.215852,0.174569,163
0.407449,-0.215769,0.175447,164
0.407374,-0.21572,0.176347,160
0.406916,-0.215406,0.177067,158
0.406221,-0.214929,0.177672,160
0.406242,-0.214946,0.178618,156
0.406073,-0.214832,0.179474,149
0.406238,-0.214948,0.180491,142
0.405879,-0.214703,0.181254,133
0.405758,-0.214622,0.182134,139
0.405686,-0.214575,0.183037,136
0.405375,-0.214363,0.183824,142
0.405351,-0.214349,0.184752,142
0.405279,-0.214302,0.185657,150
0.404876,-0.214025,0.186395,141
0.4049,-0.214045,0.187349,138
0.404734,-0.213933,0.188207,133
0.404758,-0.213952,0.189163,136
0.405211,-0.214268,0.190338,130
0.404904,-0.214058,0.191126,135
0.404977,-0.214111,0.19211,126
0.405241,-0.214296,0.193194,122
0.405697,-0.214614,0.194381,123
0.405724,-0.214635,0.195346,132
0.405369,-0.214393,0.196111,130
0.405732,-0.214646,0.197255,131
0.406335,-0.215065,0.19853,121
0.406605,-0.215254,0.19963,123
0.406682,-0.21531,0.20063,128
0.406327,-0.215067,0.201397,135
0.405972,-0.214825,0.202164,128
0.406483,-0.21518,0.203402,119
0.406562,-0.215237,0.204407,124
0.406882,-0.215461,0.205546,128
0.403553,-0.216347,-0.216719,7
0.406723,-0.218568,-0.217591,9
0.401093,-0.214632,-0.213377,5
0.405227,-0.217526,-0.214793,7
0.406045,-0.218101,-0.214296,5
0.405516,-0.217734,-0.213029,8
0.405564,-0.217771,-0.212094,6
0.405134,-0.217472,-0.210889,5
0.404944,-0.217342,-0.209822,5
0.406628,-0.218523,-0.209804,6
0.405811,-0.217954,-0.208387,10
0.406584,-0.218497,-0.207856,9
0.40548,-0.217727,-0.206288,9
0.406782,-0.218641,-0.206045,9
0.406978,-0.218781,-0.205193,9
0.407416,-0.21909,-0.204473,13
0.40631,-0.218319,-0.202917,9
0.407908,-0.219439,-0.202821,13
0.406079,-0.218162,-0.200884,9
0.406998,-0.218807,-0.200421,9
0.407147,-0.218915,-0.199547,12
0.407877,-0.219428,-0.198979,12
0.408125,-0.219604,-0.198155,11
0.409199,-0.220358,-0.197762,12
0.410671,-0.221391,-0.197573,8
0.410628,-0.221363,-0.196592,11
0.410388,-0.221198,-0.195511,10
0.409126,-0.220317,-0.193907,11
0.410352,-0.221178,-0.193581,13
0.411045,-0.221666,-0.192979,15
0.411445,-0.221948,-0.192226,14
0.411109,-0.221715,-0.191102,16
0.412199,-0.222481,-0.190694,14
0.412602,-0.222765,-0.189939,13
0.412956,-0.223016,-0.189159,16
0.413113,-0.223128,-0.188281,13
0.413369,-0.22331,-0.187451,15
0.413527,-0.223423,-0.186573,15
0.41488,-0.224372,-0.186276,16
0.413644,-0.22351,-0.184722,22
0.413356,-0.223312,-0.183631,20
0.413813,-0.223633,-0.182898,21
0.415118,-0.224549,-0.182567,20
0.415829,-0.225049,-0.181949,20
0.414491,-0.224116,-0.180365,25
0.416453,-0.225491,-0.180332,16
0.414912,-0.224416,-0.17866,21
0.416576,-0.225583,-0.17848,18
0.416336,-0.225418,-0.177417,20
0.417658,-0.226345,-0.17707,18
0.418379,-0.226852,-0.176444,28
0.41743,-0.226191,-0.175059,21
0.417797,-0.22645,-0.174272,27
0.418671,-0.227064,-0.173711,27
0.418228,-0.226757,-0.17256,25
0.418698,-0.227089,-0.171817,27
0.419017,-0.227315,-0.171005,31
0.419693,-0.22779,-0.170349,29
0.420065,-0.228053,-0.169559,37
0.420437,-0.228317,-0.168767,35
0.4203,-0.228223,-0.167755,35
0.421596,-0.229133,-0.167358,37
0.422127,-0.229507,-0.16663,33
0.421731,-0.229233,-0.165508,34
0.421543,-0.229103,-0.164475,36
0.421817,-0.229298,-0.163638,37
0.422607,-0.229853,-0.163015,36
0.423348,-0.230375,-0.162369,35
0.422953,-0.230101,-0.161252,42
0.424579,-0.231242,-0.160966,40
0.423974,-0.230821,-0.159764,41
0.424826,-0.23142,-0.159155,38
0.42521,-0.231691,-0.158355,43
0.425022,-0.231562,-0.157325,40
0.425303,-0.231762,-0.156484,38
0.425533,-0.231925,-0.155621,42
0.425973,-0.232235,-0.15484,48
0.426204,-0.2324,-0.153977,43
0.427329,-0.23319,-0.15346,46
0.427985,-0.233652,-0.152757,50
0.427585,-0.233375,-0.151648,48
0.427608,-0.233394,-0.150702,50
0.428372,-0.23393,-0.150037,52
0.428766,-0.234209,-0.14923,47
0.428685,-0.234155,-0.148245,48
0.429772,-0.234919,-0.147694,49
0.429372,-0.234641,-0.14659,51
0.430516,-0.235445,-0.146055,54
0.430756,-0.235616,-0.145186,55
0.430997,-0.235787,-0.144316,57
0.432044,-0.236522,-0.143736,56
0.43261,-0.236921,-0.142979,55
0.432908,-0.237132,-0.142126,56
0.43299,-0.237193,-0.141197,59
0.433506,-0.237556,-0.140419,64
0.433698,-0.237693,-0.139527,58
0.434161,-0.238021,-0.138728,59
0.434463,-0.238235,-0.137873,54
0.435039,-0.23864,-0.137109,60
0.43567,-0.239085,-0.136363,65
0.436305,-0.239532,-0.135615,66
0.435789,-0.239174,-0.134483,71
0.435932,-0.239276,-0.13357,70
0.436623,-0.239762,-0.132838,62
0.436766,-0.239865,-0.131925,70
0.437185,-0.240162,-0.131101,71
0.43733,-0.240266,-0.130187,70
0.437531,-0.240409,-0.129292,69
0.43845,-0.241055,-0.128623,66
0.439152,-0.241549,-0.127882,63
0.439578,-0.24185,-0.127053,69
0.440005,-0.242152,-0.126223,68
0.440434,-0.242455,-0.125391,71
0.44025,-0.242328,-0.124372,74
0.441632,-0.243299,-0.123828,81
0.442009,-0.243565,-0.122976,75
0.442274,-0.243754,-0.12209,77
0.442428,-0.243864,-0.12117,81
0.443316,-0.244489,-0.120466,82
0.443472,-0.2446,-0.119545,80
0.443854,-0.244871,-0.118689,83
0.444182,-0.245103,-0.117816,85
0.444851,-0.245574,-0.11704,90
0.445124,-0.245768,-0.116149,90
0.444941,-0.245643,-0.115131,97
0.446015,-0.246397,-0.114461,93
0.447094,-0.247156,-0.113788,90
0.446453,-0.246709,-0.112644,89
0.446558,-0.246786,-0.111705,92
0.447353,-0.247345,-0.110949,88
0.447575,-0.247504,-0.110039,88
0.447683,-0.247582,-0.109098,83
0.448426,-0.248105,-0.108323,93
0.448825,-0.248387,-0.107455,93
0.448877,-0.248426,-0.106498,104
0.449104,-0.248587,-0.105586,109
0.449563,-0.248912,-0.104731,105
0.449676,-0.248993,-0.103789,96
0.450604,-0.249646,-0.103047,101
0.451069,-0.249974,-0.102189,107
0.451418,-0.250221,-0.101301,114
0.451827,-0.25051,-0.100426,113
0.451826,-0.250512,-0.0994531,114
0.452119,-0.25072,-0.0985494,112
0.453179,-0.251466,-0.0978229,117
0.453239,-0.251511,-0.0968622,118
0.45401,-0.252053,-0.0960633,118
0.45419,-0.252182,-0.0951284,116
0.455025,-0.252769,-0.094339,116
0.454315,-0.252275,-0.093206,120
0.454794,-0.252613,-0.092336,124
0.455395,-0.253036,-0.0914902,123
0.4554,-0.253043,-0.0905154,122
0.455705,-0.253259,-0.089604,125
0.45607,-0.253518,-0.0887045,123
0.455899,-0.2534,-0.0876928,127
0.455609,-0.2532,-0.0866583,129
0.456096,-0.253544,-0.0857823,127
0.457064,-0.254225,-0.0850006,131
0.456715,-0.253983,-0.083955,129
0.458109,-0.254962,-0.0832513,131
0.457639,-0.254636,-0.0821826,128
0.457772,-0.254732,-0.0812313,131
0.458208,-0.255039,-0.0803365,130
0.458343,-0.255137,-0.0793845,127
0.458841,-0.255488,-0.0784988,130
0.459099,-0.255672,-0.0775678,140
0.459055,-0.255644,-0.076582,143
0.459315,-0.255828,-0.0756504,146
0.459636,-0.256056,-0.0747287,148
0.459534,-0.255987,-0.0737331,142
0.459311,-0.255834,-0.072718,138
0.459817,-0.256191,-0.0718262,142
0.460324,-0.256549,-0.0709327,147
0.460164,-0.256439,-0.0699286,150
0.460857,-0.256927,-0.0690624,147
0.46088,-0.256947,-0.0680876,152
0.459688,-0.256114,-0.0669237,150
0.460321,-0.25656,-0.0660457,156
0.460286,-0.256538,-0.0650643,152
0.459403,-0.255922,-0.0639569,151
0.460219,-0.256497,-0.0631032,152
0.460187,-0.256477,-0.0621236,152
0.459912,-0.256287,-0.0611101,157
0.459095,-0.255717,-0.0600222,160
0.458763,-0.255487,-0.0590052,161
0.458012,-0.254964,-0.0579332,164
0.457864,-0.254863,-0.0569453,162
0.457897,-0.254889,-0.0559819,162
0.457331,-0.254495,-0.0549418,168
0.456887,-0.254186,-0.05392,170
0.457342,-0.254507,-0.0530117,160
0.457079,-0.254326,-0.0520144,164
0.456697,-0.254061,-0.0510045,165
0.456496,-0.253923,-0.0500177,161
0.456535,-0.253953,-0.0490595,163
0.456098,-0.253649,-0.048048,162
0.4559,-0.253513,-0.047065,162
0.454992,-0.252879,-0.0460066,163
0.455329,-0.253118,-0.0450841,165
0.454366,-0.252446,-0.044026,167
0.453997,-0.25219,-0.0430324,166
0.45357,-0.251893,-0.0420351,167
0.453438,-0.251804,-0.0410684,162
0.453425,-0.251797,-0.0401136,160
0.452826,-0.25138,-0.0391053,161
0.453166,-0.251621,-0.0381841,165
0.453213,-0.251657,-0.0372361,168
0.452442,-0.251119,-0.0362183,168
0.452024,-0.250828,-0.0352335,170
0.451841,-0.250703,-0.0342696,168
0.451542,-0.250496,-0.0332977,168
0.451535,-0.250493,-0.0323496,172
0.451529,-0.250492,-0.0314017,173
0.451059,-0.250165,-0.0304208,169
0.450533,-0.249799,-0.0294384,167
0.44949,-0.249071,-0.0284239,170
0.44989,-0.249354,-0.0275076,172
0.450524,-0.2498,-0.0266042,175
0.449829,-0.249316,-0.0256182,175
0.449023,-0.248754,-0.024629,173
0.449253,-0.248918,-0.0237012,173
0.448852,-0.248639,-0.0227388,176
0.447995,-0.248041,-0.021755,178
0.44737,-0.247606,-0.0207866,180
0.447032,-0.247371,-0.0198345,175
0.447036,-0.247377,-0.0188991,179
0.446416,-0.246945,-0.0179377,179
0.446365,-0.246912,-0.0170017,182
0.446202,-0.246799,-0.0160618,182
0.446492,-0.247006,-0.0151387,185
0.444975,-0.245944,-0.0141548,189
0.444533,-0.245638,-0.0132109,186
0.444543,-0.245647,-0.0122818,188
0.444328,-0.245499,-0.0113469,185
0.443835,-0.245156,-0.0104063,185
0.443511,-0.244931,-0.00947174,186
0.443468,-0.244903,-0.00854405,187
0.443425,-0.244876,-0.00761661,191
0.443495,-0.244928,-0.00669105,188
0.443453,-0.244901,-0.00576381,192
0.443078,-0.244641,-0.00483334,192
0.442983,-0.244576,-0.00390683,192
0.442888,-0.244512,-0.00298076,190
0.441628,-0.243632,-0.00205108,192
0.440818,-0.243066,-0.00112765,188
0.440671,-0.242966,-0.000207168,189
0.44036,-0.242751,0.000712116,187
0.439996,-0.242498,0.00162971,190
0.439633,-0.242246,0.00254569,191
0.439819,-0.242379,0.00346562,192
0.439567,-0.242205,0.004381,192
0.439316,-0.242031,0.0052953,193
0.43945,-0.242127,0.006215,193
0.439474,-0.242147,0.00713328,195
0.438352,-0.241363,0.00802712,194
0.438596,-0.241537,0.00894834,195
0.437318,-0.240643,0.00983117,195
0.437074,-0.240474,0.0107375,196
0.436831,-0.240307,0.0116429,194
0.436427,-0.240026,0.0125419,197
0.435918,-0.239671,0.0134355,199
0.435786,-0.239581,0.014341,198
0.435978,-0.239718,0.0152588,198
0.435794,-0.239592,0.0161618,204
0.435342,-0.239278,0.0170523,202
0.43516,-0.239152,0.0179534,198
0.433856,-0.238241,0.0187992,197
0.43373,-0.238155,0.0196991,199
0.433924,-0.238293,0.0206157,202
0.433214,-0.237798,0.0214831,204
0.433196,-0.237788,0.0223874,206
0.432861,-0.237555,0.0232727,206
0.432262,-0.237138,0.0241403,207
0.432247,-0.23713,0.0250429,207
0.432179,-0.237085,0.0259421,207
0.431848,-0.236855,0.026823,209
0.431045,-0.236294,0.0276688,207
0.429461,-0.235186,0.0284538,209
0.429137,-0.234961,0.0293273,209
0.429125,-0.234956,0.0302239,209
0.429114,-0.234951,0.0311208,209
0.428844,-0.234764,0.0319963,210
0.428783,-0.234723,0.0328886,209
0.428618,-0.23461,0.0337717,209
0.428402,-0.234461,0.0346498,212
0.428447,-0.234495,0.0355509,209
0.426272,-0.232972,0.0362438,210
0.425804,-0.232646,0.0370914,208
0.425441,-0.232394,0.0379474,207
0.425794,-0.232644,0.0388743,209
0.425482,-0.232428,0.0397344,206
0.425121,-0.232177,0.0405881,202
0.424965,-0.23207,0.0414626,204
0.425064,-0.232142,0.0423646,206
0.423943,-0.231358,0.0431304,207
0.42384,-0.231288,0.0440079,206
0.423181,-0.230829,0.0448203,204
0.422878,-0.230618,0.0456723,207
0.422929,-0.230657,0.0465662,204
0.422425,-0.230306,0.0473921,203
0.421723,-0.229816,0.0481908,197
0.421625,-0.229749,0.0490642,199
0.421829,-0.229895,0.0499768,205
0.421782,-0.229864,0.0508573,205
0.421635,-0.229764,0.0517245,203
0.42159,-0.229735,0.0526052,205
0.419548,-0.228305,0.0532072,203
0.419404,-0.228207,0.0540696,200
0.419063,-0.22797,0.0549033,199
0.418922,-0.227873,0.0557648,200
0.418484,-0.227568,0.056582,199
0.418393,-0.227507,0.0574499,199
0.418302,-0.227446,0.0583179,200
0.418114,-0.227316,0.0591705,201
0.418321,-0.227464,0.060085,200
0.416708,-0.226334,0.0607093,200
0.416424,-0.226138,0.0615426,197
0.416338,-0.22608,0.0624073,197
0.415861,-0.225748,0.0632069,196
0.41597,-0.225827,0.0641039,198
0.415934,-0.225804,0.0649769,198
0.415557,-0.225542,0.0657907,200
0.41523,-0.225315,0.066612,197
0.414855,-0.225054,0.0674237,195
0.414822,-0.225033,0.0682957,196
0.4144,-0.22474,0.0690969,196
0.414222,-0.224617,0.0699418,198
0.41361,-0.22419,0.0707047,198
0.413482,-0.224103,0.0715572,198
0.413113,-0.223847,0.0723633,200
0.412842,-0.223659,0.0731871,199
0.412764,-0.223607,0.074048,200
0.412591,-0.223487,0.0748901,199
0.412082,-0.223133,0.0756641,194
0.411766,-0.222914,0.0764757,193
0.411213,-0.222528,0.0772372,191
0.410376,-0.221943,0.0779375,194
0.410587,-0.222093,0.0788553,195
0.410656,-0.222144,0.0797442,201
0.410392,-0.221962,0.0805623,197
0.410034,-0.221713,0.0813591,199
0.409962,-0.221665,0.0822176,198
0.409843,-0.221584,0.0830658,198
0.409677,-0.22147,0.0839033,198
0.409702,-0.221489,0.0847838,198
0.409821,-0.221576,0.0856868,200
0.409894,-0.221629,0.0865799,202
0.409825,-0.221583,0.0874407,201
0.409804,-0.221571,0.088313,200
0.409736,-0.221525,0.0891745,198
0.409669,-0.22148,0.0900363,197
0.40927,-0.221203,0.0908177,200
0.409298,-0.221225,0.0917026,197
0.409422,-0.221314,0.0926119,198
0.409309,-0.221238,0.093463,198
0.408487,-0.220663,0.0941351,196
0.408659,-0.220786,0.0950572,199
0.408029,-0.220347,0.0957743,196
0.408343,-0.220569,0.0967341,191
0.408516,-0.220693,0.0976591,192
0.408312,-0.220553,0.0984856,191
0.408297,-0.220545,0.0993623,195
0.40833,-0.22057,0.100252,197
0.4086,-0.220762,0.101207,192
0.409013,-0.221054,0.102203,195
0.408763,-0.220882,0.103019,197
0.40842,-0.220643,0.103808,197
0.408361,-0.220604,0.104675,196
0.408444,-0.220665,0.105584,194
0.408339,-0.220593,0.106439,193
0.408186,-0.220489,0.107281,190
0.408413,-0.22065,0.108233,194
0.408403,-0.220646,0.109117,190
0.408679,-0.220842,0.110087,189
0.409193,-0.221205,0.111128,194
0.410283,-0.221973,0.112346,195
0.41018,-0.221903,0.113209,192
0.409219,-0.22123,0.113811,190
0.409784,-0.22163,0.114877,189
0.409874,-0.221696,0.1158,190
0.410443,-0.222098,0.116873,189
0.410487,-0.22213,0.117784,191
0.410626,-0.222231,0.118726,189
0.409951,-0.221759,0.11941,188
0.410043,-0.221827,0.120338,187
0.409992,-0.221793,0.121221,188
0.410566,-0.222198,0.122308,186
0.410708,-0.222301,0.123256,190
0.410947,-0.222471,0.124238,187
0.411091,-0.222574,0.12519,196
0.410898,-0.222441,0.12603,188
0.411429,-0.222816,0.127115,191
0.411768,-0.223057,0.128138,189
0.411866,-0.223128,0.12908,184
0.412061,-0.223268,0.130057,183
0.412209,-0.223374,0.131019,183
0.412212,-0.223379,0.131932,183
0.412069,-0.223281,0.132794,184
0.412218,-0.223388,0.13376,187
0.4131,-0.22401,0.134989,183
0.412909,-0.223878,0.135837,186
0.412963,-0.223918,0.136774,185
0.413261,-0.224131,0.137801,182
0.413365,-0.224206,0.138758,181
0.413323,-0.224179,0.139663,182
0.413036,-0.22398,0.140477,186
0.41368,-0.224435,0.141639,180
0.414229,-0.224823,0.142769,179
0.41409,-0.224728,0.143642,183
0.41479,-0.225222,0.144835,178
0.415344,-0.225614,0.145976,177
0.415255,-0.225554,0.146872,178
0.415365,-0.225633,0.147845,171
0.415326,-0.225609,0.148762,176
0.415586,-0.225794,0.149797,176
0.41535,-0.22563,0.150637,171
0.415511,-0.225746,0.151636,171
0.414977,-0.225374,0.152358,165
0.414643,-0.225142,0.153158,163
0.415053,-0.225432,0.154259,165
0.415664,-0.225864,0.155445,170
0.415479,-0.225737,0.156308,169
0.415295,-0.22561,0.157172,165
0.415509,-0.225763,0.158201,166
0.415326,-0.225637,0.159065,168
0.415093,-0.225476,0.159908,170
0.414811,-0.22528,0.160731,170
0.414828,-0.225295,0.16168,167
0.414547,-0.2251,0.162502,170
0.414117,-0.224801,0.163261,169
0.413887,-0.224642,0.164104,170
0.413361,-0.224275,0.164818,169
0.413231,-0.224186,0.165703,163
0.413447,-0.224341,0.166741,167
0.412676,-0.223802,0.167344,171
0.411859,-0.223231,0.167924,160
0.411339,-0.222868,0.168634,167
0.410821,-0.222507,0.169342,166
0.411036,-0.22266,0.170381,166
0.41008,-0.221992,0.170889,166
0.410685,-0.222419,0.172106,164
0.409197,-0.221377,0.172366,166
0.408491,-0.220884,0.17298,164
0.408366,-0.220799,0.173862,158
0.408387,-0.220816,0.174812,161
0.408166,-0.220663,0.175649,158
0.408284,-0.220749,0.176646,164
0.408596,-0.22097,0.177737,159
0.407508,-0.220208,0.178162,151
0.406905,-0.219788,0.178815,152
0.406495,-0.219502,0.17956,148
0.406613,-0.219588,0.180559,144
0.406396,-0.219438,0.181396,143
0.406611,-0.219592,0.182444,138
0.406586,-0.219577,0.183377,143
0.406322,-0.219394,0.184191,139
0.406058,-0.219211,0.185006,137
0.405413,-0.218761,0.18563,134
0.406011,-0.219183,0.186875,139
0.405223,-0.218632,0.187425,136
0.405009,-0.218485,0.188263,133
0.405034,-0.218505,0.189223,115
0.404821,-0.218358,0.190062,117
0.405324,-0.218714,0.191269,112
0.405446,-0.218802,0.192282,115
0.406144,-0.219295,0.193597,118
0.404782,-0.218341,0.19384,120
0.404571,-0.218195,0.194681,118
0.404646,-0.21825,0.195673,125
0.40453,-0.218172,0.196565,115
0.404892,-0.218429,0.197712,121
0.405208,-0.218653,0.198837,122
0.405333,-0.218744,0.199862,126
0.405698,-0.219003,0.201019,123
0.40544,-0.218824,0.201839,123
0.405086,-0.218578,0.202608,117
0.405452,-0.218838,0.20377,112
0.405531,-0.218896,0.204777,116
0.405948,-0.219192,0.205972,119
0.403603,-0.220763,-0.217749,6
0.402458,-0.219951,-0.216115,8
0.403984,-0.22104,-0.216035,7
0.404272,-0.221247,-0.215235,7
0.403029,-0.220366,-0.213555,6
0.403841,-0.220946,-0.213057,9
0.403603,-0.220779,-0.211958,7
0.405571,-0.222182,-0.212111,7
0.404131,-0.22116,-0.210333,9
0.40683,-0.223083,-0.210888,10
0.404374,-0.221338,-0.208548,10
0.405673,-0.222265,-0.20831,6
0.405627,-0.222235,-0.207323,7
0.406159,-0.222616,-0.206655,9
0.404624,-0.221527,-0.204851,9
0.407035,-0.223245,-0.205211,6
0.40801,-0.223941,-0.204779,8
0.408354,-0.224188,-0.204002,12
0.407385,-0.223501,-0.202516,13
0.408849,-0.224546,-0.202341,11
0.40686,-0.223133,-0.200317,9
0.407543,-0.223622,-0.199723,10
0.407063,-0.223283,-0.198512,13
0.408379,-0.224222,-0.198247,11
0.409409,-0.224957,-0.197828,13
0.408389,-0.224234,-0.196338,15
0.40898,-0.224657,-0.195688,13
0.410948,-0.22606,-0.195745,15
0.409432,-0.224984,-0.194007,17
0.410566,-0.225793,-0.193629,13
0.409836,-0.225277,-0.192301,14
0.411071,-0.226158,-0.191969,14
0.411226,-0.226271,-0.191089,18
0.412122,-0.226912,-0.190581,17
0.411636,-0.226568,-0.18938,17
0.412286,-0.227033,-0.188746,21
0.412393,-0.227112,-0.187841,16
0.4126,-0.227262,-0.186986,18
0.412757,-0.227377,-0.186106,15
0.41401,-0.228271,-0.185758,20
0.414269,-0.228457,-0.184925,17
0.414328,-0.228502,-0.183996,17
0.413789,-0.228121,-0.182781,16
0.414448,-0.228592,-0.182139,22
0.414858,-0.228887,-0.181377,18
0.415521,-0.229361,-0.180733,23
0.41508,-0.22905,-0.17957,24
0.415794,-0.229561,-0.178947,24
0.415855,-0.229607,-0.17802,24
0.415867,-0.229618,-0.17707,26
0.416836,-0.230311,-0.176559,22
0.416043,-0.229749,-0.175242,24
0.419044,-0.231887,-0.175649,27
0.418038,-0.231174,-0.174236,22
0.418713,-0.231656,-0.173581,20
0.41837,-0.231415,-0.172471,23
0.418842,-0.231753,-0.171725,31
0.418754,-0.231694,-0.17073,30
0.420301,-0.232797,-0.170453,31
0.420521,-0.232957,-0.169591,31
0.420793,-0.233153,-0.168751,34
0.421478,-0.233642,-0.168089,37
0.421236,-0.233473,-0.167026,33
0.421561,-0.233707,-0.166208,35
0.422197,-0.234162,-0.16552,34
0.42211,-0.234103,-0.164525,30
0.422593,-0.234449,-0.163771,33
0.422662,-0.234501,-0.162842,35
0.423822,-0.23533,-0.162366,38
0.423165,-0.234864,-0.161136,35
0.424433,-0.235769,-0.160699,40
0.42487,-0.236083,-0.159918,42
0.42421,-0.235616,-0.158692,42
0.425223,-0.23634,-0.158142,45
0.425505,-0.236543,-0.157296,37
0.425683,-0.236672,-0.156409,40
0.426387,-0.237176,-0.155728,41
0.427253,-0.237795,-0.155109,40
0.427221,-0.237775,-0.154136,46
0.427561,-0.23802,-0.153308,43
0.428166,-0.238453,-0.152582,48
0.428508,-0.238699,-0.151752,53
0.428212,-0.238491,-0.150679,49
0.428714,-0.238851,-0.14991,52
0.429538,-0.23944,-0.14926,51
0.429669,-0.239536,-0.148348,46
0.430068,-0.239823,-0.147536,53
0.430791,-0.24034,-0.146841,49
0.430548,-0.24017,-0.145791,54
0.430574,-0.240191,-0.14484,53
0.43173,-0.241017,-0.144298,49
0.432622,-0.241654,-0.143655,51
0.432542,-0.2416,-0.142664,55
0.432407,-0.241507,-0.141654,58
0.432869,-0.241838,-0.140855,54
0.43279,-0.241784,-0.139866,58
0.433688,-0.242426,-0.139216,60
0.433881,-0.242566,-0.138321,60
0.434402,-0.24294,-0.137537,61
0.434487,-0.243003,-0.136603,64
0.434792,-0.243223,-0.135744,62
0.435645,-0.243833,-0.135067,63
0.436447,-0.244407,-0.13437,61
0.436756,-0.244629,-0.133507,63
0.437231,-0.24497,-0.132698,63
0.438318,-0.245746,-0.132086,69
0.437465,-0.245142,-0.130844,66
0.437999,-0.245525,-0.13005,65
0.438368,-0.24579,-0.129203,64
0.439127,-0.246333,-0.128477,64
0.439722,-0.246759,-0.127697,72
0.440095,-0.247027,-0.126845,73
0.440412,-0.247257,-0.125976,79
0.4409,-0.247606,-0.125158,79
0.440883,-0.247597,-0.124184,70
0.441654,-0.248148,-0.123449,72
0.441694,-0.24818,-0.122493,78
0.442412,-0.248694,-0.121738,78
0.442963,-0.249089,-0.120931,78
0.443346,-0.249364,-0.120073,77
0.443672,-0.249599,-0.119197,79
0.444114,-0.249916,-0.118354,79
0.444671,-0.250316,-0.117542,86
0.444545,-0.250228,-0.116534,87
0.44499,-0.250548,-0.115689,93
0.445723,-0.251073,-0.114921,89
0.445655,-0.251027,-0.11393,93
0.446104,-0.251349,-0.113082,89
0.447246,-0.252165,-0.112419,86
0.448105,-0.25278,-0.111675,99
0.448212,-0.252859,-0.110729,97
0.448611,-0.253145,-0.109859,99
0.448545,-0.253101,-0.108866,101
0.449061,-0.253471,-0.108025,100
0.449813,-0.25401,-0.107243,103
0.4501,-0.254216,-0.106339,106
0.450563,-0.254549,-0.105479,101
0.451381,-0.255134,-0.104706,106
0.450906,-0.254799,-0.10361,111
0.451667,-0.255344,-0.102819,106
0.451547,-0.25526,-0.101812,112
0.452016,-0.255597,-0.100948,111
0.452369,-0.255851,-0.100054,110
0.452782,-0.256148,-0.0991726,113
0.453019,-0.25632,-0.0982492,116
0.454267,-0.257211,-0.0975586,121
0.454447,-0.257342,-0.0966187,120
0.454926,-0.257686,-0.0957461,112
0.455108,-0.257818,-0.0948052,119
0.454872,-0.257653,-0.0937714,114
0.455115,-0.257829,-0.0928442,118
0.455359,-0.258005,-0.0919165,119
0.455664,-0.258225,-0.0910012,119
0.45609,-0.258531,-0.0901108,115
0.456337,-0.25871,-0.0891812,117
0.457368,-0.259447,-0.0884138,113
0.457678,-0.259671,-0.0874941,117
0.457748,-0.259723,-0.0865245,123
0.457818,-0.259776,-0.0855552,127
0.457949,-0.259872,-0.0845981,123
0.458142,-0.260012,-0.0836529,126
0.458578,-0.260325,-0.0827544,132
0.458409,-0.260207,-0.0817385,136
0.458604,-0.260349,-0.0807927,133
0.4588,-0.260492,-0.0798466,128
0.459362,-0.260895,-0.0789675,134
0.459439,-0.260952,-0.0779978,133
0.46037,-0.261618,-0.0771819,136
0.46051,-0.26172,-0.0762216,142
0.460344,-0.261605,-0.0752075,143
0.461037,-0.262101,-0.0743429,144
0.460811,-0.261943,-0.0733189,145
0.460586,-0.261786,-0.0722965,148
0.461036,-0.262109,-0.0713875,146
0.461119,-0.262171,-0.0704168,151
0.461265,-0.262277,-0.0694561,142
0.461288,-0.262297,-0.0684757,147
0.461129,-0.262186,-0.0674669,149
0.461031,-0.262119,-0.0664687,148
0.460812,-0.261966,-0.0654529,146
0.460716,-0.2619,-0.0644569,152
0.460683,-0.261879,-0.0634709,155
0.460345,-0.261641,-0.0624411,155
0.46013,-0.26149,-0.0614308,160
0.459247,-0.260864,-0.0603279,162
0.459217,-0.260845,-0.0593474,162
0.459431,-0.261,-0.0584004,168
0.459281,-0.260896,-0.0574042,165
0.458466,-0.260318,-0.0563215,165
0.458499,-0.260345,-0.0553525,160
0.458232,-0.260157,-0.0543454,162
0.458207,-0.260142,-0.0533701,164
0.457942,-0.259956,-0.0523657,165
0.457016,-0.259299,-0.0512837,162
0.457234,-0.259457,-0.0503407,164
0.456433,-0.258889,-0.0492794,161
0.456173,-0.258706,-0.0482833,157
0.456453,-0.258908,-0.0473483,156
0.456434,-0.258897,-0.04638,161
0.45546,-0.258207,-0.0453106,163
0.454967,-0.257858,-0.0442958,162
0.454773,-0.257722,-0.0433139,164
0.454461,-0.257503,-0.0423214,167
0.454032,-0.2572,-0.0413192,168
0.454078,-0.257235,-0.0403641,163
0.453887,-0.257102,-0.0393873,164
0.453757,-0.257012,-0.0384169,170
0.453451,-0.256796,-0.0374318,168
0.453264,-0.256665,-0.0364586,168
0.453077,-0.256535,-0.0354864,167
0.452422,-0.256071,-0.0344774,170
0.452473,-0.25611,-0.033527,168
0.452466,-0.256107,-0.0325722,171
0.452108,-0.255855,-0.0315916,171
0.451693,-0.255562,-0.0306086,171
0.450581,-0.254772,-0.0295792,172
0.450635,-0.254813,-0.0286336,175
0.450342,-0.254607,-0.0276652,174
0.450223,-0.254525,-0.0267093,173
0.44999,-0.254361,-0.0257471,175
0.449526,-0.254034,-0.0247727,178
0.449353,-0.253913,-0.0238168,178
0.449181,-0.253793,-0.0228618,175
0.449067,-0.253714,-0.0219108,174
0.448839,-0.253554,-0.0209548,181
0.448325,-0.25319,-0.0199865,180
0.447469,-0.252583,-0.0190054,179
0.446902,-0.252182,-0.0180406,180
0.446736,-0.252066,-0.0170945,182
0.446458,-0.25187,-0.0161449,181
0.446181,-0.251675,-0.0151968,183
0.445734,-0.25136,-0.0142443,176
0.445686,-0.251328,-0.0133063,179
0.445526,-0.251216,-0.0123653,184
0.445366,-0.251105,-0.0114251,190
0.444981,-0.250833,-0.0104803,188
0.444879,-0.250763,-0.00954348,187
0.444103,-0.250212,-0.00859401,186
0.444341,-0.250385,-0.00766553,187
0.443512,-0.249796,-0.00672011,186
0.44263,-0.249171,-0.00577784,190
0.441865,-0.248628,-0.00484079,187
0.441603,-0.248444,-0.00391129,186
0.441731,-0.248537,-0.00298523,186
0.44136,-0.248275,-0.00205685,188
0.441489,-0.24837,-0.00113077,189
0.441341,-0.248267,-0.000204381,187
0.440862,-0.247928,0.000720236,189
0.440827,-0.247906,0.00164519,191
0.440516,-0.247687,0.00256783,190
0.440372,-0.247587,0.00349079,194
0.439733,-0.247134,0.00440695,193
0.440253,-0.247507,0.00533732,192
0.438956,-0.246585,0.00623919,191
0.438268,-0.246097,0.00714696,192
0.438184,-0.24604,0.00806468,195
0.437883,-0.245827,0.00897689,195
0.437691,-0.245693,0.00989066,199
0.437391,-0.245482,0.0108006,201
0.437093,-0.245272,0.0117092,199
0.437231,-0.245372,0.012631,201
0.436879,-0.245125,0.0135362,197
0.435287,-0.243992,0.0143934,198
0.435048,-0.243824,0.0152972,198
0.43481,-0.243657,0.0162002,200
0.434252,-0.243261,0.0170879,199
0.434177,-0.243211,0.0179957,203
0.433889,-0.243008,0.0188929,202
0.433869,-0.242996,0.0198027,201
0.434011,-0.2431,0.0207211,205
0.433564,-0.242784,0.0216075,210
0.433493,-0.242736,0.0225138,210
0.432093,-0.24174,0.0233397,210
0.432236,-0.241844,0.024256,210
0.431003,-0.240968,0.0250839,205
0.430672,-0.240734,0.0259668,206
0.430342,-0.240502,0.0268485,212
0.430276,-0.240457,0.0277478,208
0.430053,-0.240301,0.0286353,208
0.428577,-0.23925,0.0294264,206
0.43003,-0.240289,0.0304411,211
0.42819,-0.23898,0.0311963,207
0.427816,-0.238716,0.0320652,206
0.427444,-0.238452,0.0329328,204
0.427124,-0.238227,0.0338034,205
0.426806,-0.238003,0.034673,205
0.426644,-0.237889,0.0355557,207
0.426534,-0.237813,0.0364428,208
0.426115,-0.237517,0.0372997,206
0.426264,-0.237626,0.0382113,204
0.42559,-0.237148,0.0390403,202
0.425483,-0.237074,0.0399252,200
0.42466,-0.23649,0.0407339,201
0.423892,-0.235944,0.0415451,200
0.423533,-0.235691,0.0423983,200
0.423328,-0.235547,0.0432675,198
0.423581,-0.23573,0.0441887,200
0.423275,-0.235515,0.0450458,202
0.42292,-0.235264,0.0458958,202
0.422364,-0.23487,0.0467199,202
0.422466,-0.234945,0.0476236,203
0.421509,-0.234265,0.048394,204
0.420758,-0.233732,0.0491867,200
0.42046,-0.233522,0.0500358,202
0.420614,-0.233634,0.0509442,203
0.420368,-0.233461,0.0517992,213
0.420272,-0.233395,0.0526742,202
0.419728,-0.233009,0.053486,198
0.419634,-0.232945,0.05436,201
0.41969,-0.232987,0.0552556,201
0.41905,-0.232533,0.0560492,203
0.418511,-0.232151,0.0568553,198
0.417479,-0.231418,0.0575845,199
0.41734,-0.231321,0.0584469,198
0.417201,-0.231224,0.059309,199
0.417014,-0.231093,0.0601631,194
0.416827,-0.230962,0.0610169,192
0.416248,-0.230552,0.061806,191
0.415818,-0.230248,0.0626176,192
0.416271,-0.230573,0.0635758,192
0.416185,-0.230514,0.0644448,191
0.416297,-0.230596,0.0653478,194
0.416016,-0.230398,0.066183,193
0.415003,-0.229678,0.0668876,191
0.41453,-0.229343,0.0676848,195
0.414545,-0.229356,0.068569,198
0.414317,-0.229196,0.069409,194
0.41409,-0.229037,0.0702485,194
0.413912,-0.228913,0.0710966,199
0.413638,-0.22872,0.0719259,199
0.413075,-0.22832,0.0726984,200
0.412465,-0.227888,0.0734596,199
0.411906,-0.227491,0.0742285,199
0.411925,-0.227507,0.075111,198
0.411464,-0.227181,0.0758968,196
0.411244,-0.227026,0.0767303,196
0.411121,-0.226941,0.0775832,198
0.410807,-0.226719,0.078396,195
0.410302,-0.226362,0.0791675,197
0.410276,-0.226346,0.0800396,196
0.409775,-0.22599,0.0808089,195
0.40899,-0.225433,0.0815144,194
0.409202,-0.225587,0.0824375,193
0.409606,-0.225877,0.0834047,189
0.409392,-0.225727,0.0842349,187
0.408658,-0.225206,0.0849456,189
0.40873,-0.22526,0.0858394,195
0.408756,-0.22528,0.0867232,199
0.40845,-0.225065,0.0875297,201
0.408146,-0.22485,0.0883354,203
0.408125,-0.224838,0.0892085,199
0.4082,-0.224893,0.090105,201
0.408228,-0.224916,0.0909909,201
0.408162,-0.224871,0.0918542,200
0.408238,-0.224928,0.0927532,200
0.408314,-0.224985,0.0936533,202
0.408392,-0.225042,0.0945544,202
0.408375,-0.225033,0.0954322,200
0.407885,-0.224686,0.0961882,197
0.408153,-0.224879,0.0971402,195
0.40828,-0.224972,0.0980568,196
0.408075,-0.224829,0.0988866,195
0.407305,-0.224282,0.0995642,196
0.407716,-0.224577,0.100558,194
0.408175,-0.224908,0.101568,194
0.40821,-0.224935,0.102464,192
0.407866,-0.224692,0.103255,186
0.407806,-0.224652,0.104125,187
0.407842,-0.22468,0.105022,188
0.407122,-0.224168,0.105705,188
0.406923,-0.224029,0.106534,186
0.407054,-0.224125,0.107458,189
0.407139,-0.224188,0.108371,187
0.408171,-0.224927,0.109563,193
0.407688,-0.224585,0.110311,191
0.407443,-0.224412,0.111128,190
0.407862,-0.224713,0.112145,190
0.40852,-0.225185,0.113238,188
0.408894,-0.225455,0.114247,188
0.409223,-0.225692,0.115245,192
0.409217,-0.22569,0.11614,192
0.408973,-0.225519,0.116962,193
0.408968,-0.225518,0.117859,193
0.409012,-0.225551,0.118772,189
0.409151,-0.225654,0.119716,189
0.4091,-0.22562,0.1206,183
0.409049,-0.225586,0.121485,184
0.409143,-0.225655,0.122417,186
0.409476,-0.225896,0.12343,189
0.409763,-0.226103,0.12443,191
0.410003,-0.226276,0.125415,186
0.40981,-0.226141,0.126257,189
0.410099,-0.22635,0.127262,187
0.410244,-0.226456,0.12822,187
0.410342,-0.226528,0.129163,188
0.410343,-0.226532,0.130074,188
0.410539,-0.226674,0.131053,185
0.410541,-0.226678,0.131966,183
0.411126,-0.227098,0.133086,181
0.410984,-0.226999,0.13395,183
0.411133,-0.227108,0.134919,181
0.411186,-0.227149,0.135855,182
0.412459,-0.22806,0.137235,182
0.41222,-0.227892,0.138068,180
0.412912,-0.228388,0.139245,179
0.412771,-0.228291,0.140116,177
0.413171,-0.228579,0.14119,179
0.413376,-0.228727,0.142192,179
0.413384,-0.228736,0.143122,175
0.413491,-0.228815,0.144091,176
0.413501,-0.228824,0.145023,175
0.413559,-0.228869,0.145976,177
0.413816,-0.229055,0.147006,175
0.413926,-0.229135,0.14798,175
0.414036,-0.229216,0.148956,172
0.414246,-0.229369,0.149973,171
0.413713,-0.228991,0.150696,174
0.41432,-0.229427,0.151874,169
0.414531,-0.22958,0.152896,170
0.414594,-0.229628,0.15386,165
0.414658,-0.229676,0.154825,164
0.414722,-0.229724,0.155792,165
0.414886,-0.229844,0.1568,169
0.414951,-0.229893,0.15777,167
0.414967,-0.229907,0.15872,163
0.415132,-0.230028,0.159733,157
0.414949,-0.2299,0.160601,161
0.414617,-0.229665,0.161406,157
0.414534,-0.229609,0.162316,151
0.414452,-0.229553,0.163227,158
0.414122,-0.229319,0.164031,160
0.413643,-0.22898,0.16477,167
0.413562,-0.228925,0.165681,169
0.413531,-0.228906,0.166615,169
0.413054,-0.228568,0.167352,167
0.412975,-0.228513,0.168264,166
0.412499,-0.228177,0.169,171
0.412223,-0.227982,0.169824,169
0.412144,-0.227929,0.170737,165
0.411918,-0.22777,0.171583,163
0.410612,-0.226839,0.171935,165
0.410143,-0.226507,0.172666,165
0.410066,-0.226455,0.173577,165
0.409794,-0.226263,0.174397,160
0.409279,-0.225898,0.175104,154
0.409203,-0.225847,0.176015,154
0.40869,-0.225483,0.176721,149
0.408081,-0.225051,0.177379,151
0.407475,-0.22462,0.178036,153
0.4074,-0.22457,0.178946,155
0.407568,-0.224692,0.179973,152
0.407301,-0.224504,0.180792,159
0.40689,-0.224213,0.18154,150
0.40672,-0.224095,0.182405,145
0.4066,-0.224011,0.183293,141
0.405614,-0.22331,0.183755,140
0.405638,-0.22333,0.184714,138
0.405423,-0.223178,0.185555,142
0.405304,-0.223096,0.186444,143
0.405137,-0.222979,0.187309,136
0.405258,-0.223068,0.18832,131
0.404996,-0.222884,0.189138,135
0.404878,-0.222802,0.190028,138
0.404808,-0.222755,0.190944,136
0.40493,-0.222845,0.19196,126
0.404957,-0.222867,0.192928,130
0.404314,-0.22241,0.193547,131
0.404437,-0.2225,0.194566,131
0.404225,-0.222352,0.19541,128
0.404348,-0.222443,0.196431,131
0.405,-0.22291,0.197735,128
0.404597,-0.222625,0.198479,116
0.403908,-0.222136,0.199068,114
0.404224,-0.222364,0.200198,112
0.404541,-0.222593,0.201331,116
0.404715,-0.22272,0.202388,121
0.404649,-0.222676,0.203316,118
0.404248,-0.222392,0.20406,117
0.404711,-0.222725,0.205281,121
0.404887,-0.222854,0.206346,122
0.403385,-0.225032,-0.218647,6
0.402332,-0.224273,-0.217059,6
0.404296,-0.225696,-0.217236,7
0.404777,-0.226046,-0.216543,5
0.40276,-0.22459,-0.214406,4
0.404197,-0.225633,-0.214266,6
0.404005,-0.225496,-0.213188,8
0.402142,-0.224152,-0.211159,11
0.403575,-0.22519,-0.21101,8
0.405501,-0.226586,-0.211133,8
0.405405,-0.226519,-0.210111,8
0.405987,-0.226943,-0.209469,9
0.404781,-0.226073,-0.20783,8
0.405893,-0.22688,-0.207483,7
0.408428,-0.228716,-0.207917,8
0.405752,-0.226784,-0.205476,12
0.406578,-0.227384,-0.204964,12
0.40731,-0.227916,-0.204398,10
0.406536,-0.227359,-0.203014,9
0.407219,-0.227855,-0.202419,8
0.407563,-0.228107,-0.201641,9
0.406887,-0.22762,-0.200317,12
0.407571,-0.228118,-0.19972,11
0.408748,-0.228972,-0.19938,11
0.408703,-0.228942,-0.198393,14
0.408855,-0.229055,-0.19751,12
0.40842,-0.228743,-0.196322,16
0.409601,-0.2296,-0.195974,13
0.409558,-0.229571,-0.19499,11
0.408096,-0.228517,-0.193278,13
0.411147,-0.230726,-0.193881,15
0.409576,-0.229593,-0.192119,14
0.410518,-0.230276,-0.191636,14
0.411117,-0.230712,-0.190978,14
0.410778,-0.23047,-0.189848,15
0.411577,-0.23105,-0.189287,16
0.410351,-0.230166,-0.187719,14
0.412188,-0.231498,-0.187669,12
0.412444,-0.231686,-0.186835,18
0.41335,-0.232343,-0.186318,16
0.413708,-0.232605,-0.185531,18
0.413467,-0.232434,-0.184453,17
0.413826,-0.232696,-0.183666,21
0.414236,-0.232996,-0.182902,19
0.414246,-0.233005,-0.181947,20
0.414507,-0.233197,-0.181112,18
0.414167,-0.232953,-0.179993,15
0.417001,-0.235006,-0.180362,19
0.416555,-0.234686,-0.179191,21
0.416465,-0.234624,-0.178188,20
0.416375,-0.234561,-0.177186,22
0.417706,-0.235527,-0.176837,23
0.417413,-0.235318,-0.175741,27
0.417527,-0.235403,-0.174833,27
0.417845,-0.235636,-0.174016,28
0.417705,-0.235537,-0.172994,23
0.418636,-0.236213,-0.17245,25
0.420446,-0.237525,-0.172293,27
0.419483,-0.236831,-0.170904,28
0.419959,-0.237179,-0.170153,31
0.420231,-0.237378,-0.16931,28
0.420503,-0.237578,-0.168467,31
0.42057,-0.237629,-0.167535,33
0.420998,-0.237941,-0.166759,33
0.422049,-0.238704,-0.166246,29
0.422949,-0.239358,-0.165666,33
0.423383,-0.239674,-0.164885,36
0.422826,-0.239275,-0.163688,37
0.423469,-0.239742,-0.162994,39
0.423591,-0.239833,-0.162082,38
0.423036,-0.239434,-0.160891,39
0.423576,-0.239828,-0.160152,36
0.424484,-0.240487,-0.159561,38
0.42466,-0.240618,-0.15867,43
0.424523,-0.240521,-0.157653,48
0.425541,-0.24126,-0.157099,48
0.42593,-0.241545,-0.156292,48
0.426585,-0.242021,-0.155587,45
0.426131,-0.241695,-0.154446,44
0.426364,-0.241866,-0.153575,42
0.42665,-0.242076,-0.152725,44
0.42768,-0.242824,-0.15216,45
0.428288,-0.243267,-0.15143,45
0.428952,-0.243751,-0.150718,49
0.429351,-0.244042,-0.149904,47
0.429,-0.243791,-0.148808,46
0.429614,-0.244237,-0.148073,50
0.429853,-0.244413,-0.147198,56
0.430255,-0.244707,-0.146381,53
0.431035,-0.245274,-0.145702,52
0.431764,-0.245804,-0.145001,55
0.431629,-0.245709,-0.143986,56
0.43285,-0.246595,-0.143458,59
0.432334,-0.246225,-0.142307,56
0.432525,-0.246366,-0.141409,59
0.434958,-0.248129,-0.141297,58
0.434438,-0.247756,-0.140146,61
0.434632,-0.247899,-0.139244,58
0.434607,-0.247884,-0.138267,55
0.435242,-0.248346,-0.137516,61
0.435493,-0.24853,-0.136633,65
0.435745,-0.248715,-0.13575,66
0.43644,-0.249221,-0.135013,64
0.436639,-0.249367,-0.13411,63
0.436782,-0.249474,-0.133188,65
0.436872,-0.249541,-0.132249,62
0.438128,-0.250453,-0.131688,62
0.43833,-0.250602,-0.130782,66
0.439147,-0.251197,-0.130073,69
0.438904,-0.251023,-0.129024,70
0.4395,-0.251457,-0.128241,66
0.440098,-0.251893,-0.127457,69
0.440136,-0.251923,-0.126497,70
0.440737,-0.252361,-0.12571,69
0.441001,-0.252555,-0.124818,74
0.441323,-0.25279,-0.123944,73
0.441985,-0.253273,-0.12317,79
0.44248,-0.253633,-0.122344,80
0.442124,-0.253378,-0.121265,75
0.442506,-0.253658,-0.120405,74
0.443288,-0.254226,-0.11966,84
0.443901,-0.254673,-0.118863,83
0.443717,-0.254542,-0.117835,87
0.444906,-0.255406,-0.117199,89
0.445181,-0.255608,-0.1163,93
0.445169,-0.255602,-0.115321,91
0.446425,-0.256514,-0.114693,92
0.446472,-0.256551,-0.113728,93
0.447389,-0.257217,-0.113,99
0.447844,-0.257549,-0.112144,98
0.448067,-0.257714,-0.111225,93
0.449754,-0.258938,-0.110692,92
0.448809,-0.258256,-0.109461,95
0.449679,-0.258889,-0.108708,93
0.449555,-0.258802,-0.107694,94
0.449901,-0.259055,-0.106802,99
0.450424,-0.259436,-0.105954,103
0.449656,-0.258883,-0.104779,104
0.450297,-0.25935,-0.103959,102
0.451295,-0.260075,-0.103225,102
0.452238,-0.260761,-0.102473,110
0.452711,-0.261106,-0.101603,112
0.453244,-0.261495,-0.100747,108
0.45372,-0.261842,-0.0998745,110
0.454377,-0.262321,-0.099043,106
0.454198,-0.262194,-0.0980147,102
0.454977,-0.262761,-0.0972083,108
0.454439,-0.262374,-0.0960989,109
0.455341,-0.26303,-0.0953167,112
0.454684,-0.262557,-0.0941834,116
0.455528,-0.263171,-0.0933847,117
0.455292,-0.263002,-0.0923469,113
0.456079,-0.263575,-0.0915315,122
0.456507,-0.263888,-0.0906363,119
0.456816,-0.264114,-0.0897143,121
0.457186,-0.264385,-0.0888042,117
0.457619,-0.264701,-0.0879057,121
0.457627,-0.26471,-0.0869191,124
0.457455,-0.264588,-0.0858964,124
0.458133,-0.265082,-0.0850446,126
0.460652,-0.266909,-0.084553,136
0.460172,-0.266564,-0.0834659,139
0.460737,-0.266976,-0.0825827,137
0.459829,-0.266321,-0.081417,139
0.459904,-0.266378,-0.0804408,143
0.460655,-0.266925,-0.07959,142
0.460486,-0.266805,-0.0785676,146
0.460933,-0.267132,-0.0776578,151
0.461876,-0.267817,-0.0768348,153
0.463196,-0.268776,-0.0760743,149
0.461726,-0.267715,-0.0748231,159
0.462923,-0.268584,-0.0740364,153
0.46469,-0.269866,-0.0733412,165
0.464085,-0.269431,-0.0722423,174
0.46367,-0.269133,-0.0711777,175
0.462573,-0.268342,-0.0700049,162
0.462535,-0.268317,-0.0690068,157
0.46499,-0.270098,-0.0684023,157
0.466904,-0.271487,-0.0677028,156
0.463293,-0.268874,-0.0661493,145
0.461832,-0.267819,-0.0649371,144
0.46069,-0.266994,-0.0637791,149
0.461025,-0.26724,-0.0628426,153
0.460563,-0.266908,-0.0617902,157
0.460409,-0.266799,-0.0607839,154
0.460194,-0.266646,-0.0597702,156
0.460287,-0.266716,-0.0587999,157
0.459036,-0.265813,-0.0576488,160
0.458887,-0.265707,-0.0566493,165
0.459408,-0.266088,-0.0557379,161
0.459748,-0.266337,-0.0548012,165
0.45893,-0.265747,-0.0537183,163
0.457813,-0.264941,-0.0526027,163
0.457488,-0.264707,-0.0515879,166
0.457344,-0.264606,-0.0505965,164
0.45684,-0.264244,-0.0495642,167
0.456518,-0.264013,-0.0485552,165
0.456138,-0.263741,-0.0475414,160
0.456179,-0.263773,-0.0465755,163
0.455921,-0.263589,-0.0455778,166
0.456023,-0.263666,-0.0446192,165
0.455947,-0.263613,-0.0436421,167
0.455811,-0.263517,-0.0426596,165
0.455736,-0.263466,-0.0416839,163
0.455124,-0.263025,-0.0406576,167
0.455051,-0.262975,-0.0396845,168
0.454979,-0.262925,-0.038712,170
0.454491,-0.262574,-0.0377032,172
0.454124,-0.262311,-0.0367073,171
0.453758,-0.262048,-0.0357134,167
0.453216,-0.261659,-0.034707,168
0.452676,-0.26127,-0.0337035,169
0.452374,-0.261054,-0.0327209,168
0.451545,-0.260456,-0.0317005,166
0.451774,-0.260625,-0.0307606,167
0.451359,-0.260327,-0.0297747,169
0.451238,-0.260241,-0.0288108,171
0.450942,-0.26003,-0.0278361,174
0.450589,-0.259777,-0.0268594,174
0.450529,-0.259736,-0.0259022,177
0.450645,-0.259823,-0.0249557,180
0.450412,-0.259656,-0.0239892,182
0.45018,-0.259491,-0.0230239,182
0.44989,-0.259284,-0.0220569,179
0.448617,-0.258364,-0.0210427,181
0.448217,-0.258076,-0.0200756,184
0.447932,-0.257873,-0.0191156,181
0.447649,-0.25767,-0.018157,181
0.447253,-0.257386,-0.0171953,181
0.447087,-0.257268,-0.0162442,187
0.44698,-0.257193,-0.015296,191
0.446758,-0.257035,-0.0143446,187
0.446538,-0.256878,-0.0133943,190
0.446433,-0.256805,-0.0124484,188
0.445816,-0.25636,-0.0114894,188
0.44577,-0.256329,-0.0105472,187
0.444985,-0.255764,-0.00958907,185
0.444205,-0.255201,-0.00863466,188
0.443597,-0.254763,-0.00768684,191
0.443161,-0.254449,-0.0067444,191
0.443231,-0.254503,-0.0058104,188
0.442966,-0.254313,-0.0048726,190
0.44287,-0.254246,-0.0039374,190
0.44255,-0.254017,-0.00300135,188
0.442287,-0.253829,-0.00206697,191
0.44225,-0.253805,-0.00113406,192
0.441375,-0.253173,-0.000202221,190
0.441674,-0.253392,0.000729586,188
0.440303,-0.252402,0.00165333,189
0.439881,-0.252098,0.00257836,191
0.439682,-0.251956,0.00350377,194
0.439539,-0.251855,0.00442901,193
0.439396,-0.251755,0.00535364,195
0.438924,-0.251415,0.00627202,194
0.438729,-0.251276,0.00719367,191
0.438369,-0.251018,0.00811091,193
0.436972,-0.250008,0.00900168,195
0.436454,-0.249635,0.00990921,193
0.436427,-0.249618,0.0108285,192
0.436292,-0.249522,0.0117444,192
0.436103,-0.249388,0.0126579,194
0.436241,-0.249491,0.0135823,196
0.435891,-0.24924,0.014489,199
0.435326,-0.248833,0.0153855,198
0.435141,-0.248701,0.0162957,201
0.434471,-0.248218,0.0171835,199
0.434288,-0.248088,0.0180912,200
0.433355,-0.247414,0.0189612,200
0.432907,-0.247092,0.0198521,200
0.432514,-0.24681,0.020744,203
0.432229,-0.246606,0.0216403,205
0.431786,-0.246287,0.0225262,206
0.43161,-0.246162,0.0234264,208
0.431541,-0.246114,0.0243327,207
0.431048,-0.245759,0.0252111,209
0.431139,-0.245828,0.026127,203
0.429383,-0.244558,0.0269144,203
0.429055,-0.244323,0.0277969,203
0.428833,-0.244164,0.0286859,204
0.428559,-0.243968,0.0295702,208
0.4286,-0.244,0.0304782,208
0.428589,-0.243995,0.0313825,207
0.428318,-0.243801,0.032265,206
0.4281,-0.243645,0.0331511,205
0.427726,-0.243377,0.0340227,204
0.42751,-0.243222,0.034907,198
0.425998,-0.242129,0.0356704,202
0.425682,-0.241902,0.0365406,202
0.425469,-0.241751,0.0374198,205
