ply
format ascii 1.0
comment Created by CloudCompare v2.11 alpha (Anoia)
comment Created 2025/12/9 17:47
obj_info Generated by CloudCompare!
element vertex 1461
property float x
property float y
property float z
property float scalar_Scalar_field
end_header
0.363995 -0.49363 0.259566 195 
0.361814 -0.493435 0.260161 196 
0.361422 -0.493402 0.260973 200 
0.360518 -0.493323 0.261718 200 
0.359845 -0.493264 0.262491 200 
0.359572 -0.493241 0.263314 202 
0.359584 -0.493244 0.264174 202 
0.360508 -0.493329 0.265158 202 
0.358929 -0.493189 0.265802 202 
0.358772 -0.493177 0.266639 204 
0.358447 -0.493149 0.267452 201 
0.35801 -0.493112 0.268248 200 
0.35763 -0.49308 0.269051 198 
0.35759 -0.493078 0.269902 198 
0.357212 -0.493046 0.270704 200 
0.357061 -0.493034 0.271539 198 
0.357248 -0.493053 0.272425 193 
0.356311 -0.49297 0.273139 193 
0.354987 -0.492853 0.273789 192 
0.354839 -0.492842 0.274621 193 
0.354469 -0.49281 0.275416 197 
0.354322 -0.492799 0.276247 196 
0.354121 -0.492783 0.277069 197 
0.354031 -0.492776 0.277909 201 
0.354387 -0.49281 0.278824 199 
0.353576 -0.492739 0.279543 198 
0.3536 -0.492743 0.280402 200 
0.352792 -0.492672 0.281118 203 
0.351933 -0.492597 0.281822 199 
0.351352 -0.492546 0.282573 199 
0.351322 -0.492545 0.28342 196 
0.351073 -0.492525 0.284228 194 
0.350496 -0.492475 0.284976 194 
0.350468 -0.492474 0.285823 193 
0.350276 -0.492459 0.28664 188 
0.349484 -0.492389 0.287344 189 
0.349949 -0.492433 0.288284 191 
0.350471 -0.492482 0.289238 190 
0.349079 -0.492358 0.289822 190 
0.34851 -0.492309 0.290563 192 
0.34854 -0.492314 0.291421 190 
0.348407 -0.492304 0.292247 188 
0.348384 -0.492303 0.293095 187 
0.348361 -0.492303 0.293944 188 
0.348339 -0.492303 0.294793 191 
0.348427 -0.492313 0.295665 190 
0.348515 -0.492323 0.296539 194 
0.348331 -0.492308 0.297355 193 
0.347822 -0.492264 0.298102 189 
0.348292 -0.492309 0.299059 191 
0.348219 -0.492304 0.2999 189 
0.3482 -0.492304 0.300753 185 
0.348292 -0.492314 0.301631 185 
0.348057 -0.492295 0.302437 181 
0.347986 -0.492291 0.303279 182 
0.348624 -0.49235 0.304282 178 
0.348009 -0.492297 0.305002 180 
0.347939 -0.492292 0.305846 181 
0.347979 -0.492298 0.306716 184 
0.347856 -0.492289 0.307548 182 
0.347408 -0.49225 0.308304 181 
0.347721 -0.49228 0.309239 180 
0.348144 -0.492321 0.310203 180 
0.348187 -0.492326 0.311077 190 
0.34834 -0.492342 0.311979 181 
0.348329 -0.492343 0.312842 183 
0.348373 -0.492349 0.313719 183 
0.347872 -0.492306 0.31446 187 
0.347972 -0.492317 0.315351 180 
0.3478 -0.492303 0.316174 181 
0.347519 -0.49228 0.31697 182 
0.347675 -0.492296 0.317877 182 
0.347177 -0.492253 0.318616 181 
0.34717 -0.492254 0.319482 179 
0.347218 -0.49226 0.320363 181 
0.347322 -0.492272 0.32126 182 
0.347425 -0.492283 0.322158 188 
0.347148 -0.49226 0.322954 189 
0.346817 -0.492232 0.323735 189 
0.346541 -0.492209 0.32453 188 
0.346483 -0.492206 0.325385 187 
0.346698 -0.492227 0.326317 189 
0.346695 -0.492229 0.327189 191 
0.346857 -0.492245 0.328107 190 
0.34691 -0.492252 0.328997 188 
0.346636 -0.492229 0.329794 187 
0.346527 -0.492222 0.330637 188 
0.346635 -0.492233 0.331545 185 
0.346363 -0.492211 0.332342 185 
0.346473 -0.492223 0.333251 184 
0.346474 -0.492225 0.334129 186 
0.346585 -0.492237 0.33504 185 
0.34626 -0.492209 0.335822 183 
0.345882 -0.492177 0.336587 182 
0.345776 -0.49217 0.337435 180 
0.34627 -0.492216 0.338465 181 
0.346437 -0.492233 0.339398 180 
0.34666 -0.492256 0.340349 180 
0.346665 -0.492258 0.341234 180 
0.34678 -0.49227 0.342154 177 
0.346896 -0.492283 0.343076 179 
0.346848 -0.492281 0.343947 180 
0.346581 -0.492258 0.344749 177 
0.346698 -0.492271 0.345673 174 
0.346596 -0.492264 0.346528 173 
0.34633 -0.492242 0.347331 171 
0.34612 -0.492225 0.348151 170 
0.34717 -0.492322 0.349385 170 
0.347125 -0.49232 0.350262 169 
0.3473 -0.492338 0.351213 165 
0.347421 -0.492351 0.352147 172 
0.347157 -0.492329 0.352953 169 
0.347664 -0.492377 0.354019 166 
0.347621 -0.492375 0.354901 166 
0.347413 -0.492358 0.355727 166 
0.34737 -0.492356 0.35661 167 
0.34777 -0.492394 0.357647 167 
0.347453 -0.492368 0.358437 166 
0.347798 -0.492401 0.359458 163 
0.347979 -0.49242 0.360423 163 
0.34722 -0.492353 0.361057 163 
0.348009 -0.492426 0.362241 156 
0.347804 -0.49241 0.363071 160 
0.347599 -0.492393 0.363902 160 
0.348503 -0.492477 0.365135 168 
0.348243 -0.492456 0.365948 163 
0.34826 -0.492459 0.366863 161 
0.348501 -0.492483 0.367861 157 
0.349132 -0.492543 0.369005 154 
0.348483 -0.492486 0.369675 159 
0.348336 -0.492475 0.370532 159 
0.348968 -0.492534 0.371683 163 
0.34871 -0.492513 0.372499 167 
0.34901 -0.492542 0.373529 155 
0.349367 -0.492576 0.374582 152 
0.349669 -0.492606 0.375616 151 
0.349355 -0.492579 0.376414 155 
0.349602 -0.492604 0.377429 147 
0.349513 -0.492598 0.378315 147 
0.349873 -0.492633 0.379379 142 
0.350291 -0.492673 0.380467 146 
0.35026 -0.492672 0.38138 136 
0.350623 -0.492707 0.382451 134 
0.350592 -0.492706 0.383366 126 
0.350224 -0.492675 0.384145 125 
0.350758 -0.492726 0.38529 122 
0.350728 -0.492725 0.386208 126 
0.350869 -0.49274 0.387197 123 
0.351293 -0.492781 0.388304 122 
0.351549 -0.492806 0.389344 122 
0.352033 -0.492852 0.390481 125 
0.352176 -0.492867 0.391478 126 
0.352206 -0.492872 0.392429 123 
0.352351 -0.492887 0.39343 118 
0.352268 -0.492882 0.394335 121 
0.352528 -0.492907 0.395388 122 
0.353361 -0.492985 0.396688 125 
0.353681 -0.493017 0.397772 115 
0.352968 -0.492954 0.39841 119 
0.353921 -0.493043 0.399771 115 
0.353725 -0.493027 0.400635 109 
0.353817 -0.493037 0.401626 104 
0.354429 -0.493095 0.402847 105 
0.355624 -0.493206 0.404331 105 
0.354732 -0.493127 0.404891 105 
0.354943 -0.493148 0.405941 110 
0.35498 -0.493154 0.406915 111 
0.355192 -0.493175 0.40797 112 
0.356103 -0.49326 0.409344 105 
0.362058 -0.49648 -0.0164589 3 
0.0467757 -0.46599 0.132039 4 
0.354515 -0.495755 -0.0109209 4 
0.357021 -0.495999 -0.0111419 5 
0.0814437 -0.469347 0.117645 3 
0.359258 -0.49622 -0.0102569 5 
0.361039 -0.496395 -0.0101169 7 
0.359734 -0.496271 -0.00853989 6 
0.365305 -0.496812 -0.0101429 4 
0.355288 -0.495845 -0.00456089 5 
0.358503 -0.496158 -0.00507389 4 
0.365187 -0.496807 -0.00715488 5 
0.361349 -0.496438 -0.00443889 3 
0.36159 -0.496463 -0.00358089 3 
0.363327 -0.496633 -0.00339389 6 
0.36333 -0.496636 -0.00242588 6 
0.366897 -0.496983 -0.00304489 9 
0.365808 -0.49688 -0.00158689 8 
0.364364 -0.496743 2.11121e-05 7 
0.365152 -0.496821 0.000643116 6 
0.366306 -0.496935 0.00110711 6 
0.369607 -0.497257 0.000643116 5 
0.365591 -0.49687 0.00335611 9 
0.366565 -0.496967 0.00390312 9 
0.367239 -0.497034 0.00458212 11 
0.369505 -0.497256 0.00458412 10 
0.370926 -0.497395 0.00495311 11 
0.37186 -0.497488 0.00553311 9 
0.369647 -0.497276 0.00743711 7 
0.369778 -0.497291 0.00835311 10 
0.371818 -0.497491 0.00847311 11 
0.371579 -0.49747 0.00954412 6 
0.370724 -0.497389 0.0108671 9 
0.372958 -0.497608 0.0109191 8 
0.369332 -0.497259 0.0133701 11 
0.374159 -0.497728 0.0123751 9 
0.372552 -0.497575 0.0139971 9 
0.374115 -0.497729 0.0143371 9 
0.374125 -0.497732 0.0153041 12 
0.374261 -0.497747 0.0162201 10 
0.372038 -0.497534 0.0180681 11 
0.373972 -0.497723 0.0182711 9 
0.373424 -0.497673 0.0194531 12 
0.373065 -0.49764 0.0205581 10 
0.373636 -0.497698 0.0213001 14 
0.375394 -0.49787 0.0215861 13 
0.374845 -0.497819 0.0227631 12 
0.373492 -0.49769 0.0242441 13 
0.37531 -0.497869 0.0245151 11 
0.374453 -0.497788 0.0258021 10 
0.375966 -0.497936 0.0261961 11 
0.373677 -0.497717 0.0280131 14 
0.374004 -0.497751 0.0288501 14 
0.373835 -0.497736 0.0298701 15 
0.373852 -0.49774 0.0308201 15 
0.373375 -0.497696 0.0319501 15 
0.373518 -0.497712 0.0328531 21 
0.374776 -0.497836 0.0333521 19 
0.372077 -0.497577 0.0352761 20 
0.371362 -0.49751 0.0364801 17 
0.370528 -0.497431 0.0377231 25 
0.369758 -0.497358 0.0389391 27 
0.369234 -0.49731 0.0400641 25 
0.367868 -0.497179 0.0414811 26 
0.368072 -0.497201 0.0423471 28 
0.366415 -0.497043 0.0438541 27 
0.367099 -0.497111 0.0445521 31 
0.365391 -0.496948 0.0460671 30 
0.364408 -0.496854 0.0473281 31 
0.363194 -0.496739 0.0486631 33 
0.363398 -0.49676 0.0495171 36 
0.361957 -0.496623 0.0509191 35 
0.361868 -0.496616 0.0518671 37 
0.361137 -0.496547 0.0530251 34 
0.360468 -0.496484 0.0541601 40 
0.360614 -0.496501 0.0550261 42 
0.359716 -0.496416 0.0562291 46 
0.359053 -0.496353 0.0573521 42 
0.358048 -0.496258 0.0585811 42 
0.357564 -0.496213 0.0596401 44 
0.357711 -0.496229 0.0604981 44 
0.3566 -0.496124 0.0617491 41 
0.35578 -0.496046 0.0629041 45 
0.356326 -0.496101 0.0636351 49 
0.354772 -0.495952 0.0650101 49 
0.353961 -0.495876 0.0661521 52 
0.354222 -0.495903 0.0669661 54 
0.353022 -0.495788 0.0682201 56 
0.352611 -0.49575 0.0692321 54 
0.352201 -0.495713 0.0702421 55 
0.351682 -0.495664 0.0712821 56 
0.351609 -0.495659 0.0721891 54 
0.35187 -0.495687 0.0729971 62 
0.350965 -0.495601 0.0741421 54 
0.350119 -0.495521 0.0752671 59 
0.349939 -0.495505 0.0761981 57 
0.349924 -0.495506 0.0770801 60 
0.34903 -0.495421 0.0782091 55 
0.349346 -0.495453 0.0789961 55 
0.348237 -0.495348 0.0801791 55 
0.34817 -0.495343 0.0810691 54 
0.348323 -0.49536 0.0818991 56 
0.347929 -0.495324 0.0828781 57 
0.347973 -0.49533 0.0837361 55 
0.347038 -0.495241 0.0848551 64 
0.346812 -0.495221 0.0857821 61 
0.346803 -0.495222 0.0866511 64 
0.346416 -0.495186 0.0876171 66 
0.346246 -0.495172 0.0885251 69 
0.346509 -0.495199 0.0893211 68 
0.345908 -0.495143 0.0903371 69 
0.345686 -0.495123 0.0912551 72 
0.345681 -0.495125 0.0921161 73 
0.345784 -0.495137 0.0929501 68 
0.345026 -0.495065 0.0939971 77 
0.345076 -0.495072 0.0948421 80 
0.345234 -0.495089 0.0956601 84 
0.345392 -0.495106 0.0964791 81 
0.344799 -0.495051 0.0974771 85 
0.344798 -0.495053 0.0983321 82 
0.344903 -0.495065 0.0991611 83 
0.344688 -0.495046 0.100065 88 
0.344956 -0.495074 0.100856 89 
0.344903 -0.49507 0.10172 87 
0.344903 -0.495072 0.102572 93 
0.344477 -0.495033 0.10352 98 
0.344425 -0.49503 0.104382 99 
0.344428 -0.495032 0.105231 103 
0.344164 -0.495008 0.106138 100 
0.344061 -0.495 0.107009 100 
0.344225 -0.495018 0.107821 102 
0.344176 -0.495015 0.108678 101 
0.344127 -0.495012 0.109535 102 
0.343654 -0.494968 0.110481 100 
0.343873 -0.494991 0.111279 106 
0.343348 -0.494942 0.112232 101 
0.343834 -0.494991 0.112976 110 
0.343948 -0.495004 0.113796 113 
0.343903 -0.495002 0.114648 113 
0.34354 -0.494969 0.115563 115 
0.343815 -0.494997 0.11635 115 
0.343665 -0.494985 0.11722 105 
0.343782 -0.494998 0.118038 104 
0.343793 -0.495001 0.118877 107 
0.343857 -0.495009 0.119704 113 
0.343604 -0.494986 0.120592 121 
0.343776 -0.495005 0.121398 122 
0.343736 -0.495003 0.122244 119 
0.34359 -0.494991 0.123109 124 
0.343658 -0.494999 0.123934 119 
0.343938 -0.495028 0.124721 128 
0.343106 -0.494949 0.125705 128 
0.343545 -0.494994 0.126463 131 
0.343508 -0.494992 0.127305 131 
0.343684 -0.495011 0.12811 134 
0.34349 -0.494994 0.128978 130 
0.343984 -0.495044 0.129729 134 
0.343897 -0.495038 0.130579 136 
0.34381 -0.495031 0.131427 138 
0.344201 -0.495071 0.132197 138 
0.343585 -0.495013 0.13313 141 
0.344242 -0.495079 0.133858 141 
0.344529 -0.495109 0.134647 146 
0.343755 -0.495035 0.1356 142 
0.344149 -0.495075 0.136371 144 
0.34449 -0.49511 0.137152 144 
0.344301 -0.495094 0.138012 149 
0.343849 -0.495052 0.13891 149 
0.343874 -0.495056 0.139737 151 
0.343846 -0.495055 0.140571 142 
0.343978 -0.49507 0.141382 144 
0.344216 -0.495095 0.142178 148 
0.343979 -0.495074 0.143041 150 
0.344483 -0.495125 0.143801 148 
0.344352 -0.495114 0.144648 151 
0.344487 -0.495129 0.145459 151 
0.344463 -0.495129 0.146291 156 
0.344546 -0.495138 0.147109 152 
0.344842 -0.495169 0.1479 155 
0.344343 -0.495122 0.148791 154 
0.344481 -0.495138 0.149601 154 
0.344672 -0.495158 0.150405 155 
0.344493 -0.495143 0.151254 158 
0.34442 -0.495138 0.152089 155 
0.345037 -0.4952 0.152845 156 
0.34486 -0.495184 0.153692 156 
0.345001 -0.4952 0.154503 159 
0.345728 -0.495273 0.15525 159 
0.345658 -0.495268 0.156085 161 
0.346068 -0.495309 0.156869 160 
0.346052 -0.49531 0.157699 162 
0.345931 -0.4953 0.158539 161 
0.346129 -0.495321 0.159346 161 
0.346276 -0.495337 0.160159 160 
0.346262 -0.495338 0.160987 162 
0.346623 -0.495375 0.16178 163 
0.346558 -0.49537 0.162613 166 
0.346493 -0.495366 0.163446 166 
0.346589 -0.495377 0.164264 168 
0.346686 -0.495388 0.165083 166 
0.346836 -0.495405 0.165897 167 
0.346988 -0.495422 0.166711 167 
0.347193 -0.495444 0.167521 172 
0.347078 -0.495434 0.168357 172 
0.347232 -0.495451 0.169171 172 
0.347439 -0.495473 0.169982 173 
0.347594 -0.49549 0.170798 175 
0.347642 -0.495497 0.171621 177 
0.348067 -0.49554 0.172419 179 
0.347901 -0.495526 0.173257 176 
0.347576 -0.495496 0.174106 178 
0.347895 -0.495529 0.174912 179 
0.348107 -0.495552 0.175725 182 
0.348805 -0.495622 0.17651 177 
0.348966 -0.495639 0.177328 183 
0.349289 -0.495673 0.178138 180 
0.349289 -0.495675 0.178967 183 
0.349668 -0.495713 0.179775 181 
0.349886 -0.495737 0.180593 183 
0.34978 -0.495728 0.181428 182 
0.349999 -0.495751 0.182246 182 
0.35011 -0.495764 0.183071 182 
0.350114 -0.495766 0.1839 182 
0.350227 -0.495779 0.184725 181 
0.350775 -0.495835 0.185532 181 
0.350564 -0.495816 0.186371 180 
0.350407 -0.495802 0.187206 183 
0.351121 -0.495874 0.188011 181 
0.351074 -0.495871 0.188844 183 
0.351627 -0.495927 0.189657 187 
0.352346 -0.495999 0.190468 188 
0.352356 -0.496002 0.191301 184 
0.35264 -0.496032 0.192126 187 
0.352816 -0.496051 0.192955 184 
0.352663 -0.496038 0.193792 186 
0.35273 -0.496046 0.194624 185 
0.353072 -0.496082 0.195451 185 
0.353636 -0.496139 0.196276 187 
0.35387 -0.496164 0.197108 189 
0.354492 -0.496226 0.197936 184 
0.354673 -0.496246 0.19877 184 
0.354911 -0.496271 0.199605 182 
0.355094 -0.496291 0.200441 186 
0.355389 -0.496322 0.201277 180 
0.355574 -0.496341 0.202115 186 
0.356595 -0.496443 0.202952 183 
0.356447 -0.496431 0.203792 184 
0.355912 -0.49638 0.204631 185 
0.356322 -0.496422 0.205472 186 
0.356456 -0.496437 0.206312 184 
0.35698 -0.49649 0.207157 184 
0.35818 -0.49661 0.20801 186 
0.358373 -0.49663 0.208856 186 
0.358397 -0.496635 0.2097 186 
0.358817 -0.496678 0.21055 186 
0.359069 -0.496704 0.211399 183 
0.359265 -0.496725 0.212249 183 
0.359519 -0.496752 0.2131 183 
0.36051 -0.496851 0.213969 185 
0.360709 -0.496872 0.214822 184 
0.360853 -0.496888 0.215674 185 
0.360657 -0.496871 0.216517 182 
0.360688 -0.496876 0.217367 176 
0.36055 -0.496864 0.218211 173 
0.360696 -0.496881 0.219065 171 
0.361185 -0.49693 0.219931 176 
0.361846 -0.496997 0.220807 177 
0.361996 -0.497014 0.221664 172 
0.361803 -0.496997 0.222507 172 
0.36224 -0.497041 0.223378 169 
0.363712 -0.497187 0.224297 167 
0.363808 -0.497199 0.225157 168 
0.36402 -0.497221 0.226023 173 
0.364348 -0.497256 0.226896 174 
0.364852 -0.497307 0.227779 177 
0.365067 -0.49733 0.228649 180 
0.365922 -0.497415 0.229556 184 
0.366314 -0.497456 0.230439 187 
0.367761 -0.497599 0.231388 186 
0.366811 -0.497508 0.232193 184 
0.365982 -0.497429 0.233002 189 
0.365679 -0.497402 0.233843 189 
0.365494 -0.497385 0.234691 190 
0.365599 -0.497398 0.235559 189 
0.365764 -0.497416 0.236431 189 
0.365406 -0.497382 0.237266 184 
0.365339 -0.497378 0.238122 184 
0.365215 -0.497368 0.238973 183 
0.365382 -0.497386 0.239848 184 
0.364911 -0.497342 0.240671 188 
0.36479 -0.497332 0.241522 186 
0.364958 -0.49735 0.242397 183 
0.366466 -0.4975 0.243389 184 
0.365415 -0.497399 0.24416 183 
0.365412 -0.497401 0.245023 183 
0.365409 -0.497402 0.245885 181 
0.365582 -0.497421 0.246765 184 
0.365349 -0.4974 0.247606 187 
0.365 -0.497368 0.248436 186 
0.364421 -0.497313 0.249241 189 
0.364538 -0.497327 0.250115 190 
0.364251 -0.497301 0.250948 188 
0.364195 -0.497297 0.251805 189 
0.363505 -0.497231 0.252594 191 
0.364666 -0.497347 0.253582 196 
0.364496 -0.497332 0.254428 197 
0.364154 -0.497301 0.255253 195 
0.361743 -0.497066 0.25584 196 
0.361692 -0.497063 0.256694 194 
0.361756 -0.497072 0.257561 198 
0.361649 -0.497063 0.258409 200 
0.361314 -0.497032 0.259228 200 
0.360866 -0.49699 0.260033 198 
0.359965 -0.496904 0.260779 196 
0.359293 -0.49684 0.261551 197 
0.358342 -0.496749 0.262285 196 
0.358353 -0.496752 0.263142 198 
0.35797 -0.496716 0.263947 200 
0.357701 -0.496691 0.264766 203 
0.356646 -0.49659 0.265477 201 
0.356828 -0.49661 0.266357 202 
0.356505 -0.49658 0.267166 199 
0.356016 -0.496534 0.26795 199 
0.354971 -0.496433 0.268653 196 
0.355098 -0.496448 0.269524 200 
0.354391 -0.49638 0.270272 197 
0.354186 -0.496362 0.271093 196 
0.353981 -0.496344 0.271914 197 
0.354165 -0.496364 0.272794 198 
0.353131 -0.496264 0.273485 197 
0.352598 -0.496214 0.274252 197 
0.352012 -0.496158 0.275009 194 
0.351922 -0.496152 0.275844 193 
0.351722 -0.496134 0.276662 193 
0.351359 -0.4961 0.277452 193 
0.35138 -0.496104 0.278305 195 
0.351238 -0.496092 0.279132 196 
0.350877 -0.496059 0.27992 194 
0.350845 -0.496057 0.280765 197 
0.350376 -0.496013 0.281534 193 
0.349909 -0.495969 0.282301 192 
0.349715 -0.495952 0.283116 189 
0.348978 -0.495882 0.283833 190 
0.348841 -0.49587 0.284657 191 
0.348921 -0.49588 0.28552 191 
0.348351 -0.495826 0.286264 191 
0.348053 -0.495799 0.287057 190 
0.348189 -0.495814 0.287932 190 
0.348163 -0.495813 0.288776 189 
0.347921 -0.495792 0.289579 192 
0.348221 -0.495823 0.290489 194 
0.348142 -0.495817 0.291324 193 
0.34801 -0.495806 0.292149 190 
0.348041 -0.495811 0.293008 188 
0.347748 -0.495784 0.2938 191 
0.347671 -0.495779 0.294637 192 
0.347596 -0.495773 0.295474 191 
0.347954 -0.49581 0.296402 195 
0.347879 -0.495805 0.29724 194 
0.347859 -0.495805 0.298091 192 
0.347028 -0.495725 0.298767 187 
0.345877 -0.495614 0.299371 186 
0.347099 -0.495736 0.300491 184 
0.347189 -0.495747 0.301367 183 
0.347605 -0.49579 0.302315 184 
0.34748 -0.495779 0.303145 184 
0.347844 -0.495817 0.304085 184 
0.347286 -0.495764 0.304816 185 
0.346837 -0.495722 0.305571 182 
0.346715 -0.495712 0.3064 177 
0.347025 -0.495744 0.307332 174 
0.34712 -0.495755 0.308214 179 
0.347595 -0.495804 0.309187 180 
0.347311 -0.495778 0.309981 182 
0.346703 -0.49572 0.310696 182 
0.346637 -0.495716 0.311541 182 
0.346572 -0.495711 0.312386 183 
0.346616 -0.495718 0.31326 181 
0.34666 -0.495724 0.314134 183 
0.347084 -0.495768 0.315104 180 
0.347347 -0.495795 0.316036 177 
0.348047 -0.495866 0.317081 179 
0.348257 -0.495889 0.318004 182 
0.34825 -0.49589 0.318871 183 
0.346827 -0.495752 0.319368 182 
0.346821 -0.495753 0.320234 181 
0.346761 -0.49575 0.321086 185 
0.34681 -0.495756 0.321968 186 
0.34675 -0.495752 0.322822 186 
0.346583 -0.495738 0.323646 187 
0.346579 -0.49574 0.324515 186 
0.346575 -0.495741 0.325385 189 
0.346844 -0.49577 0.326332 192 
0.346461 -0.495734 0.327097 194 
0.346731 -0.495762 0.328046 194 
0.346729 -0.495764 0.328919 200 
0.346565 -0.49575 0.329747 194 
0.346347 -0.495731 0.330559 191 
0.346347 -0.495733 0.331434 189 
0.34651 -0.495751 0.332358 194 
0.346293 -0.495731 0.333171 191 
0.346567 -0.49576 0.334129 192 
0.346623 -0.495768 0.335024 188 
0.345918 -0.4957 0.335692 190 
0.346355 -0.495745 0.336702 188 
0.346522 -0.495764 0.337633 187 
0.346416 -0.495755 0.338481 189 
0.34642 -0.495758 0.339364 189 
0.346425 -0.49576 0.340248 184 
0.346375 -0.495757 0.341115 184 
0.346217 -0.495744 0.341949 181 
0.346277 -0.495752 0.342852 186 
0.34683 -0.495808 0.343912 187 
0.346782 -0.495805 0.344784 181 
0.34668 -0.495797 0.345638 181 
0.346852 -0.495816 0.346581 181 
0.346313 -0.495765 0.347295 177 
0.346704 -0.495806 0.348312 176 
0.34644 -0.495782 0.349115 184 
0.346997 -0.495839 0.350189 176 
0.346788 -0.49582 0.351012 176 
0.345541 -0.495699 0.351486 170 
0.34659 -0.495805 0.352731 169 
0.34715 -0.495862 0.353814 168 
0.346613 -0.495811 0.354526 167 
0.346515 -0.495803 0.355388 166 
0.346144 -0.495769 0.356156 167 
0.346431 -0.495799 0.357151 165 
0.347599 -0.495916 0.358456 159 
0.346952 -0.495854 0.359129 162 
0.347793 -0.495939 0.360326 162 
0.347642 -0.495927 0.361174 164 
0.347547 -0.495919 0.362043 161 
0.346737 -0.495841 0.362655 163 
0.34769 -0.495937 0.363902 163 
0.347762 -0.495947 0.364833 167 
0.348 -0.495972 0.365827 159 
0.348018 -0.495976 0.366741 159 
0.348091 -0.495985 0.367676 155 
0.348054 -0.495984 0.368572 154 
0.348795 -0.496059 0.369758 150 
0.348815 -0.496063 0.370678 147 
0.34839 -0.496023 0.371431 145 
0.348911 -0.496076 0.372542 152 
0.348431 -0.496031 0.373274 151 
0.349065 -0.496096 0.374432 155 
0.349198 -0.496111 0.3754 149 
0.349332 -0.496126 0.37637 149 
0.348908 -0.496087 0.377124 143 
0.348819 -0.49608 0.378009 143 
0.34957 -0.496156 0.379224 138 
0.349818 -0.496183 0.380245 140 
0.349842 -0.496187 0.381178 136 
0.349924 -0.496197 0.382135 142 
0.350681 -0.496274 0.383366 139 
0.350537 -0.496262 0.384236 140 
0.35079 -0.496289 0.385267 133 
0.351042 -0.496316 0.3863 131 
0.35124 -0.496338 0.387313 125 
0.351494 -0.496365 0.388351 128 
0.351579 -0.496375 0.38932 120 
0.351608 -0.49638 0.390268 129 
0.351638 -0.496385 0.391216 127 
0.351667 -0.49639 0.392166 126 
0.351754 -0.496401 0.393141 118 
0.351785 -0.496406 0.394093 123 
0.351987 -0.496428 0.39512 122 
0.352189 -0.496451 0.396148 122 
0.352393 -0.496473 0.397179 128 
0.352654 -0.496501 0.398236 137 
0.353489 -0.496585 0.399546 126 
0.353007 -0.49654 0.400284 116 
0.353385 -0.496579 0.401398 104 
0.35365 -0.496608 0.402466 112 
0.353455 -0.496591 0.403331 109 
0.354124 -0.496659 0.404581 114 
0.353814 -0.49663 0.405397 114 
0.354139 -0.496665 0.406499 117 
0.355102 -0.496762 0.407891 118 
0.355256 -0.496779 0.408921 115 
0.355506 -0.499446 -0.0132929 3 
0.355506 -0.499448 -0.0123269 3 
0.359909 -0.499911 -0.0134519 4 
0.0101278 -0.463303 0.148382 2 
0.373073 -0.501293 -0.0176999 4 
0.35926 -0.49985 -0.0102289 5 
0.361992 -0.500138 -0.0105339 4 
0.36009 -0.499941 -0.00867689 3 
0.360447 -0.49998 -0.00787288 5 
0.361578 -0.500101 -0.00742388 3 
0.361223 -0.500066 -0.00629089 5 
0.363255 -0.500281 -0.00624889 3 
0.36464 -0.500428 -0.00590489 4 
0.357932 -0.499728 -0.00190188 5 
0.365128 -0.500484 -0.00417789 5 
0.36501 -0.500473 -0.00315188 6 
0.361958 -0.500156 -0.000820893 4 
0.365138 -0.500491 -0.00126589 7 
0.3634 -0.500312 0.000471112 7 
0.364185 -0.500396 0.00109212 7 
0.366906 -0.500683 0.000869107 8 
0.367154 -0.500711 0.00173211 6 
0.366916 -0.500689 0.00280611 7 
0.36674 -0.500672 0.00385111 10 
0.368572 -0.500866 0.00403411 8 
0.366874 -0.500691 0.00572811 7 
0.3667 -0.500675 0.00676912 7 
0.371477 -0.501177 0.00571611 8 
0.371545 -0.501187 0.00666111 8 
0.367087 -0.500722 0.00950011 10 
0.369408 -0.500967 0.00949712 8 
0.368075 -0.50083 0.0110161 9 
0.372751 -0.501322 0.0100521 12 
0.369496 -0.500983 0.0123591 9 
0.369383 -0.500973 0.0133701 12 
0.369027 -0.500938 0.0144781 10 
0.371181 -0.501166 0.0145701 7 
0.373479 -0.501409 0.0146121 12 
0.372312 -0.501289 0.0160481 15 
0.372571 -0.501318 0.0169111 13 
0.371042 -0.50116 0.0184821 14 
0.370809 -0.501138 0.0195361 13 
0.371866 -0.501251 0.0200821 14 
0.37151 -0.501216 0.0211821 12 
0.372632 -0.501336 0.0217081 14 
0.371845 -0.501255 0.0229731 14 
0.373835 -0.501466 0.0231681 16 
0.374471 -0.501535 0.0238881 14 
0.372012 -0.501279 0.0257841 13 
0.373632 -0.501451 0.0261301 12 
0.37645 -0.501749 0.0260311 10 
0.371691 -0.501252 0.0287721 11 
0.371463 -0.50123 0.0298111 17 
0.37345 -0.501441 0.0300301 14 
0.371499 -0.501239 0.0317021 15 
0.372745 -0.501371 0.0321981 17 
0.372395 -0.501337 0.0332781 18 
0.372046 -0.501302 0.0343551 24 
0.370781 -0.501172 0.0357591 24 
0.369827 -0.501074 0.0370461 22 
0.369849 -0.501078 0.0379821 27 
0.368719 -0.500962 0.0393231 21 
0.369225 -0.501017 0.0400861 21 
0.36732 -0.500819 0.0416911 23 
0.366206 -0.500705 0.0430131 29 
0.366051 -0.500691 0.0439981 27 
0.364827 -0.500564 0.0453501 32 
0.364497 -0.500532 0.0463901 29 
0.363872 -0.500468 0.0475291 32 
0.362604 -0.500337 0.0488811 35 
0.362162 -0.500293 0.0499501 36 
0.362307 -0.50031 0.0508221 37 
0.360701 -0.500144 0.0522721 36 
0.360381 -0.500112 0.0532931 39 
0.360062 -0.500081 0.0543111 36 
0.358648 -0.499935 0.0556831 36 
0.358506 -0.499922 0.0566381 40 
0.358019 -0.499873 0.0577021 42 
0.356906 -0.499758 0.0589641 47 
0.355573 -0.49962 0.0602901 47 
0.355719 -0.499637 0.0611441 47 
0.355412 -0.499607 0.0621401 45 
0.355275 -0.499595 0.0630811 50 
0.354405 -0.499505 0.0642471 48 
0.353428 -0.499405 0.0654421 53 
0.35279 -0.49934 0.0665291 52 
0.352547 -0.499316 0.0674931 51 
0.352471 -0.49931 0.0684051 51 
0.352229 -0.499287 0.0693661 54 
0.351043 -0.499164 0.0706061 54 
0.35025 -0.499083 0.0717241 55 
0.350454 -0.499107 0.0725461 58 
0.349831 -0.499043 0.0736091 55 
0.349045 -0.498963 0.0747171 58 
0.34892 -0.498951 0.0756301 62 
0.349235 -0.498987 0.0764171 57 
0.348016 -0.49886 0.0776391 60 
0.349371 -0.499005 0.0781321 55 
0.34799 -0.498862 0.0793941 52 
0.347487 -0.498811 0.0804051 53 
0.347257 -0.498789 0.0813401 52 
0.34839 -0.49891 0.0818991 52 
0.347072 -0.498773 0.0831291 62 
0.346412 -0.498706 0.0841751 60 
0.345808 -0.498644 0.0852031 64 
0.345745 -0.49864 0.0860841 63 
0.345252 -0.49859 0.0870781 66 
0.345406 -0.498608 0.0879001 71 
0.345129 -0.498581 0.0888331 76 
0.344747 -0.498542 0.0897931 78 
0.34458 -0.498527 0.0906951 77 
0.344521 -0.498523 0.0915681 73 
0.344462 -0.498518 0.0924411 76 
0.34403 -0.498475 0.0934061 74 
0.343546 -0.498426 0.0943821 78 
0.344075 -0.498484 0.0951061 81 
0.343114 -0.498384 0.0961951 86 
0.34423 -0.498504 0.0967771 82 
0.343854 -0.498466 0.0977211 76 
0.343799 -0.498462 0.0985871 77 
0.343745 -0.498458 0.0994521 75 
0.34316 -0.498399 0.10044 83 
0.343213 -0.498406 0.101277 90 
0.342895 -0.498375 0.1022 90 
0.343055 -0.498394 0.103011 87 
0.34311 -0.498401 0.103846 88 
0.342847 -0.498376 0.104753 88 
0.343593 -0.498456 0.105433 91 
0.343065 -0.498402 0.106397 98 
0.34291 -0.498388 0.107277 97 
0.34355 -0.498457 0.107982 101 
0.342654 -0.498365 0.109021 97 
0.342607 -0.498362 0.109874 99 
0.342824 -0.498387 0.110671 97 
0.343254 -0.498434 0.111424 102 
0.343049 -0.498414 0.112309 107 
0.343268 -0.498439 0.113107 110 
0.342852 -0.498397 0.114033 105 
0.342808 -0.498394 0.114883 106 
0.342975 -0.498414 0.11569 109 
0.342985 -0.498417 0.116528 116 
0.342678 -0.498386 0.117428 110 
0.342847 -0.498406 0.118234 104 
0.343122 -0.498437 0.119019 105 
0.342975 -0.498423 0.119886 113 
0.342829 -0.49841 0.120751 112 
0.342947 -0.498424 0.121566 113 
0.342696 -0.4984 0.122449 117 
0.342341 -0.498364 0.12335 120 
0.342566 -0.49839 0.124144 116 
0.342844 -0.498421 0.124929 116 
0.342649 -0.498402 0.125799 122 
0.34277 -0.498417 0.126611 129 
0.342734 -0.498415 0.127452 129 
0.342909 -0.498435 0.128255 130 
0.3424 -0.498384 0.129175 125 
0.342945 -0.498443 0.129915 133 
0.343122 -0.498464 0.130719 137 
0.342561 -0.498406 0.131643 135 
0.343108 -0.498466 0.132386 137 
0.343023 -0.498459 0.133231 136 
0.342833 -0.498441 0.134092 133 
0.343117 -0.498473 0.134878 141 
0.343034 -0.498466 0.135722 138 
0.343057 -0.49847 0.136548 144 
0.343132 -0.49848 0.137367 144 
0.343209 -0.49849 0.138185 142 
0.343075 -0.498477 0.139034 143 
0.34331 -0.498504 0.139829 150 
0.343441 -0.49852 0.140639 154 
0.343731 -0.498552 0.141427 152 
0.34381 -0.498562 0.142245 149 
0.343784 -0.498562 0.143077 151 
0.343548 -0.498539 0.143937 148 
0.343629 -0.498549 0.144754 155 
0.34371 -0.498559 0.145571 152 
0.344057 -0.498598 0.146353 149 
0.343981 -0.498592 0.14719 154 
0.344117 -0.498608 0.148 153 
0.344095 -0.498608 0.14883 148 
0.344285 -0.498629 0.149633 152 
0.344106 -0.498612 0.150482 158 
0.34435 -0.49864 0.151279 158 
0.34412 -0.498618 0.152132 152 
0.344259 -0.498634 0.152942 157 
0.3444 -0.498651 0.153752 157 
0.344699 -0.498684 0.154544 158 
0.345106 -0.498729 0.155325 159 
0.344613 -0.498679 0.156205 167 
0.344438 -0.498662 0.157048 162 
0.344634 -0.498685 0.157853 163 
0.344778 -0.498702 0.158663 159 
0.345135 -0.498742 0.159452 162 
0.345492 -0.498781 0.160242 169 
0.345214 -0.498754 0.161094 172 
0.34499 -0.498732 0.16194 163 
0.344713 -0.498705 0.16279 167 
0.345284 -0.498767 0.163562 170 
0.345751 -0.498818 0.164345 170 
0.345423 -0.498785 0.165198 169 
0.346317 -0.498881 0.165946 170 
0.346042 -0.498854 0.166795 170 
0.346779 -0.498934 0.16756 169 
0.346132 -0.498867 0.168437 169 
0.346338 -0.498891 0.169246 168 
0.346598 -0.49892 0.170051 170 
0.346539 -0.498916 0.17088 171 
0.346533 -0.498917 0.171706 168 
0.347062 -0.498975 0.172493 176 
0.347218 -0.498993 0.173308 175 
0.347429 -0.499017 0.17412 175 
0.347372 -0.499013 0.174949 176 
0.34812 -0.499094 0.175728 176 
0.348172 -0.499101 0.176552 178 
0.347742 -0.499058 0.177404 181 
0.348009 -0.499088 0.178215 184 
0.347956 -0.499084 0.179044 178 
0.348655 -0.49916 0.179832 178 
0.349087 -0.499207 0.180637 179 
0.348981 -0.499198 0.18147 180 
0.349253 -0.499229 0.182285 181 
0.349364 -0.499242 0.183108 184 
0.349584 -0.499267 0.183926 180 
0.349588 -0.49927 0.184754 184 
0.35008 -0.499324 0.185563 188 
0.350194 -0.499337 0.186387 187 
0.350309 -0.499351 0.187212 187 
0.35037 -0.49936 0.188039 186 
0.351246 -0.499454 0.18884 186 
0.351636 -0.499497 0.189659 185 
0.351427 -0.499477 0.190496 189 
0.351818 -0.49952 0.191317 187 
0.351828 -0.499523 0.192148 192 
0.352276 -0.499572 0.192969 194 
0.352506 -0.499599 0.193797 191 
0.352464 -0.499596 0.194631 190 
0.352915 -0.499646 0.195455 188 
0.352983 -0.499655 0.196288 188 
0.352943 -0.499652 0.197122 190 
0.352903 -0.49965 0.197956 187 
0.354623 -0.499834 0.198771 188 
0.354861 -0.499861 0.199606 189 
0.354878 -0.499864 0.200443 188 
0.355061 -0.499886 0.201279 186 
0.355301 -0.499913 0.202116 189 
0.355376 -0.499923 0.202953 183 
0.355506 -0.499939 0.203791 186 
0.355804 -0.499972 0.20463 185 
0.356604 -0.500058 0.205473 188 
0.357016 -0.500104 0.206316 187 
0.357039 -0.500108 0.207157 187 
0.356783 -0.500083 0.207995 185 
0.357309 -0.500141 0.208842 182 
0.358062 -0.500222 0.209694 180 
0.35848 -0.500268 0.210544 187 
0.358675 -0.500291 0.211392 189 
0.35859 -0.500284 0.212234 188 
0.35918 -0.500348 0.213091 189 
0.359377 -0.500371 0.213941 191 
0.359181 -0.500352 0.214782 189 
0.359436 -0.500381 0.215635 188 
0.359467 -0.500386 0.216482 187 
0.360176 -0.500463 0.21735 184 
0.360775 -0.500528 0.218217 179 
0.360751 -0.500528 0.219065 178 
0.360842 -0.500539 0.219917 173 
0.360422 -0.500497 0.22075 165 
0.360514 -0.500508 0.221602 165 
0.360946 -0.500556 0.222469 164 
0.36178 -0.500646 0.223355 164 
0.36176 -0.500646 0.224206 165 
0.36214 -0.500688 0.225075 169 
0.363152 -0.500797 0.225978 177 
0.363135 -0.500797 0.226831 176 
0.364037 -0.500895 0.227733 180 
0.363044 -0.500791 0.228535 192 
0.364524 -0.50095 0.229474 192 
0.364163 -0.500914 0.23031 189 
0.364495 -0.500951 0.231187 195 
0.36477 -0.500982 0.232062 191 
0.364931 -0.501001 0.232931 185 
0.364283 -0.500934 0.233747 184 
0.364734 -0.500984 0.234636 186 
0.364781 -0.500991 0.235498 183 
0.365118 -0.501029 0.236381 185 
0.364704 -0.500987 0.237211 183 
0.364753 -0.500994 0.238074 183 
0.364572 -0.500977 0.23892 185 
0.364333 -0.500953 0.239761 186 
0.364211 -0.500942 0.24061 188 
0.364783 -0.501005 0.241517 191 
0.364605 -0.500988 0.242362 191 
0.3646 -0.500989 0.243223 190 
0.364365 -0.500966 0.244063 189 
0.364651 -0.500999 0.244949 192 
0.364186 -0.500951 0.245768 189 
0.363839 -0.500916 0.246596 189 
0.364242 -0.500961 0.247495 186 
0.363376 -0.500871 0.248271 188 
0.364415 -0.500983 0.249235 191 
0.363033 -0.500839 0.249957 194 
0.362518 -0.500786 0.250763 193 
0.362061 -0.50074 0.251574 198 
0.361721 -0.500706 0.252397 199 
0.361382 -0.500672 0.253218 200 
0.36093 -0.500626 0.254026 194 
0.360764 -0.50061 0.254864 199 
0.360371 -0.50057 0.255676 201 
0.359526 -0.500483 0.256435 201 
0.358797 -0.500408 0.257204 197 
0.358522 -0.50038 0.258026 199 
0.358305 -0.500359 0.258853 201 
0.358257 -0.500356 0.259702 201 
0.357422 -0.50027 0.260451 197 
0.360314 -0.500578 0.261675 197 
0.357161 -0.500246 0.262124 196 
0.35824 -0.500362 0.26312 198 
0.355952 -0.500122 0.26367 196 
0.355295 -0.500054 0.264433 197 
0.354974 -0.500022 0.26524 197 
0.35482 -0.500007 0.266069 197 
0.35439 -0.499964 0.266859 195 
0.354404 -0.499967 0.267711 198 
0.353809 -0.499906 0.268476 198 
0.353217 -0.499845 0.269239 196 
0.353178 -0.499843 0.270083 195 
0.352093 -0.49973 0.270769 197 
0.351616 -0.499681 0.271544 198 
0.352567 -0.499784 0.272538 195 
0.350885 -0.499607 0.273125 198 
0.350903 -0.499611 0.273974 197 
0.350539 -0.499575 0.274764 195 
0.350123 -0.499532 0.275543 192 
0.349544 -0.499473 0.276295 192 
0.349401 -0.49946 0.277117 191 
0.349694 -0.499493 0.278012 191 
0.348738 -0.499393 0.278697 192 
0.348652 -0.499386 0.279528 189 
0.348458 -0.499367 0.28034 190 
0.348319 -0.499354 0.281162 189 
0.348342 -0.499359 0.282012 190 
0.348042 -0.499329 0.282805 189 
0.348121 -0.499339 0.283666 191 
0.347767 -0.499303 0.284448 193 
0.347739 -0.499302 0.28529 191 
0.347442 -0.499273 0.286082 191 
0.34763 -0.499295 0.286965 195 
0.347712 -0.499305 0.287828 194 
0.347308 -0.499264 0.288599 193 
0.346529 -0.499184 0.289296 194 
0.347365 -0.499274 0.290308 193 
0.346587 -0.499194 0.291003 192 
0.346509 -0.499187 0.291836 189 
0.346863 -0.499227 0.292756 190 
0.347433 -0.499289 0.293723 190 
0.346602 -0.499203 0.294403 189 
0.346258 -0.499168 0.295182 186 
0.345485 -0.499088 0.295871 188 
0.345518 -0.499094 0.296727 185 
0.346088 -0.499156 0.297699 182 
0.346069 -0.499156 0.298546 183 
0.345942 -0.499144 0.299371 185 
0.345816 -0.499133 0.300196 189 
0.345906 -0.499144 0.301068 187 
0.345888 -0.499144 0.301918 187 
0.345388 -0.499093 0.302659 188 
0.345586 -0.499116 0.303558 187 
0.346701 -0.499237 0.304667 184 
0.346308 -0.499197 0.305434 181 
0.346024 -0.499169 0.306225 180 
0.346765 -0.499249 0.307255 180 
0.345781 -0.499147 0.307881 182 
0.346037 -0.499176 0.3088 185 
0.34651 -0.499228 0.309773 186 
0.346012 -0.499177 0.310512 181 
0.346378 -0.499218 0.311461 185 
0.345827 -0.499161 0.312187 180 
0.345601 -0.499139 0.312991 182 
0.345752 -0.499157 0.31389 183 
0.345851 -0.49917 0.314777 182 
0.346111 -0.499199 0.315705 183 
0.346157 -0.499206 0.316581 186 
0.346257 -0.499219 0.317471 183 
0.346141 -0.499208 0.318306 185 
0.346512 -0.49925 0.319269 184 
0.346506 -0.499251 0.320134 180 
0.347042 -0.49931 0.321144 182 
0.346603 -0.499265 0.321895 185 
0.346652 -0.499273 0.322778 188 
0.346539 -0.499263 0.323617 185 
0.346589 -0.49927 0.324501 182 
0.346531 -0.499266 0.325355 182 
0.346745 -0.49929 0.326286 187 
0.346526 -0.499269 0.327097 188 
0.346469 -0.499265 0.327954 188 
0.346576 -0.499278 0.328858 190 
0.346521 -0.499274 0.329716 184 
0.346574 -0.499282 0.330606 184 
0.346574 -0.499284 0.331482 184 
0.34652 -0.49928 0.332342 185 
0.346575 -0.499288 0.333235 184 
0.346468 -0.499279 0.334081 187 
0.346524 -0.499287 0.334975 183 
0.346526 -0.499289 0.335855 183 
0.346257 -0.499262 0.336653 181 
0.345934 -0.49923 0.337435 185 
0.346317 -0.499273 0.338432 186 
0.346376 -0.499281 0.339331 189 
0.346326 -0.499278 0.340197 191 
0.346658 -0.499315 0.341183 189 
0.346663 -0.499317 0.342069 184 
0.346614 -0.499314 0.342938 184 
0.346348 -0.499288 0.343739 183 
0.346246 -0.499279 0.344592 184 
0.346471 -0.499305 0.34555 183 
0.345988 -0.499256 0.346281 178 
0.34556 -0.499212 0.347029 178 
0.34595 -0.499256 0.348043 180 
0.345523 -0.499212 0.348791 179 
0.345586 -0.499221 0.349701 180 
0.346195 -0.499288 0.350793 177 
0.34637 -0.499308 0.351742 176 
0.345507 -0.499219 0.352344 174 
0.345736 -0.499245 0.353313 175 
0.346457 -0.499324 0.354452 172 
0.346415 -0.499321 0.355332 171 
0.346263 -0.499307 0.356175 168 
0.346221 -0.499305 0.357056 169 
0.346234 -0.499308 0.357957 170 
0.346193 -0.499306 0.35884 168 
0.346207 -0.499309 0.359743 165 
0.346331 -0.499325 0.360686 165 
0.346455 -0.49934 0.36163 163 
0.347295 -0.499431 0.362833 163 
0.348029 -0.499512 0.364002 159 
0.346777 -0.49938 0.364453 159 
0.34729 -0.499437 0.365544 153 
0.348357 -0.499553 0.366842 157 
0.347656 -0.49948 0.367492 154 
0.347177 -0.499431 0.368222 155 
0.347472 -0.499465 0.36924 152 
0.348266 -0.499551 0.370448 157 
0.348064 -0.499532 0.371284 154 
0.348139 -0.499542 0.372225 162 
0.348604 -0.499594 0.373316 159 
0.348681 -0.499604 0.374261 157 
0.348258 -0.499561 0.375013 149 
0.348836 -0.499625 0.376154 147 
0.349472 -0.499694 0.37732 147 
0.348714 -0.499616 0.377943 144 
0.349463 -0.499698 0.379158 139 
0.350047 -0.499762 0.380312 142 
0.349735 -0.499731 0.381111 140 
0.349872 -0.499748 0.38209 133 
0.349617 -0.499722 0.382913 130 
0.350035 -0.499769 0.384008 135 
0.350793 -0.499852 0.385244 132 
0.350989 -0.499875 0.386254 136 
0.350847 -0.499862 0.387127 133 
0.350706 -0.499849 0.388001 135 
0.350621 -0.499842 0.388898 131 
0.351158 -0.499902 0.390055 132 
0.35147 -0.499937 0.391121 127 
0.351613 -0.499954 0.392118 125 
0.351587 -0.499954 0.393045 126 
0.351617 -0.499959 0.393997 124 
0.352217 -0.500025 0.395193 117 
0.352419 -0.500049 0.396222 120 
0.352337 -0.500042 0.39713 120 
0.352256 -0.500036 0.398038 116 
0.352574 -0.500072 0.399122 109 
0.352836 -0.500102 0.400183 115 
0.353099 -0.500132 0.401247 113 
0.35365 -0.500193 0.40244 114 
0.3538 -0.500211 0.403458 108 
0.353318 -0.500162 0.404196 110 
0.353182 -0.50015 0.405088 116 
0.353333 -0.500168 0.40611 114 
0.354176 -0.50026 0.407446 116 
0.354329 -0.500279 0.408473 111 
0.359173 -0.503461 -0.0150339 5 
0.354556 -0.502943 -0.0118569 5 
0.357819 -0.503313 -0.0124429 4 
0.100446 -0.474336 0.10889 2 
0.363039 -0.503905 -0.0129639 3 
0.355606 -0.50307 -0.00850189 5 
0.357005 -0.50323 -0.00819288 4 
0.356716 -0.503199 -0.00709489 6 
0.357828 -0.503327 -0.00664789 6 
0.358417 -0.503395 -0.00595489 4 
0.358538 -0.503411 -0.00504689 5 
0.360545 -0.503639 -0.00499989 4 
0.365452 -0.504194 -0.00626189 5 
0.361976 -0.503805 -0.00371489 4 
0.360911 -0.503687 -0.00226888 4 
0.361093 -0.50371 -0.00138589 6 
0.360684 -0.503666 -0.000239882 7 
0.362112 -0.503829 8.81078e-05 7 
0.362712 -0.503899 0.000787106 8 
0.362717 -0.503902 0.00174811 8 
0.361891 -0.503811 0.00307311 5 
0.364883 -0.50415 0.00273111 8 
0.366034 -0.504282 0.00319911 8 
0.367737 -0.504476 0.00343211 7 
0.367075 -0.504404 0.00468611 8 
0.366597 -0.504352 0.00585811 8 
0.367391 -0.504444 0.00648612 5 
0.366551 -0.504351 0.00780812 8 
0.368622 -0.504587 0.00790012 7 
0.367111 -0.504419 0.00950011 9 
0.368394 -0.504566 0.00992912 10 
0.367371 -0.504452 0.0113181 9 
0.367744 -0.504497 0.0121261 9 
0.367028 -0.504418 0.0133821 10 
0.370201 -0.504778 0.0130451 9 
0.36826 -0.504561 0.0147991 11 
0.36821 -0.504558 0.0157801 9 
0.369194 -0.504671 0.0163431 9 
0.37061 -0.504833 0.0167371 12 
0.374389 -0.505261 0.0161951 8 
0.37217 -0.505013 0.0180441 15 
0.371075 -0.504892 0.0194391 13 
0.372997 -0.505111 0.0196471 12 
0.371408 -0.504934 0.0212301 10 
0.369405 -0.50471 0.0229671 13 
0.371251 -0.50492 0.0232101 15 
0.371511 -0.504952 0.0240681 17 
0.371894 -0.504997 0.0248791 13 
0.373203 -0.505147 0.0253401 17 
0.37254 -0.505074 0.0265501 16 
0.370716 -0.504871 0.0281921 16 
0.372449 -0.505069 0.0284971 16 
0.371667 -0.504983 0.0297431 17 
0.371318 -0.504945 0.0308251 15 
0.373363 -0.505178 0.0310241 16 
0.371844 -0.505009 0.0325341 19 
0.372292 -0.505062 0.0333221 21 
0.371882 -0.505018 0.0344221 20 
0.36995 -0.504802 0.0360651 21 
0.37064 -0.504882 0.0367631 20 
0.369264 -0.504729 0.0381971 23 
0.368622 -0.504658 0.0393661 24 
0.367561 -0.504541 0.0406781 22 
0.366625 -0.504437 0.0419421 25 
0.366231 -0.504395 0.0430131 27 
0.365659 -0.504332 0.0441421 29 
0.364143 -0.504163 0.0455931 34 
0.363225 -0.504062 0.0468331 30 
0.363663 -0.504113 0.0476091 32 
0.361579 -0.50388 0.0492361 35 
0.361898 -0.503918 0.0500481 34 
0.360586 -0.503772 0.0514041 40 
0.359976 -0.503705 0.0525221 43 
0.359311 -0.503632 0.0536551 38 
0.358822 -0.503579 0.0547271 38 
0.358047 -0.503494 0.0558891 42 
0.357906 -0.50348 0.0568421 43 
0.356964 -0.503376 0.0580511 43 
0.356312 -0.503304 0.0591641 41 
0.35555 -0.50322 0.0603081 45 
0.354903 -0.503149 0.0614121 46 
0.354147 -0.503066 0.0625471 50 
0.353731 -0.503021 0.0635721 49 
0.353092 -0.502951 0.0646641 48 
0.353744 -0.503026 0.0653561 52 
0.352324 -0.502868 0.0666821 51 
0.352137 -0.502849 0.0676281 56 
0.351284 -0.502754 0.0687741 57 
0.350711 -0.502692 0.0698311 57 
0.350416 -0.50266 0.0708031 53 
0.350233 -0.502642 0.0717401 53 
0.34961 -0.502573 0.0728051 54 
0.349649 -0.50258 0.0736741 53 
0.348975 -0.502506 0.0747481 60 
0.347757 -0.50237 0.0759761 62 
0.347416 -0.502333 0.0769481 63 
0.347783 -0.502377 0.0777171 64 
0.3469 -0.502279 0.0788381 62 
0.347213 -0.502316 0.0796221 63 
0.346605 -0.50225 0.0806621 58 
0.346052 -0.502189 0.0816831 52 
0.345502 -0.502129 0.0827011 53 
0.345384 -0.502118 0.0835981 60 
0.345052 -0.502082 0.0845531 60 
0.344935 -0.502071 0.0854481 68 
0.344391 -0.502011 0.0864551 65 
0.344704 -0.502048 0.0872331 68 
0.343681 -0.501935 0.0883621 70 
0.343834 -0.501954 0.0891811 73 
0.343082 -0.501871 0.0902331 73 
0.343076 -0.501872 0.0910911 73 
0.342646 -0.501826 0.0920561 75 
0.342694 -0.501833 0.0928981 78 
0.342531 -0.501816 0.0937921 79 
0.342263 -0.501788 0.0947111 82 
0.34263 -0.501831 0.0954721 85 
0.342733 -0.501845 0.0962991 86 
0.342625 -0.501835 0.0971771 87 
0.342147 -0.501783 0.0981421 78 
0.342304 -0.501802 0.0989541 83 
0.34204 -0.501774 0.0998651 90 
0.341987 -0.50177 0.100726 88 
0.34204 -0.501778 0.101561 90 
0.342199 -0.501798 0.102371 85 
0.341884 -0.501764 0.103289 86 
0.34236 -0.50182 0.104027 81 
0.34152 -0.501727 0.105062 87 
0.34168 -0.501747 0.105869 93 
0.341421 -0.50172 0.10677 90 
0.342003 -0.501788 0.107485 91 
0.342166 -0.501808 0.108293 93 
0.342065 -0.501798 0.109157 102 
0.34144 -0.501729 0.110133 101 
0.341236 -0.501708 0.111016 99 
0.341767 -0.50177 0.111745 108 
0.341985 -0.501797 0.11254 100 
0.341834 -0.501782 0.113411 102 
0.342 -0.501802 0.114216 104 
0.341693 -0.50177 0.115117 106 
0.341597 -0.501761 0.115974 102 
0.341817 -0.501787 0.116768 101 
0.34209 -0.50182 0.117552 101 
0.341838 -0.501794 0.118438 109 
0.341744 -0.501785 0.119293 115 
0.342018 -0.501818 0.120076 123 
0.341715 -0.501785 0.120969 120 
0.341938 -0.501813 0.121763 119 
0.341375 -0.501751 0.122702 119 
0.34207 -0.501831 0.123408 114 
0.341665 -0.501787 0.124315 116 
0.341784 -0.501803 0.125127 122 
0.341486 -0.501771 0.126013 123 
0.342393 -0.501875 0.126685 130 
0.34199 -0.501832 0.127588 128 
0.341954 -0.50183 0.128426 134 
0.34171 -0.501804 0.129299 130 
0.341466 -0.501778 0.130171 132 
0.341956 -0.501835 0.130919 131 
0.34229 -0.501875 0.131695 140 
0.341786 -0.50182 0.132607 137 
0.341963 -0.501842 0.133408 138 
0.342298 -0.501882 0.134184 134 
0.34211 -0.501862 0.135043 138 
0.342237 -0.501878 0.135852 142 
0.342364 -0.501895 0.136661 142 
0.342492 -0.501911 0.13747 146 
0.342254 -0.501886 0.138334 144 
0.342383 -0.501903 0.139142 145 
0.342145 -0.501878 0.140004 146 
0.342433 -0.501912 0.140789 149 
0.342459 -0.501917 0.141612 150 
0.342485 -0.501922 0.142435 151 
0.342669 -0.501944 0.143236 146 
0.342802 -0.501961 0.144044 147 
0.343198 -0.502008 0.144817 149 
0.342492 -0.50193 0.145737 148 
0.342573 -0.501941 0.146551 154 
0.34276 -0.501964 0.147352 155 
0.342948 -0.501987 0.148153 155 
0.342979 -0.501993 0.148974 151 
0.342748 -0.501968 0.149827 153 
0.342728 -0.501968 0.150653 148 
0.343549 -0.502063 0.151379 153 
0.343214 -0.502027 0.152243 153 
0.343616 -0.502074 0.153021 159 
0.343808 -0.502098 0.153823 159 
0.343685 -0.502086 0.154661 163 
0.343879 -0.50211 0.155464 162 
0.343863 -0.50211 0.15629 166 
0.343847 -0.50211 0.157115 163 
0.343937 -0.502122 0.157929 161 
0.344133 -0.502146 0.158732 158 
0.344014 -0.502134 0.159568 162 
0.344 -0.502135 0.160392 160 
0.344251 -0.502165 0.161191 163 
0.344925 -0.502243 0.16195 161 
0.345019 -0.502256 0.162765 164 
0.344638 -0.502214 0.163624 164 
0.345314 -0.502293 0.164387 167 
0.345516 -0.502318 0.165193 168 
0.344819 -0.502241 0.166077 178 
0.345551 -0.502326 0.166839 168 
0.346073 -0.502387 0.16762 175 
0.346119 -0.502394 0.168441 176 
0.346112 -0.502395 0.169266 174 
0.346212 -0.502408 0.170083 175 
0.346418 -0.502433 0.170892 177 
0.3462 -0.502411 0.171732 172 
0.346515 -0.502448 0.172534 174 
0.346617 -0.502462 0.173352 176 
0.346827 -0.502487 0.174162 180 
0.346611 -0.502465 0.175001 179 
0.346662 -0.502472 0.175822 183 
0.346767 -0.502486 0.176639 179 
0.346926 -0.502506 0.177454 177 
0.347192 -0.502538 0.178263 175 
0.347246 -0.502546 0.179085 184 
0.348156 -0.502651 0.179861 181 
0.347622 -0.502592 0.180714 184 
0.347624 -0.502595 0.181539 184 
0.348537 -0.5027 0.182321 187 
0.348702 -0.502721 0.18314 184 
0.349189 -0.502778 0.183945 188 
0.349194 -0.50278 0.184772 187 
0.349253 -0.502789 0.185597 186 
0.349474 -0.502816 0.186416 185 
0.349858 -0.502861 0.18723 186 
0.350623 -0.50295 0.188032 186 
0.350089 -0.502891 0.188879 187 
0.350639 -0.502956 0.189691 187 
0.350919 -0.502989 0.190512 189 
0.35158 -0.503066 0.191324 185 
0.350451 -0.50294 0.192184 184 
0.350679 -0.502968 0.193008 184 
0.351396 -0.503051 0.193822 189 
0.352007 -0.503122 0.19464 188 
0.352566 -0.503188 0.195462 190 
0.352798 -0.503216 0.196291 191 
0.352648 -0.503201 0.197126 191 
0.352827 -0.503223 0.197957 191 
0.352952 -0.503239 0.198789 193 
0.353407 -0.503293 0.199618 188 
0.353698 -0.503328 0.200451 185 
0.353936 -0.503357 0.201284 179 
0.354725 -0.503448 0.202117 179 
0.354523 -0.503427 0.202954 179 
0.35515 -0.503501 0.203791 184 
0.35578 -0.503574 0.20463 185 
0.355413 -0.503534 0.205467 186 
0.355656 -0.503564 0.206307 185 
0.355901 -0.503593 0.207147 180 
0.356257 -0.503636 0.20799 180 
0.356837 -0.503704 0.208836 183 
0.356417 -0.503658 0.209671 187 
0.356553 -0.503675 0.210513 189 
0.357025 -0.503731 0.211362 190 
0.358169 -0.503863 0.212225 187 
0.358421 -0.503893 0.213074 187 
0.358674 -0.503924 0.213924 187 
0.358759 -0.503936 0.214771 183 
0.35907 -0.503973 0.215624 185 
0.359946 -0.504074 0.216495 184 
0.359808 -0.504061 0.217337 184 
0.35967 -0.504047 0.21818 178 
0.360098 -0.504098 0.219041 176 
0.359567 -0.504039 0.21987 179 
0.360109 -0.504103 0.220737 170 
0.359692 -0.504057 0.221568 169 
0.360236 -0.504121 0.222438 162 
0.36135 -0.50425 0.223335 161 
0.361671 -0.504288 0.224201 161 
0.361084 -0.504223 0.225024 167 
0.361691 -0.504294 0.225904 165 
0.361673 -0.504294 0.226755 174 
0.361998 -0.504333 0.227624 176 
0.361925 -0.504327 0.228472 177 
0.362023 -0.50434 0.22933 173 
0.362122 -0.504353 0.230189 170 
0.362565 -0.504405 0.231069 174 
0.363009 -0.504458 0.231951 177 
0.363456 -0.50451 0.232835 181 
0.363616 -0.504531 0.233701 179 
0.363489 -0.504518 0.234549 181 
0.363019 -0.504467 0.235373 181 
0.362837 -0.504448 0.236216 183 
0.362885 -0.504455 0.237075 181 
0.362877 -0.504456 0.237931 180 
0.362239 -0.504386 0.238737 183 
0.362518 -0.504419 0.239615 179 
0.361996 -0.504362 0.240428 179 
0.362105 -0.504376 0.241293 184 
0.362214 -0.50439 0.242158 190 
0.362495 -0.504425 0.243038 196 
0.362377 -0.504413 0.243884 195 
0.362259 -0.504402 0.244731 197 
0.362199 -0.504397 0.245582 196 
0.36214 -0.504392 0.246433 196 
0.361568 -0.504329 0.247235 196 
0.361853 -0.504363 0.24812 196 
0.361568 -0.504332 0.248948 198 
0.361511 -0.504328 0.249799 198 
0.361 -0.504272 0.250603 196 
0.36032 -0.504196 0.251388 194 
0.359473 -0.504102 0.252152 196 
0.359873 -0.504149 0.25305 200 
0.358746 -0.504023 0.25378 200 
0.358413 -0.503987 0.254595 204 
0.357968 -0.503938 0.255397 204 
0.357805 -0.503921 0.256231 205 
0.357531 -0.503892 0.25705 203 
0.357594 -0.503901 0.25791 202 
0.355813 -0.5037 0.258545 199 
0.355432 -0.503659 0.259347 204 
0.355107 -0.503624 0.260155 200 
0.355005 -0.503614 0.260991 201 
0.35557 -0.50368 0.261913 201 
0.354859 -0.503601 0.26267 202 
0.354482 -0.50356 0.263469 200 
0.354327 -0.503544 0.264297 201 
0.354063 -0.503516 0.26511 198 
0.353082 -0.503406 0.265822 195 
0.351778 -0.50326 0.266485 193 
0.351682 -0.503251 0.267317 194 
0.351641 -0.503248 0.268157 197 
0.351 -0.503177 0.268908 194 
0.350416 -0.503112 0.269666 192 
0.35054 -0.503128 0.270529 195 
0.349415 -0.503002 0.271203 193 
0.349053 -0.502962 0.27199 196 
0.348908 -0.502948 0.27281 198 
0.349034 -0.502964 0.273673 195 
0.348134 -0.502863 0.274372 197 
