0.401195,-0.18855,0.12457,188
0.401282,-0.188607,0.125461,185
0.401505,-0.188749,0.1264,184
0.401593,-0.188807,0.127295,187
0.401546,-0.18878,0.128144,189
0.40168,-0.188867,0.129056,187
0.401725,-0.188897,0.129938,189
0.40177,-0.188928,0.130822,188
0.401995,-0.189072,0.13177,189
0.401951,-0.189046,0.132624,190
0.402042,-0.189106,0.133527,188
0.402586,-0.189451,0.134595,182
0.402543,-0.189426,0.135452,183
0.402772,-0.189572,0.13641,180
0.402956,-0.189691,0.137353,180
0.404053,-0.190383,0.138638,179
0.403874,-0.190273,0.13945,178
0.403741,-0.190191,0.140279,177
0.404112,-0.190427,0.1413,180
0.404346,-0.190576,0.142271,176
0.40481,-0.190871,0.143332,183
0.405184,-0.191108,0.144361,181
0.405098,-0.191057,0.145214,180
0.405428,-0.191267,0.14623,181
0.405805,-0.191506,0.147267,180
0.405998,-0.19163,0.148233,171
0.405913,-0.191579,0.149091,173
0.406107,-0.191703,0.15006,170
0.406441,-0.191916,0.151088,173
0.407009,-0.192276,0.152213,172
0.406833,-0.192167,0.153038,175
0.407029,-0.192293,0.154016,171
0.407367,-0.192508,0.155053,171
0.408081,-0.19296,0.15625,169
0.408657,-0.193325,0.157393,172
0.408811,-0.193424,0.158362,169
0.408682,-0.193345,0.159213,167
0.409026,-0.193564,0.160265,164
0.409276,-0.193724,0.16128,167
0.40929,-0.193735,0.162195,168
0.409257,-0.193717,0.163091,172
0.409604,-0.193937,0.164153,165
0.409856,-0.194099,0.165176,172
0.410015,-0.194201,0.166159,170
0.409936,-0.194154,0.167039,168
0.410143,-0.194286,0.168047,161
0.410398,-0.194449,0.169078,164
0.410463,-0.194493,0.170026,163
0.410528,-0.194536,0.170975,170
0.410786,-0.194701,0.172012,165
0.410852,-0.194745,0.172964,166
0.411255,-0.195001,0.174072,160
0.411515,-0.195167,0.175117,172
0.411438,-0.195121,0.176008,161
0.410978,-0.194834,0.17672,161
0.411479,-0.195152,0.177882,154
0.411404,-0.195107,0.178775,152
0.411521,-0.195184,0.179761,144
0.411543,-0.1952,0.180702,144
0.411324,-0.195064,0.181529,145
0.411491,-0.195172,0.182541,143
0.41161,-0.195249,0.183532,139
0.41144,-0.195145,0.184384,139
0.411271,-0.195041,0.185236,137
0.410861,-0.194785,0.185971,135
0.410692,-0.194681,0.186823,134
0.410812,-0.19476,0.187819,134
0.411126,-0.19496,0.188912,134
0.410958,-0.194856,0.189767,149
0.411321,-0.195087,0.190888,147
0.410719,-0.194711,0.191526,140
0.41089,-0.194821,0.192553,128
0.410049,-0.194294,0.193066,136
0.410653,-0.194677,0.194316,134
0.409717,-0.19409,0.194778,138
0.409936,-0.19423,0.195833,129
0.410541,-0.194614,0.197091,135
0.409702,-0.194088,0.197599,137
0.409489,-0.193957,0.198432,144
0.409373,-0.193886,0.199316,142
0.409065,-0.193695,0.200099,135
0.409189,-0.193776,0.201111,145
0.408356,-0.193253,0.201613,145
0.393596,-0.186907,-0.206088,8
0.39449,-0.18748,-0.205674,11
0.3953,-0.187998,-0.20521,7
0.395709,-0.188262,-0.204519,6
0.396074,-0.188497,-0.203803,10
0.395053,-0.187848,-0.202321,11
0.397167,-0.189199,-0.202568,8
0.394357,-0.187409,-0.200112,7
0.394765,-0.187672,-0.199423,9
0.395085,-0.187878,-0.198685,10
0.396389,-0.188712,-0.198477,7
0.398289,-0.189927,-0.198584,9
0.39789,-0.189675,-0.197453,9
0.397403,-0.189367,-0.196278,12
0.397187,-0.189231,-0.19525,12
0.399321,-0.190595,-0.195463,12
0.397566,-0.189478,-0.193626,13
0.398117,-0.189832,-0.193003,12
0.39994,-0.190997,-0.193039,11
0.398092,-0.189821,-0.191167,12
0.398735,-0.190233,-0.190588,12
0.401296,-0.191869,-0.19099,12
0.398756,-0.190252,-0.188779,13
0.40063,-0.191449,-0.188821,11
0.399549,-0.190762,-0.187363,17
0.400288,-0.191236,-0.186825,16
0.400254,-0.191217,-0.185898,18
0.40159,-0.192071,-0.185654,15
0.401602,-0.192081,-0.184748,15
0.400837,-0.191596,-0.18346,15
0.401032,-0.191723,-0.182648,17
0.401319,-0.191908,-0.18188,15
0.404095,-0.193681,-0.182321,17
0.40217,-0.192456,-0.180477,17
0.403334,-0.193201,-0.180129,15
0.40284,-0.192888,-0.178983,14
0.403361,-0.193223,-0.178323,20
0.40393,-0.193588,-0.177684,17
0.403528,-0.193334,-0.176586,19
0.403128,-0.193081,-0.175491,19
0.40504,-0.194303,-0.175477,22
0.403388,-0.193252,-0.173802,20
0.405116,-0.194357,-0.173695,21
0.404621,-0.194044,-0.17256,21
0.404591,-0.194027,-0.17164,23
0.404839,-0.194187,-0.170848,23
0.405412,-0.194556,-0.170202,23
0.406128,-0.195014,-0.169619,24
0.405958,-0.194908,-0.168637,28
0.406863,-0.195488,-0.168134,27
0.407677,-0.19601,-0.167588,26
0.40671,-0.195396,-0.166255,24
0.407243,-0.195738,-0.165584,24
0.408154,-0.196322,-0.165075,28
0.407421,-0.195856,-0.163851,31
0.409182,-0.196982,-0.163706,28
0.409201,-0.196997,-0.162806,31
0.408795,-0.19674,-0.161727,31
0.409239,-0.197026,-0.16101,36
0.410017,-0.197525,-0.160433,32
0.410275,-0.197692,-0.159634,37
0.409963,-0.197495,-0.158598,31
0.410078,-0.197571,-0.157742,34
0.410147,-0.197617,-0.156866,31
0.410881,-0.198088,-0.156263,35
0.411236,-0.198317,-0.155503,37
0.411258,-0.198334,-0.154607,43
0.411519,-0.198502,-0.153808,36
0.412019,-0.198824,-0.153104,40
0.412473,-0.199116,-0.15238,40
0.41264,-0.199225,-0.151542,42
0.413626,-0.199857,-0.151025,48
0.412832,-0.199352,-0.149809,45
0.413096,-0.199523,-0.149008,43
0.413121,-0.199541,-0.148114,43
0.412905,-0.199406,-0.147129,46
0.413652,-0.199885,-0.146513,53
0.41334,-0.199689,-0.145492,45
0.414282,-0.200292,-0.144946,47
0.413826,-0.200004,-0.143873,43
0.413853,-0.200023,-0.142982,50
0.414121,-0.200196,-0.142181,46
0.413859,-0.200032,-0.141186,47
0.414031,-0.200144,-0.14035,48
0.413963,-0.200103,-0.139427,53
0.414088,-0.200185,-0.138574,56
0.414503,-0.200452,-0.137826,55
0.414774,-0.200628,-0.137025,55
0.4149,-0.200711,-0.136172,60
0.414111,-0.200209,-0.134998,56
0.414141,-0.200231,-0.134115,59
0.414124,-0.200223,-0.133215,58
0.4143,-0.200337,-0.132382,61
0.413515,-0.199839,-0.131222,61
0.41374,-0.199984,-0.130407,63
0.413485,-0.199824,-0.129431,60
0.413374,-0.199756,-0.128505,63
0.413599,-0.199902,-0.127692,65
0.412821,-0.199408,-0.126547,73
0.413142,-0.199615,-0.125767,66
0.411892,-0.198819,-0.124475,70
0.411595,-0.198632,-0.123497,66
0.411347,-0.198476,-0.122537,69
0.411431,-0.198532,-0.121684,64
0.409632,-0.197387,-0.120237,73
0.409202,-0.197114,-0.119227,74
0.4084,-0.196605,-0.118105,80
0.40765,-0.196128,-0.117003,76
0.406718,-0.195536,-0.11585,77
0.406343,-0.195299,-0.11487,76
0.405878,-0.195004,-0.113866,84
0.405231,-0.194593,-0.11281,83
0.404815,-0.19433,-0.111826,91
0.404219,-0.193952,-0.110791,88
0.403807,-0.193691,-0.109814,94
0.403441,-0.19346,-0.108852,93
0.402761,-0.193028,-0.107803,95
0.402623,-0.192943,-0.106912,93
0.402172,-0.192657,-0.105933,95
0.401767,-0.1924,-0.10497,96
0.40114,-0.192003,-0.103947,103
0.400872,-0.191834,-0.103027,97
0.400828,-0.191807,-0.10217,108
0.400206,-0.191413,-0.101157,102
0.399632,-0.191048,-0.10016,102
0.399236,-0.190798,-0.0992139,97
0.398095,-0.190072,-0.0980725,105
0.397573,-0.189741,-0.0970994,111
0.397401,-0.189634,-0.0962206,114
0.396839,-0.189277,-0.0952421,112
0.396756,-0.189226,-0.0943894,116
0.396196,-0.188871,-0.0934167,111
0.395596,-0.18849,-0.0924368,118
0.395774,-0.188606,-0.0916541,120
0.395262,-0.188281,-0.0907006,131
0.395311,-0.188315,-0.0898873,126
0.394974,-0.188101,-0.0889805,127
0.394338,-0.187697,-0.0880039,127
0.394645,-0.187896,-0.0872552,123
0.394653,-0.187903,-0.086435,124
0.394832,-0.18802,-0.0856554,125
0.394541,-0.187836,-0.0847664,127
0.394764,-0.187981,-0.0839971,128
0.39426,-0.187661,-0.0830623,123
0.394655,-0.187916,-0.082332,126
0.394623,-0.187897,-0.0815054,126
0.39442,-0.18777,-0.0806418,132
0.394773,-0.187998,-0.0799009,134
0.394443,-0.187789,-0.0790112,137
0.3939,-0.187444,-0.0780783,135
0.394083,-0.187563,-0.0773014,134
0.394309,-0.18771,-0.0765331,125
0.394878,-0.188076,-0.075835,139
0.394721,-0.187977,-0.0749863,133
0.394992,-0.188152,-0.0742254,144
0.395092,-0.188219,-0.0734294,143
0.395193,-0.188285,-0.0726336,145
0.395251,-0.188325,-0.0718293,139
0.395696,-0.188611,-0.0711,143
0.395198,-0.188295,-0.0701888,143
0.395472,-0.188472,-0.069426,147
0.395703,-0.188622,-0.0686545,146
0.395678,-0.188608,-0.067835,151
0.39561,-0.188567,-0.0670082,148
0.396188,-0.188938,-0.066298,155
0.39625,-0.18898,-0.0654942,152
0.396226,-0.188967,-0.0646754,156
0.396375,-0.189064,-0.0638869,151
0.396223,-0.188969,-0.0630467,152
0.396459,-0.189122,-0.062273,153
0.39661,-0.189221,-0.0614843,162
0.396631,-0.189237,-0.0606741,162
0.39661,-0.189225,-0.0598572,165
0.396676,-0.189269,-0.0590546,162
0.396613,-0.189231,-0.0582318,160
0.396722,-0.189303,-0.0574363,159
0.396832,-0.189376,-0.0566408,164
0.396986,-0.189476,-0.0558517,163
0.39779,-0.189992,-0.0551588,169
0.397859,-0.190038,-0.054355,167
0.397971,-0.190112,-0.0535576,173
0.398084,-0.190186,-0.0527599,171
0.398154,-0.190233,-0.0519561,173
0.398051,-0.19017,-0.0511284,170
0.39834,-0.190356,-0.0503545,171
0.398498,-0.19046,-0.0495622,168
0.398657,-0.190563,-0.0487696,173
0.400129,-0.191505,-0.0481455,176
0.399633,-0.191191,-0.0472662,179
0.399619,-0.191184,-0.0464493,175
0.400351,-0.191654,-0.0457238,178
0.399681,-0.191228,-0.0448272,177
0.399931,-0.19139,-0.0440421,176
0.400183,-0.191553,-0.0432563,176
0.400479,-0.191744,-0.0424746,182
0.4006,-0.191824,-0.0416725,181
0.400282,-0.191623,-0.0408222,180
0.400404,-0.191703,-0.0400205,177
0.400658,-0.191868,-0.0392323,181
0.400869,-0.192005,-0.0384387,181
0.401125,-0.19217,-0.0376489,184
0.401735,-0.192562,-0.0368929,182
0.402258,-0.192899,-0.0361261,181
0.402384,-0.192982,-0.03532,183
0.402511,-0.193065,-0.0345136,188
0.402594,-0.19312,-0.0337029,187
0.402499,-0.193062,-0.0328766,188
0.402672,-0.193174,-0.0320736,185
0.403023,-0.193401,-0.0312847,194
0.403063,-0.193429,-0.0304694,195
0.403149,-0.193485,-0.0296577,194
0.40328,-0.193571,-0.0288491,197
0.403634,-0.193799,-0.0280566,195
0.404168,-0.194143,-0.0272756,193
0.404122,-0.194116,-0.0264522,194
0.404524,-0.194375,-0.0256591,192
0.405152,-0.194778,-0.0248791,194
0.405197,-0.194809,-0.0240599,195
0.405422,-0.194956,-0.0232516,196
0.405378,-0.19493,-0.0224267,195
0.405605,-0.195077,-0.0216173,198
0.405743,-0.195167,-0.0208021,195
0.405835,-0.195228,-0.0199842,197
0.405838,-0.195232,-0.0191615,198
0.406566,-0.195699,-0.0183732,198
0.406615,-0.195733,-0.0175512,198
0.406756,-0.195825,-0.0167329,198
0.407671,-0.196412,-0.0159457,196
0.407722,-0.196447,-0.0151212,201
0.407819,-0.196512,-0.0142983,199
0.408009,-0.196635,-0.0134781,199
0.408107,-0.1967,-0.0126543,201
0.408252,-0.196795,-0.0118315,201
0.408444,-0.19692,-0.0110094,201
0.408865,-0.197191,-0.0101923,202
0.408829,-0.19717,-0.00936286,202
0.409252,-0.197443,-0.00854321,205
0.409355,-0.197511,-0.00771573,203
0.410427,-0.198198,-0.00690387,203
0.410346,-0.198149,-0.00607078,202
0.410266,-0.1981,-0.00523808,201
0.41051,-0.198258,-0.00440898,204
0.410802,-0.198446,-0.00357918,207
0.410677,-0.198369,-0.00274579,206
0.410737,-0.19841,-0.00191358,203
0.411124,-0.198659,-0.00108148,204
0.411604,-0.198968,-0.000247574,204
0.411853,-0.19913,0.000587705,200
0.412758,-0.19971,0.00142765,203
0.412355,-0.199455,0.00226163,200
0.413075,-0.199917,0.00310489,205
0.413,-0.199872,0.00394179,205
0.413066,-0.199916,0.0047804,204
0.413086,-0.199931,0.00561859,202
0.413153,-0.199976,0.0064578,199
0.413503,-0.200202,0.00730323,197
0.41409,-0.20058,0.0081557,201
0.414869,-0.20108,0.00901565,199
0.414419,-0.200794,0.00984542,197
0.414773,-0.201023,0.0106971,198
0.413806,-0.200407,0.0115084,199
0.413783,-0.200395,0.0123476,198
0.414233,-0.200684,0.0132039,202
0.413787,-0.200401,0.0140279,202
0.4149,-0.201115,0.0149133,206
0.414453,-0.200832,0.0157369,203
0.414575,-0.200912,0.0165843,207
0.415172,-0.201296,0.0174547,205
0.415629,-0.20159,0.018321,205
0.41542,-0.201459,0.0191551,203
0.415593,-0.201572,0.0200088,205
0.415624,-0.201594,0.0208555,205
0.415417,-0.201464,0.0216887,204
0.415211,-0.201335,0.0225212,201
0.415386,-0.201449,0.0233767,205
0.415419,-0.201472,0.0242239,203
0.415357,-0.201435,0.0250651,205
0.415344,-0.201428,0.0259095,203
0.415473,-0.201514,0.0267643,205
0.415223,-0.201356,0.0275918,204
0.415402,-0.201472,0.0284509,206
0.415581,-0.201589,0.029311,209
0.41481,-0.201098,0.0300958,207
0.414658,-0.201003,0.0309285,206
0.413562,-0.200305,0.0316807,205
0.4136,-0.200331,0.0325269,207
0.413074,-0.199997,0.0333231,207
0.412972,-0.199935,0.034156,204
0.412964,-0.199932,0.0349974,204
0.412676,-0.19975,0.0358122,207
0.412811,-0.199838,0.0366673,212
0.412711,-0.199777,0.0374997,213
0.412612,-0.199716,0.0383321,216
0.41088,-0.198611,0.0389935,215
0.410597,-0.198432,0.0398022,215
0.410269,-0.198224,0.0406049,215
0.410081,-0.198106,0.041422,218
0.409939,-0.198018,0.0422438,218
0.409798,-0.19793,0.0430653,221
0.408644,-0.197194,0.0437672,217
0.407909,-0.196727,0.0445144,218
0.407452,-0.196436,0.0452926,219
0.407086,-0.196205,0.0460805,217
0.406631,-0.195916,0.0468557,217
0.404912,-0.194819,0.0474662,218
0.404733,-0.194706,0.0482713,222
0.404509,-0.194566,0.04907,223
0.404331,-0.194454,0.0498741,224
0.404424,-0.194516,0.050715,225
0.404382,-0.194491,0.0515378,226
0.404251,-0.194409,0.052348,226
0.404075,-0.194299,0.0531516,226
0.403452,-0.193903,0.0538891,224
0.401986,-0.192967,0.0544987,225
0.401813,-0.192859,0.0552975,227
0.401553,-0.192695,0.0560823,226
0.401426,-0.192616,0.0568871,224
0.401344,-0.192566,0.0576988,226
0.401351,-0.192573,0.0585246,225
0.401226,-0.192495,0.0593294,225
0.40119,-0.192474,0.0601486,227
0.399656,-0.191495,0.0607185,223
0.39892,-0.191026,0.0614167,221
0.398841,-0.190978,0.0622243,221
0.398501,-0.190763,0.0629867,219
0.398555,-0.190799,0.063817,219
0.398391,-0.190697,0.0646092,218
0.396665,-0.189595,0.0651201,216
0.398195,-0.190576,0.0662167,216
0.397554,-0.190168,0.0669202,214
0.396483,-0.189485,0.067541,214
0.396279,-0.189357,0.0683213,211
0.395818,-0.189064,0.0690517,206
0.395874,-0.189102,0.0698805,208
0.396059,-0.189223,0.0707354,205
0.396203,-0.189317,0.0715832,205
0.395872,-0.189108,0.0723371,205
0.395542,-0.188899,0.0730902,204
0.395687,-0.188993,0.0739392,203
0.395831,-0.189088,0.0747894,202
0.395891,-0.189128,0.0756227,199
0.395692,-0.189003,0.0764022,198
0.39545,-0.188851,0.0771722,193
0.395683,-0.189002,0.0780439,194
0.39583,-0.189098,0.0788984,195
0.395719,-0.18903,0.0796971,199
0.395738,-0.189044,0.0805247,198
0.395671,-0.189003,0.0813335,200
0.39569,-0.189018,0.0821622,194
0.395667,-0.189005,0.0829817,196
0.39586,-0.189131,0.0838516,196
0.395924,-0.189174,0.0846927,199
0.396032,-0.189245,0.0855449,197
0.395838,-0.189123,0.086326,196
0.395644,-0.189002,0.0871069,193
0.395667,-0.189018,0.0879399,192
0.395776,-0.18909,0.0887949,195
0.395843,-0.189135,0.0896403,195
0.395867,-0.189153,0.0904758,199
0.395978,-0.189226,0.0913339,197
0.396046,-0.189272,0.0921821,194
0.395942,-0.189207,0.0929867,195
0.396054,-0.189281,0.0938477,198
0.39634,-0.189467,0.0947551,198
0.396541,-0.189597,0.0956417,197
0.396481,-0.189561,0.0964606,194
0.396857,-0.189804,0.0973965,195
0.396319,-0.189462,0.0980878,189
0.396304,-0.189455,0.0989196,187
0.396551,-0.189615,0.0998237,188
0.396972,-0.189887,0.100778,189
0.397133,-0.189992,0.101662,192
0.39664,-0.189679,0.102363,193
0.39667,-0.189701,0.103211,197
0.396963,-0.18989,0.104135,196
0.396951,-0.189885,0.104973,195
0.396983,-0.189907,0.105824,194
0.396928,-0.189874,0.106651,194
0.397398,-0.190178,0.107633,192
0.397213,-0.190061,0.108422,194
0.397159,-0.190029,0.109251,195
0.397193,-0.190053,0.110107,193
0.39815,-0.190668,0.111244,187
0.397657,-0.190355,0.111942,188
0.398045,-0.190605,0.11291,185
0.397993,-0.190574,0.113744,186
0.398514,-0.19091,0.114758,186
0.398331,-0.190795,0.115552,188
0.398943,-0.191189,0.116599,184
0.398937,-0.191187,0.117452,187
0.398887,-0.191157,0.11829,183
0.399236,-0.191383,0.11926,185
0.399631,-0.191639,0.120246,185
0.399582,-0.19161,0.121089,189
0.399756,-0.191723,0.122006,188
0.399619,-0.191638,0.12282,191
0.39966,-0.191666,0.123694,188
0.39988,-0.19181,0.12463,186
0.400146,-0.191982,0.125584,186
0.400323,-0.192097,0.126508,188
0.400411,-0.192156,0.127403,189
0.400544,-0.192244,0.128316,187
0.400857,-0.192446,0.129292,186
0.400812,-0.19242,0.130145,182
0.400992,-0.192537,0.131077,186
0.401262,-0.192713,0.132044,185
0.401624,-0.192947,0.133046,189
0.401355,-0.192777,0.133821,185
0.401763,-0.19304,0.134843,182
0.401675,-0.192986,0.135685,184
0.40272,-0.193658,0.136946,179
0.402906,-0.193779,0.137893,182
0.402636,-0.193609,0.138672,176
0.403004,-0.193847,0.13969,179
0.403328,-0.194056,0.140694,181
0.403516,-0.194179,0.141648,185
0.403659,-0.194273,0.142586,184
0.403802,-0.194367,0.143527,182
0.404037,-0.19452,0.144504,178
0.404182,-0.194614,0.145448,181
0.404097,-0.194562,0.146302,179
0.404426,-0.194776,0.147322,181
0.404849,-0.195049,0.14838,175
0.40495,-0.195116,0.149313,174
0.405421,-0.19542,0.150396,174
0.405616,-0.195547,0.15137,174
0.406044,-0.195823,0.15244,166
0.405682,-0.195594,0.15319,170
0.405925,-0.195752,0.154188,165
0.406215,-0.19594,0.155208,168
0.406833,-0.196338,0.156367,171
0.406892,-0.196378,0.157295,173
0.407608,-0.196839,0.158501,169
0.407339,-0.196669,0.159293,166
0.407681,-0.196891,0.160346,166
0.407648,-0.196872,0.16124,174
0.408038,-0.197125,0.162318,161
0.408053,-0.197136,0.163235,172
0.408682,-0.197542,0.164421,171
0.40865,-0.197524,0.165321,172
0.408714,-0.197567,0.166264,168
0.409014,-0.197762,0.167313,172
0.409126,-0.197836,0.16828,164
0.409095,-0.197819,0.169185,162
0.409398,-0.198015,0.17024,159
0.409464,-0.198059,0.171191,155
0.409434,-0.198043,0.172099,153
0.409501,-0.198088,0.173052,161
0.409758,-0.198255,0.174094,157
0.409778,-0.19827,0.175028,159
0.409941,-0.198377,0.17603,152
0.409865,-0.198331,0.176922,152
0.410221,-0.198562,0.178017,146
0.410194,-0.198547,0.178934,142
0.410408,-0.198686,0.179966,137
0.409806,-0.198303,0.18061,146
0.409827,-0.19832,0.181552,136
0.409706,-0.198244,0.182425,134
0.40992,-0.198384,0.183462,132
0.409751,-0.198278,0.184314,140
0.40963,-0.198203,0.185189,142
0.409846,-0.198344,0.186231,147
0.409966,-0.198423,0.187227,143
0.40975,-0.198287,0.188057,144
0.409678,-0.198244,0.18896,148
0.409079,-0.197863,0.189598,154
0.409296,-0.198004,0.190646,142
0.409417,-0.198084,0.191647,143
0.409155,-0.197919,0.192455,146
0.409661,-0.198246,0.193656,151
0.409977,-0.19845,0.194762,147
0.409426,-0.1981,0.195422,147
0.408254,-0.197352,0.195758,141
0.408138,-0.19728,0.196641,146
0.408021,-0.197208,0.197523,143
0.407953,-0.197167,0.198432,145
0.407313,-0.196759,0.199038,154
0.407102,-0.196627,0.19987,146
0.407178,-0.196678,0.200856,145
0.406635,-0.196333,0.20151,136
0.393932,-0.191171,-0.207118,7
0.393538,-0.190918,-0.205975,11
0.392835,-0.190464,-0.204661,9
0.394708,-0.191682,-0.204794,8
0.394492,-0.191544,-0.203754,9
0.394543,-0.19158,-0.202864,11
0.395086,-0.191935,-0.202246,9
0.395362,-0.192116,-0.20148,12
0.396222,-0.192676,-0.201033,13
0.393996,-0.191235,-0.198902,13
0.398315,-0.194039,-0.200332,11
0.394947,-0.191857,-0.197592,10
0.396119,-0.192619,-0.197308,11
0.395724,-0.192366,-0.196182,10
0.395197,-0.192026,-0.194989,10
0.396415,-0.192819,-0.194723,10
0.397009,-0.193206,-0.194123,12
0.397063,-0.193244,-0.193239,11
0.398201,-0.193985,-0.192921,11
0.399392,-0.19476,-0.192625,10
0.398402,-0.194121,-0.191196,12
0.397284,-0.193397,-0.189706,11
0.397475,-0.193524,-0.188895,10
0.398389,-0.194119,-0.188451,12
0.398762,-0.194364,-0.18773,15
0.398095,-0.193933,-0.186482,15
0.400515,-0.195506,-0.18679,14
0.398887,-0.194453,-0.185063,14
0.399853,-0.195082,-0.184635,18
0.399502,-0.194856,-0.18355,13
0.400653,-0.195606,-0.18321,15
0.400301,-0.195379,-0.182126,15
0.401228,-0.195983,-0.18167,17
0.400418,-0.19546,-0.180366,16
0.401208,-0.195976,-0.179841,19
0.401726,-0.196314,-0.179181,18
0.401098,-0.195909,-0.177972,15
0.401249,-0.19601,-0.177138,19
0.402411,-0.196766,-0.176781,21
0.403487,-0.197467,-0.17638,18
0.402624,-0.196909,-0.175066,17
0.402501,-0.196832,-0.174101,15
0.40247,-0.196814,-0.173181,21
0.403315,-0.197365,-0.172666,22
0.40347,-0.197468,-0.171831,25
0.403439,-0.197451,-0.170911,23
0.404289,-0.198004,-0.170392,26
0.404723,-0.198288,-0.169682,24
0.405251,-0.198634,-0.169013,30
0.405501,-0.198798,-0.168217,28
0.406125,-0.199206,-0.167588,28
0.406377,-0.199372,-0.166792,27
0.405927,-0.199082,-0.165686,25
0.40721,-0.199917,-0.165342,27
0.406946,-0.199748,-0.164319,31
0.407246,-0.199946,-0.163543,31
0.40816,-0.200541,-0.16303,38
0.408604,-0.200832,-0.162312,29
0.407868,-0.200357,-0.161091,30
0.408832,-0.200985,-0.160593,32
0.410277,-0.201925,-0.160294,36
0.409345,-0.201323,-0.158994,34
0.409176,-0.201216,-0.158017,36
0.410004,-0.201755,-0.157454,35
0.409692,-0.201555,-0.156419,37
0.410046,-0.201788,-0.155658,36
0.410163,-0.201866,-0.1548,39
0.410518,-0.202099,-0.154039,40
0.411639,-0.202829,-0.153584,34
0.411422,-0.202691,-0.15259,43
0.411111,-0.202491,-0.151561,41
0.411516,-0.202757,-0.150817,37
0.411732,-0.202899,-0.149996,41
0.410943,-0.20239,-0.148785,44
0.411828,-0.202966,-0.148226,43
0.412764,-0.203577,-0.147683,42
0.412453,-0.203377,-0.146659,45
0.412911,-0.203677,-0.145931,41
0.413081,-0.20379,-0.145091,44
0.413541,-0.204091,-0.144361,48
0.41323,-0.203891,-0.143341,48
0.413546,-0.204099,-0.142556,46
0.412995,-0.203744,-0.141451,53
0.413167,-0.203858,-0.140614,50
0.413773,-0.204254,-0.139934,50
0.413609,-0.204149,-0.138974,46
0.413637,-0.20417,-0.138085,48
0.413618,-0.20416,-0.137179,46
0.414034,-0.204432,-0.136428,53
0.413005,-0.203767,-0.135167,49
0.413708,-0.204226,-0.134518,52
0.414076,-0.204467,-0.133749,55
0.41353,-0.204115,-0.132664,60
0.412937,-0.203732,-0.131566,58
0.413161,-0.20388,-0.13075,59
0.413145,-0.203873,-0.129852,61
0.413035,-0.203803,-0.128923,63
0.41326,-0.203952,-0.128107,63
0.41315,-0.203882,-0.12718,64
0.412371,-0.203379,-0.126033,62
0.41231,-0.203342,-0.125126,65
0.412059,-0.203181,-0.124158,62
0.411477,-0.202806,-0.123085,68
0.41033,-0.202063,-0.121835,68
0.409754,-0.201692,-0.120772,73
0.409181,-0.201322,-0.119713,69
0.408283,-0.200741,-0.118556,74
0.407252,-0.200074,-0.117362,65
0.406181,-0.199381,-0.116161,66
0.406081,-0.199318,-0.115263,72
0.405753,-0.199107,-0.114296,78
0.405104,-0.198688,-0.113235,80
0.404869,-0.198538,-0.112302,85
0.403498,-0.19765,-0.111033,89
0.402769,-0.197179,-0.10996,93
0.402539,-0.197032,-0.109036,98
0.40213,-0.196769,-0.108063,99
0.401768,-0.196535,-0.107105,99
0.401541,-0.19639,-0.106188,108
0.401002,-0.196042,-0.105184,105
0.400821,-0.195928,-0.104284,109
0.400464,-0.195697,-0.103336,99
0.399974,-0.195382,-0.102354,99
0.39953,-0.195096,-0.101387,99
0.398823,-0.194639,-0.100351,106
0.398428,-0.194384,-0.0994029,105
0.398078,-0.194159,-0.0984691,110
0.397816,-0.193991,-0.0975609,114
0.397119,-0.193541,-0.0965401,111
0.396773,-0.193318,-0.0956143,111
0.396167,-0.192927,-0.0946237,121
0.396128,-0.192904,-0.0937809,118
0.395396,-0.19243,-0.0927636,123
0.394969,-0.192155,-0.0918267,117
0.394888,-0.192105,-0.0909781,122
0.394464,-0.191832,-0.0900457,120
0.394384,-0.191782,-0.0891999,116
0.394176,-0.191649,-0.0883239,118
0.393926,-0.191489,-0.0874393,121
0.393592,-0.191274,-0.0865362,121
0.3936,-0.191282,-0.0857155,120
0.393566,-0.191262,-0.0848854,115
0.393575,-0.19127,-0.0840659,122
0.393285,-0.191084,-0.0831787,121
0.393722,-0.19137,-0.0824572,119
0.393604,-0.191295,-0.0816102,108
0.393657,-0.191332,-0.0808021,110
0.393711,-0.191369,-0.0799943,107
0.393851,-0.191462,-0.0792052,110
0.393863,-0.191472,-0.0783886,114
0.39379,-0.191427,-0.0775542,121
0.393717,-0.191382,-0.0767208,113
0.393858,-0.191476,-0.0759325,127
0.394128,-0.191654,-0.0751704,128
0.394099,-0.191637,-0.0743468,135
0.394499,-0.191899,-0.0736098,137
0.394172,-0.191688,-0.0727269,141
0.394187,-0.191701,-0.0719132,141
0.394074,-0.19163,-0.0710751,143
0.39439,-0.191837,-0.0703199,143
0.394706,-0.192045,-0.0695639,147
0.394509,-0.191919,-0.0687106,151
0.394827,-0.192127,-0.0679539,156
0.39493,-0.192197,-0.067157,153
0.395034,-0.192267,-0.06636,154
0.394668,-0.19203,-0.0654789,154
0.394815,-0.192129,-0.0646905,158
0.395092,-0.192311,-0.0639243,156
0.395327,-0.192466,-0.0631499,156
0.395262,-0.192425,-0.0623239,156
0.395369,-0.192497,-0.0615274,160
0.395907,-0.192849,-0.0608019,160
0.395842,-0.192809,-0.0599762,163
0.396123,-0.192994,-0.0592066,161
0.396017,-0.192927,-0.0583747,164
0.396428,-0.193197,-0.0576245,166
0.396668,-0.193355,-0.0568464,165
0.396563,-0.193288,-0.0560151,167
0.396847,-0.193475,-0.0552428,173
0.396699,-0.193381,-0.0544059,176
0.396682,-0.193372,-0.0535889,174
0.396838,-0.193476,-0.052797,173
0.397124,-0.193664,-0.052023,174
0.397151,-0.193684,-0.0512122,172
0.397179,-0.193704,-0.0504016,173
0.398032,-0.19426,-0.0497017,167
0.398409,-0.194508,-0.0489355,169
0.398307,-0.194444,-0.048106,175
0.398336,-0.194465,-0.0472939,178
0.398715,-0.194714,-0.0465256,177
0.398353,-0.19448,-0.0456649,174
0.398952,-0.194872,-0.0449218,176
0.39894,-0.194866,-0.0441041,180
0.399015,-0.194917,-0.0432969,182
0.39896,-0.194884,-0.0424746,181
0.399037,-0.194936,-0.0416676,175
0.399377,-0.195159,-0.0408892,179
0.399718,-0.195383,-0.0401097,182
0.399796,-0.195436,-0.0393013,186
0.400887,-0.196147,-0.0385969,182
0.400262,-0.195743,-0.0377152,184
0.400915,-0.19617,-0.0369622,184
0.40104,-0.196253,-0.0361558,185
0.401342,-0.196452,-0.0353657,186
0.401292,-0.196421,-0.034542,187
0.401153,-0.196333,-0.0337108,182
0.401413,-0.196504,-0.0329152,183
0.401585,-0.196618,-0.0321112,183
0.401669,-0.196675,-0.0312993,188
0.401709,-0.196703,-0.0304837,190
0.401927,-0.196847,-0.029682,191
0.401924,-0.196848,-0.0288627,193
0.403034,-0.197571,-0.0281259,195
0.4033,-0.197746,-0.0273237,189
0.403656,-0.19798,-0.0265268,193
0.403745,-0.19804,-0.0257104,193
0.403834,-0.1981,-0.0248937,192
0.404013,-0.198219,-0.0240825,194
0.404058,-0.19825,-0.0232625,196
0.403925,-0.198166,-0.0224319,195
0.40415,-0.198315,-0.0216223,196
0.404467,-0.198523,-0.0208167,196
0.404514,-0.198556,-0.0199959,197
0.405329,-0.199087,-0.019213,196
0.404791,-0.19874,-0.0183625,199
0.405156,-0.198979,-0.0175552,197
0.405567,-0.199249,-0.0167485,201
0.406297,-0.199726,-0.0159531,201
0.406166,-0.199643,-0.0151212,201
0.406173,-0.199649,-0.014295,199
0.406497,-0.199863,-0.0134797,201
0.406686,-0.199988,-0.0126587,197
0.407424,-0.200469,-0.0118533,201
0.407249,-0.200358,-0.0110195,202
0.407487,-0.200515,-0.010197,205
0.407999,-0.20085,-0.00937987,206
0.408147,-0.200949,-0.00855285,209
0.408479,-0.201167,-0.00772868,208
0.40826,-0.201027,-0.00689394,205
0.408685,-0.201305,-0.00606946,201
0.408928,-0.201465,-0.00524089,201
0.408986,-0.201506,-0.00440944,201
0.409092,-0.201577,-0.0035781,205
0.409336,-0.201738,-0.00274708,205
0.409489,-0.20184,-0.00191467,207
0.409597,-0.201912,-0.00108153,204
0.41133,-0.203041,-0.000246226,205
0.4113,-0.203024,0.000591023,203
0.410294,-0.202372,0.00142284,202
0.411427,-0.203111,0.00226662,203
0.411306,-0.203034,0.00310305,200
0.411231,-0.202988,0.00393954,198
0.411297,-0.203033,0.00477774,201
0.41155,-0.2032,0.00561936,199
0.411664,-0.203276,0.00645954,201
0.411825,-0.203383,0.00730127,201
0.411846,-0.203399,0.00814054,203
0.412009,-0.203507,0.00898353,199
0.411985,-0.203494,0.00982216,200
0.411961,-0.203481,0.0106608,201
0.412125,-0.20359,0.0115054,199
0.412948,-0.204127,0.0123733,198
0.412268,-0.203687,0.0131902,201
0.412951,-0.204134,0.0140569,198
0.412273,-0.203695,0.0148711,199
0.412628,-0.203928,0.0157268,200
0.412468,-0.203826,0.0165609,202
0.412824,-0.20406,0.017419,199
0.413891,-0.204756,0.0183139,201
0.413542,-0.204531,0.0191404,202
0.414044,-0.20486,0.0200114,206
0.415024,-0.2055,0.0209116,206
0.413916,-0.204782,0.0216942,203
0.413901,-0.204774,0.0225384,204
0.413933,-0.204797,0.0233856,204
0.413871,-0.204759,0.024227,201
0.413952,-0.204814,0.0250778,205
0.413796,-0.204715,0.0259128,202
0.413925,-0.204801,0.0267676,203
0.413204,-0.204334,0.0275603,202
0.413192,-0.204329,0.0284041,198
0.412006,-0.20356,0.0291558,190
0.411574,-0.203281,0.0299633,186
0.411237,-0.203064,0.0307769,185
0.410901,-0.202848,0.0315893,183
0.410194,-0.20239,0.0323681,179
0.410511,-0.202598,0.0332355,188
0.411295,-0.203111,0.0341474,201
0.411288,-0.203109,0.0349887,210
0.411562,-0.203289,0.0358571,215
0.411275,-0.203105,0.0366719,219
0.411176,-0.203042,0.0375044,217
0.411124,-0.203011,0.0383417,215
0.410933,-0.202889,0.0391643,213
0.40972,-0.202102,0.0398766,217
0.409161,-0.201741,0.0406555,217
0.408742,-0.201471,0.0414477,220
0.408417,-0.201261,0.0422491,222
0.408553,-0.201352,0.0431028,224
0.40846,-0.201293,0.0439301,222
0.408137,-0.201085,0.0447297,222
0.406033,-0.199719,0.0453093,224
0.405987,-0.199691,0.0461373,225
0.406033,-0.199723,0.0469769,227
0.405897,-0.199637,0.0477936,229
0.405671,-0.199493,0.048598,228
0.404226,-0.198555,0.0492384,228
0.403329,-0.197973,0.0499473,228
0.403197,-0.19789,0.0507584,228
0.403066,-0.197807,0.0515693,228
0.40289,-0.197695,0.0523736,224
0.402715,-0.197583,0.0531775,225
0.402541,-0.197472,0.0539811,223
0.401166,-0.196579,0.0546046,226
0.400507,-0.196153,0.055331,226
0.400292,-0.196015,0.0561231,224
0.40021,-0.195964,0.0569354,228
0.399996,-0.195827,0.0577267,223
0.399871,-0.195748,0.0585317,225
0.399702,-0.19564,0.0593294,222
0.399007,-0.19519,0.0600397,222
0.397834,-0.194429,0.0606674,222
0.397625,-0.194295,0.0614536,225
0.397634,-0.194303,0.0622767,227
0.397382,-0.194141,0.0630548,222
0.396827,-0.193783,0.0637788,217
0.396967,-0.193876,0.0646247,216
0.396891,-0.193829,0.0654326,218
0.396859,-0.19381,0.0662485,216
0.396177,-0.193369,0.0669443,213
0.39606,-0.193294,0.0677432,212
0.394951,-0.192575,0.0683539,212
0.394878,-0.19253,0.0691588,212
0.395106,-0.19268,0.0700224,209
0.394733,-0.192439,0.0707692,209
0.394832,-0.192507,0.0716088,208
0.394718,-0.192434,0.0724061,208
0.394561,-0.192334,0.0731948,205
0.39449,-0.192291,0.0740009,202
0.394549,-0.192331,0.074834,202
0.394651,-0.192399,0.0756768,206
0.394409,-0.192245,0.0764478,205
0.394341,-0.192202,0.077255,203
0.394315,-0.192188,0.0780718,203
0.394247,-0.192145,0.0788796,203
0.394523,-0.192327,0.0797637,208
0.395058,-0.192678,0.0807075,200
0.394475,-0.1923,0.0814015,201
0.394322,-0.192203,0.0821916,198
0.394128,-0.192079,0.0829718,198
0.394062,-0.192038,0.0837816,197
0.394297,-0.192194,0.0846624,195
0.394448,-0.192294,0.0855245,201
0.394211,-0.192142,0.0862951,197
0.394362,-0.192243,0.0871589,198
0.394342,-0.192232,0.0879819,196
0.394236,-0.192165,0.0887843,190
0.394561,-0.192379,0.0896938,195
0.394714,-0.192481,0.0905623,195
0.394868,-0.192583,0.0914322,198
0.394806,-0.192545,0.0922482,198
0.394745,-0.192508,0.0930646,198
0.394814,-0.192555,0.093915,194
0.394883,-0.192602,0.0947664,194
0.394737,-0.192509,0.0955616,195
0.39485,-0.192585,0.096426,193
0.394835,-0.192577,0.0972566,192
0.395555,-0.193049,0.0982878,191
0.39515,-0.192787,0.0990144,193
0.395526,-0.193034,0.0999555,195
0.395555,-0.193055,0.100802,194
0.395325,-0.192907,0.101577,196
0.395355,-0.192929,0.102425,194
0.395646,-0.193121,0.103348,187
0.39559,-0.193087,0.104173,188
0.395795,-0.193223,0.105074,194
0.396263,-0.19353,0.106054,194
0.39586,-0.193269,0.106779,189
0.397029,-0.194033,0.10797,192
0.396975,-0.194,0.108802,191
0.397009,-0.194025,0.10966,192
0.39595,-0.193337,0.110186,191
0.396115,-0.193447,0.111083,187
0.397114,-0.1941,0.112239,186
0.397238,-0.194183,0.113128,187
0.397274,-0.194208,0.113991,189
0.397355,-0.194263,0.114869,189
0.397348,-0.194261,0.115719,186
0.397517,-0.194374,0.116627,184
0.397644,-0.194458,0.117523,184
0.397947,-0.194658,0.118477,182
0.398163,-0.194801,0.119404,182
0.39838,-0.194945,0.120334,183
0.398375,-0.194944,0.121192,187
0.398549,-0.195059,0.12211,186
0.398679,-0.195146,0.123014,188
0.398809,-0.195233,0.12392,184
0.398895,-0.195292,0.124812,188
0.399205,-0.195496,0.125783,186
0.399381,-0.195613,0.126709,187
0.399514,-0.195702,0.127621,187
0.399916,-0.195966,0.128629,190
0.400364,-0.19626,0.129656,183
0.400229,-0.196175,0.130479,184
0.40059,-0.196411,0.131479,184
0.400635,-0.196444,0.132368,187
0.400907,-0.196623,0.133339,184
0.401315,-0.196891,0.134363,185
0.401227,-0.196836,0.135207,184
0.400868,-0.196604,0.135951,184
0.40164,-0.19711,0.137115,184
0.401689,-0.197144,0.138012,183
0.401829,-0.197237,0.138945,184
0.401742,-0.197183,0.139793,184
0.40211,-0.197425,0.140815,180
0.402343,-0.197579,0.141788,183
0.402485,-0.197674,0.142727,181
0.402719,-0.197829,0.143704,180
0.402863,-0.197925,0.144647,183
0.402778,-0.197872,0.145502,182
0.403152,-0.198118,0.146538,177
0.403297,-0.198215,0.147486,178
0.403305,-0.198222,0.14838,177
0.403681,-0.19847,0.149424,173
0.404151,-0.198778,0.150508,170
0.403745,-0.198516,0.151238,170
0.404077,-0.198735,0.15227,169
0.404179,-0.198804,0.153209,167
0.404977,-0.199326,0.154438,166
0.405453,-0.199639,0.155537,167
0.405279,-0.199528,0.156367,165
0.405757,-0.199841,0.157472,166
0.405722,-0.199821,0.158362,165
0.405922,-0.199954,0.159353,168
0.406262,-0.200178,0.160406,165
0.40637,-0.200251,0.161361,165
0.406478,-0.200323,0.162318,164
0.406727,-0.200488,0.163337,167
0.406883,-0.200592,0.164318,164
0.406945,-0.200635,0.165259,165
0.406961,-0.200648,0.16618,156
0.407165,-0.200784,0.167186,155
0.407323,-0.200889,0.168174,154
0.407293,-0.200872,0.169078,150
0.40731,-0.200885,0.170004,149
0.407469,-0.200992,0.170996,147
0.407724,-0.20116,0.172034,147
0.407553,-0.201051,0.172877,157
0.407572,-0.201066,0.173808,149
0.407733,-0.201173,0.174807,144
0.407705,-0.201157,0.175719,142
0.408057,-0.201389,0.17681,142
0.40884,-0.201902,0.178108,133
0.408718,-0.201825,0.178979,136
0.408262,-0.20153,0.179692,139
0.408283,-0.201547,0.180633,133
0.407971,-0.201346,0.181414,129
0.408184,-0.201487,0.182448,129
0.408254,-0.201535,0.183415,127
0.408324,-0.201583,0.184384,136
0.408156,-0.201477,0.185236,135
0.408275,-0.201557,0.186231,138
0.407822,-0.201263,0.186942,133
0.407845,-0.201282,0.18789,145
0.407917,-0.201331,0.188864,140
0.407799,-0.201256,0.189742,142
0.407871,-0.201306,0.190719,141
0.408088,-0.20145,0.191769,143
0.408161,-0.2015,0.192749,142
0.408571,-0.201769,0.193903,148
0.407735,-0.201227,0.194415,141
0.407284,-0.200936,0.195124,143
0.407025,-0.20077,0.195932,137
0.407816,-0.201288,0.197292,140
0.40665,-0.20053,0.197624,142
0.40663,-0.20052,0.198558,146
0.406705,-0.200571,0.199544,142
0.406495,-0.200437,0.200378,136
0.405858,-0.200024,0.200983,142
0.405886,-0.200045,0.201945,143
0.392241,-0.194142,-0.207017,9
0.391629,-0.19374,-0.205749,8
0.392298,-0.194184,-0.20521,9
0.392349,-0.19422,-0.20432,8
0.392267,-0.194169,-0.203357,5
0.396883,-0.197218,-0.205014,7
0.391576,-0.193718,-0.201142,7
0.392201,-0.194133,-0.200574,9
0.39416,-0.195428,-0.200738,7
0.395376,-0.196233,-0.200486,9
0.393909,-0.195267,-0.198767,8
0.394898,-0.195923,-0.198389,11
0.393792,-0.195195,-0.196875,10
0.394781,-0.19585,-0.196494,9
0.396359,-0.196895,-0.196424,9
0.397135,-0.197409,-0.19592,10
0.395793,-0.196526,-0.19429,11
0.395623,-0.196416,-0.193286,10
0.396756,-0.197166,-0.192968,12
0.395284,-0.196198,-0.191284,12
0.395921,-0.19662,-0.190705,17
0.395797,-0.196541,-0.18973,10
0.396346,-0.196906,-0.189103,13
0.396717,-0.197153,-0.188382,14
0.397268,-0.197519,-0.187753,15
0.397415,-0.197619,-0.186916,12
0.397742,-0.197837,-0.186171,14
0.398252,-0.198176,-0.185517,18
0.397992,-0.198007,-0.184476,16
0.399366,-0.198916,-0.184251,12
0.399925,-0.199288,-0.183616,12
0.400211,-0.19948,-0.182845,15
0.399858,-0.199249,-0.181759,21
0.400557,-0.199712,-0.18119,17
0.401395,-0.200269,-0.180686,20
0.400491,-0.199674,-0.179336,19
0.401009,-0.200018,-0.178675,20
0.40116,-0.200121,-0.177837,19
0.401449,-0.200314,-0.177065,20
0.403078,-0.201392,-0.176927,17
0.402122,-0.200763,-0.175564,21
0.402044,-0.200714,-0.174618,18
0.402151,-0.200787,-0.173759,18
0.402535,-0.201043,-0.173029,21
0.402597,-0.201086,-0.172149,18
0.404188,-0.202139,-0.171972,19
0.404157,-0.202121,-0.171047,21
0.403477,-0.201675,-0.169829,22
0.405028,-0.202701,-0.169622,24
0.404811,-0.202561,-0.168614,23
0.404176,-0.202144,-0.167422,23
0.405171,-0.202803,-0.166957,20
0.405376,-0.202941,-0.166139,25
0.405253,-0.202862,-0.165178,27
0.406254,-0.203526,-0.164708,33
0.406554,-0.203726,-0.16393,30
0.406478,-0.203679,-0.162989,34
0.406779,-0.20388,-0.162211,28
0.406845,-0.203926,-0.161331,31
0.40724,-0.204189,-0.160593,34
0.407779,-0.204547,-0.159913,33
0.408793,-0.205219,-0.159432,28
0.407913,-0.204641,-0.158155,35
0.409023,-0.205376,-0.15771,35
0.409709,-0.205832,-0.157086,31
0.409778,-0.20588,-0.156204,29
0.409704,-0.205834,-0.155266,36
0.409155,-0.205474,-0.154135,39
0.4097,-0.205836,-0.153449,44
0.409961,-0.20601,-0.152648,40
0.410031,-0.206059,-0.15177,43
0.410866,-0.206613,-0.151195,40
0.411081,-0.206757,-0.150373,44
0.411296,-0.206902,-0.149551,47
0.411512,-0.207047,-0.148729,49
0.411824,-0.207256,-0.147943,44
0.412619,-0.207783,-0.147343,45
0.41197,-0.207357,-0.146187,42
0.412573,-0.207757,-0.145511,43
0.41284,-0.207936,-0.144706,43
0.412914,-0.207988,-0.143828,48
0.41241,-0.207658,-0.142735,42
0.412775,-0.207901,-0.141967,45
0.413671,-0.208495,-0.141394,43
0.413699,-0.208516,-0.140499,53
0.414017,-0.208729,-0.13971,48
0.412838,-0.207952,-0.13838,49
0.413108,-0.208133,-0.137576,51
0.413233,-0.208218,-0.13672,52
0.413504,-0.2084,-0.135915,45
0.413583,-0.208454,-0.135043,54
0.414533,-0.209084,-0.134475,52
0.413355,-0.208308,-0.133164,48
0.413675,-0.208522,-0.132377,51
0.413177,-0.208196,-0.131308,57
0.413017,-0.208092,-0.130357,54
0.412521,-0.207767,-0.129294,57
0.412458,-0.207728,-0.12838,60
0.412013,-0.207436,-0.127339,58
0.41176,-0.207272,-0.126364,58
0.41127,-0.206951,-0.125313,62
0.410783,-0.206631,-0.124266,65
0.410913,-0.206719,-0.123422,69
0.410332,-0.206338,-0.122349,71
0.40966,-0.205896,-0.121251,75
0.409226,-0.205612,-0.120232,76
0.407857,-0.20471,-0.118921,76
0.407568,-0.204522,-0.117955,79
0.406816,-0.204027,-0.116847,82
0.406299,-0.203687,-0.115815,74
0.404909,-0.202772,-0.11452,77
0.404215,-0.202316,-0.113443,79
0.403753,-0.202013,-0.112439,84
0.403611,-0.201921,-0.111533,82
0.403105,-0.20159,-0.110521,88
0.402421,-0.20114,-0.10946,85
0.402146,-0.20096,-0.108521,90
0.401602,-0.200603,-0.107506,94
0.40115,-0.200307,-0.106521,99
0.400699,-0.200011,-0.105539,99
0.400071,-0.199599,-0.10451,106
0.399847,-0.199453,-0.103597,107
0.399491,-0.19922,-0.102649,106
0.399224,-0.199046,-0.101727,103
0.398427,-0.198522,-0.100663,105
0.397899,-0.198175,-0.099676,105
0.397241,-0.197742,-0.0986569,113
0.39663,-0.197341,-0.0976538,110
0.396545,-0.197287,-0.0967926,115
0.396286,-0.197118,-0.0958868,119
0.395766,-0.196777,-0.0949154,116
0.394989,-0.196266,-0.0938808,115
0.39521,-0.196414,-0.0931039,118
0.394523,-0.195962,-0.0920977,115
0.394571,-0.195997,-0.0912788,121
0.393931,-0.195576,-0.0902897,123
0.393636,-0.195383,-0.0893889,125
0.393386,-0.19522,-0.0885005,119
0.393222,-0.195113,-0.0876345,123
0.393015,-0.194979,-0.0867597,116
0.393408,-0.195241,-0.0860277,119
0.393288,-0.195164,-0.0851745,119
0.39304,-0.195003,-0.0842927,123
0.393049,-0.195011,-0.0834714,122
0.392803,-0.19485,-0.0825925,120
0.392898,-0.194915,-0.081792,114
0.392866,-0.194896,-0.080963,124
0.393048,-0.195019,-0.0801818,123
0.393102,-0.195057,-0.0793723,132
0.392772,-0.194841,-0.0784803,124
0.392827,-0.194879,-0.0776722,124
0.393053,-0.195031,-0.0769004,124
0.393194,-0.195126,-0.0761103,129
0.393122,-0.195081,-0.075276,128
0.393051,-0.195036,-0.0744425,130
0.393065,-0.195048,-0.073627,132
0.39308,-0.19506,-0.0728119,139
0.393308,-0.195213,-0.0720394,134
0.393623,-0.195423,-0.0712831,141
0.393212,-0.195154,-0.0703857,139
0.393399,-0.19528,-0.0696046,141
0.393587,-0.195406,-0.0688232,146
0.393818,-0.195561,-0.0680493,150
0.394136,-0.195773,-0.0672907,150
0.394154,-0.195787,-0.0664766,157
0.394516,-0.196029,-0.0657244,149
0.39432,-0.195902,-0.0648723,152
0.39434,-0.195917,-0.064059,151
0.394832,-0.196244,-0.0633275,158
0.394852,-0.19626,-0.0625138,157
0.395002,-0.196362,-0.0617221,158
0.394895,-0.196293,-0.0608873,154
0.395003,-0.196366,-0.0600886,159
0.395025,-0.196383,-0.059276,156
0.395177,-0.196486,-0.0584842,164
0.395415,-0.196645,-0.0577056,163
0.395568,-0.196749,-0.056913,163
0.395506,-0.19671,-0.0560873,163
0.39566,-0.196814,-0.0552946,169
0.395815,-0.196918,-0.0545016,168
0.395883,-0.196966,-0.0536956,173
0.396125,-0.197128,-0.0529146,171
0.396195,-0.197176,-0.0521084,170
0.396135,-0.197139,-0.0512842,170
0.396466,-0.19736,-0.0505139,169
0.39645,-0.197352,-0.0496958,169
0.396739,-0.197545,-0.0489183,176
0.396898,-0.197652,-0.048123,176
0.397144,-0.197817,-0.0473383,178
0.397348,-0.197954,-0.0465475,176
0.397161,-0.197833,-0.0457078,178
0.397496,-0.198056,-0.0449324,176
0.397745,-0.198223,-0.0441455,181
0.39782,-0.198275,-0.0433375,178
0.397896,-0.198328,-0.0425295,183
0.397929,-0.198352,-0.0417165,179
0.398006,-0.198405,-0.0409084,183
0.398171,-0.198516,-0.0401097,180
0.398642,-0.19883,-0.0393428,180
0.398502,-0.198739,-0.0385109,180
0.398712,-0.198881,-0.0377152,186
0.399055,-0.199109,-0.0369319,185
0.399618,-0.199484,-0.0361685,189
0.399699,-0.19954,-0.0353573,186
0.399913,-0.199683,-0.0345582,188
0.400127,-0.199827,-0.0337584,187
0.400033,-0.199767,-0.0329307,188
0.40016,-0.199854,-0.0321225,186
0.400597,-0.200145,-0.0313398,188
0.400859,-0.20032,-0.030541,190
0.402232,-0.20123,-0.029829,193
0.401517,-0.20076,-0.0289509,191
0.401559,-0.200789,-0.0281325,193
0.402001,-0.201084,-0.027343,195
0.402401,-0.201351,-0.0265486,197
0.402311,-0.201293,-0.0257194,194
0.402399,-0.201354,-0.0249025,195
0.402399,-0.201356,-0.0240797,189
0.402801,-0.201625,-0.0232816,194
0.402802,-0.201627,-0.0224582,194
0.402804,-0.201631,-0.021635,196
0.403433,-0.202049,-0.020846,196
0.403345,-0.201993,-0.0200169,195
0.404428,-0.202711,-0.0192468,194
0.404431,-0.202716,-0.0184204,193
0.404661,-0.20287,-0.0176045,196
0.404846,-0.202995,-0.0167856,200
0.404806,-0.20297,-0.0159568,197
0.404902,-0.203036,-0.0151335,201
0.404999,-0.203102,-0.0143099,198
0.405051,-0.203139,-0.0134844,198
0.40533,-0.203326,-0.012666,196
0.4062,-0.203904,-0.0118642,202
0.405845,-0.203671,-0.0110246,205
0.405945,-0.203739,-0.0101981,203
0.405999,-0.203778,-0.0093703,198
0.406738,-0.204269,-0.00855671,201
0.40716,-0.20455,-0.00773388,201
0.40708,-0.204499,-0.00690081,199
0.407275,-0.20463,-0.00607211,201
0.407654,-0.204883,-0.00524483,203
0.407483,-0.204772,-0.00441036,203
0.407726,-0.204935,-0.00357989,206
0.408107,-0.20519,-0.00274914,206
0.408352,-0.205354,-0.00191623,204
0.408689,-0.205579,-0.00108234,201
0.408474,-0.205439,-0.000247526,203
0.409785,-0.206309,0.000591326,202
0.409524,-0.206138,0.0014274,202
0.40982,-0.206336,0.00226662,200
0.410256,-0.206627,0.00310858,198
0.410088,-0.206518,0.00394517,200
0.410293,-0.206656,0.00478641,201
0.410499,-0.206795,0.00562862,204
0.410613,-0.206872,0.00647004,204
0.410634,-0.206888,0.00731008,203
0.410609,-0.206874,0.00814919,208
0.410724,-0.206953,0.00899183,206
0.412481,-0.208117,0.00988049,206
0.412363,-0.208041,0.010721,204
0.412481,-0.208122,0.0115686,206
0.412411,-0.208078,0.0124103,203
0.412389,-0.208066,0.0132536,208
0.41171,-0.207619,0.0140714,204
0.412394,-0.208074,0.0149422,205
0.41261,-0.208218,0.0157958,205
0.412449,-0.208114,0.0166334,203
0.412194,-0.207948,0.017466,202
0.412364,-0.208063,0.0183186,203
0.412534,-0.208178,0.0191722,206
0.412517,-0.208168,0.0200165,207
0.412359,-0.208066,0.0208529,207
0.412578,-0.208213,0.0217109,209
0.412657,-0.208268,0.0225614,207
0.412641,-0.20826,0.0234065,209
0.412485,-0.208159,0.0242424,212
0.41266,-0.208277,0.0251002,210
0.412458,-0.208145,0.0259326,205
0.412257,-0.208015,0.0267643,202
0.41168,-0.207636,0.0275673,193
0.41106,-0.207227,0.0283646,180
0.411376,-0.207439,0.0292332,184
0.4116,-0.207589,0.0300958,190
0.411731,-0.207678,0.0309519,197
0.411909,-0.207798,0.0318129,198
0.411994,-0.207857,0.0326666,208
0.411939,-0.207823,0.0335083,210
0.410946,-0.207168,0.0342635,212
0.410378,-0.206795,0.0350546,218
0.410465,-0.206854,0.0359067,221
0.410272,-0.206729,0.0367317,221
0.409894,-0.206481,0.0375374,218
0.409889,-0.20648,0.0383801,220
0.409884,-0.206479,0.0392231,221
0.409741,-0.206386,0.0400514,222
0.409458,-0.206202,0.040864,220
0.409502,-0.206233,0.0417121,223
0.408065,-0.205284,0.0423912,224
0.407464,-0.204889,0.0431617,228
0.407279,-0.204768,0.0439793,226
0.406636,-0.204345,0.0447408,222
0.404451,-0.202902,0.0453093,224
0.404542,-0.202964,0.0461543,226
0.404452,-0.202906,0.0469769,223
0.404226,-0.202759,0.0477818,223
0.404047,-0.202643,0.048592,221
0.403913,-0.202557,0.0494079,224
0.401583,-0.201017,0.0499229,224
0.401586,-0.201021,0.0507522,224
0.4015,-0.200966,0.0515693,223
0.401414,-0.200912,0.0523864,223
0.401418,-0.200917,0.0532165,224
0.401111,-0.200715,0.0540008,220
0.400849,-0.200544,0.0547909,217
0.400766,-0.200491,0.0556074,217
0.400195,-0.200116,0.0563484,218
0.39945,-0.199625,0.0570598,218
0.398797,-0.199195,0.0577827,218
0.398716,-0.199143,0.0585955,221
0.398416,-0.198947,0.0593725,221
0.398073,-0.198723,0.0601414,220
0.398169,-0.198788,0.0609829,221
0.397434,-0.198304,0.0616835,222
0.395836,-0.197248,0.0622318,220
0.396018,-0.197371,0.0630852,222
0.395898,-0.197294,0.063886,220
0.395649,-0.197131,0.0646635,218
0.39553,-0.197054,0.065464,217
0.395325,-0.196921,0.0662485,215
0.395163,-0.196817,0.0670406,210
0.395046,-0.196741,0.0678406,211
0.394155,-0.196153,0.0684928,212
0.393996,-0.19605,0.0692828,209
0.393452,-0.195692,0.0699973,208
0.393423,-0.195675,0.0708114,207
0.393437,-0.195687,0.0716344,211
0.393536,-0.195755,0.0724753,210
0.393594,-0.195795,0.0733084,206
0.393267,-0.195581,0.0740627,205
0.393111,-0.19548,0.0748518,205
0.393341,-0.195635,0.075722,204
0.3934,-0.195676,0.0765573,206
0.393032,-0.195435,0.0773011,203
0.393007,-0.19542,0.0781183,203
0.39311,-0.19549,0.0789643,203
0.393257,-0.19559,0.0798208,202
0.393704,-0.195888,0.0807461,198
0.393637,-0.195846,0.0815572,199
0.393143,-0.195521,0.0822701,203
0.393163,-0.195536,0.0831006,198
0.393054,-0.195467,0.0839016,195
0.393504,-0.195767,0.0848344,196
0.393139,-0.195528,0.0855755,194
0.393332,-0.195658,0.0864498,194
0.393226,-0.19559,0.0872526,190
0.39312,-0.195522,0.0880555,187
0.393658,-0.19588,0.089018,184
0.393424,-0.195727,0.0897904,186
0.393276,-0.195632,0.090584,185
0.393558,-0.195821,0.0914869,189
0.393411,-0.195725,0.0922813,194
0.39335,-0.195687,0.093098,195
0.393247,-0.195621,0.0939038,189
0.39323,-0.195612,0.0947324,188
0.393557,-0.195831,0.0956531,190
0.393455,-0.195766,0.0964606,187
0.394345,-0.196357,0.0975368,187
0.393553,-0.195835,0.0981583,190
0.393667,-0.195913,0.0990263,194
0.393868,-0.196049,0.0999195,192
0.395197,-0.196931,0.10113,194
0.39384,-0.196035,0.101589,194
0.39426,-0.196315,0.102548,193
0.394333,-0.196366,0.10341,195
0.394624,-0.196561,0.104336,194
0.394179,-0.196268,0.105049,196
0.394427,-0.196435,0.105964,197
0.394633,-0.196574,0.106869,196
0.39497,-0.196799,0.107814,190
0.395352,-0.197054,0.108775,192
0.395692,-0.197281,0.109726,187
0.395202,-0.196959,0.110425,190
0.395455,-0.197129,0.111352,189
0.395752,-0.197328,0.112294,184
0.395744,-0.197325,0.113142,184
0.396043,-0.197526,0.114088,190
0.396431,-0.197785,0.115064,191
0.396468,-0.197812,0.11593,193
0.396462,-0.19781,0.116783,187
0.396412,-0.197779,0.117622,188
0.396582,-0.197894,0.118534,187
0.396577,-0.197893,0.11939,189
0.396792,-0.198038,0.120319,188
0.397097,-0.198242,0.12128,187
0.397491,-0.198506,0.122273,185
0.397311,-0.198388,0.123074,189
0.397307,-0.198389,0.123935,185
0.397438,-0.198477,0.124843,185
0.397657,-0.198625,0.125783,183
0.397788,-0.198714,0.126693,187
0.398009,-0.198863,0.127637,185
0.398097,-0.198924,0.128535,186
0.398186,-0.198984,0.129435,186
0.398945,-0.19949,0.130575,185
0.399483,-0.199849,0.13164,184
0.399664,-0.199971,0.132579,186
0.39998,-0.200183,0.133569,189
0.400072,-0.200246,0.134479,191
0.400029,-0.20022,0.13534,185
0.400167,-0.200314,0.136269,185
0.400125,-0.200288,0.137132,183
0.400671,-0.200652,0.138216,185
0.400856,-0.200777,0.139168,184
0.400996,-0.200872,0.140104,183
0.401319,-0.201089,0.141111,182
0.401324,-0.201094,0.141998,181
0.401512,-0.201221,0.142957,183
0.40202,-0.20156,0.144042,184
0.401706,-0.201355,0.144808,188
0.401394,-0.20115,0.145574,184
0.402177,-0.201672,0.146774,178
0.403103,-0.202288,0.148036,180
0.403157,-0.202326,0.148953,181
0.403028,-0.202243,0.149796,179
0.403129,-0.202312,0.150733,172
0.403,-0.202229,0.151577,170
0.403379,-0.202482,0.15263,166
0.403574,-0.202614,0.15361,168
0.403816,-0.202777,0.154612,169
0.403827,-0.202787,0.155518,171
0.40407,-0.20295,0.156523,171
0.40436,-0.203145,0.15755,174
0.404698,-0.203372,0.1586,169
0.404618,-0.203321,0.159473,170
0.404864,-0.203486,0.160487,165
0.405065,-0.203622,0.161483,170
