0.465874,0.0339172,0.150668,176
0.465357,0.0339375,0.151422,177
0.465432,0.0339322,0.15237,181
0.464858,0.0339549,0.153103,180
0.464402,0.0339725,0.153875,177
0.464125,0.0339825,0.154706,176
0.464319,0.033972,0.155696,177
0.463748,0.0339946,0.156427,174
0.463472,0.0340045,0.157257,175
0.462728,0.0340346,0.157926,177
0.461986,0.0340646,0.158592,172
0.461946,0.0340642,0.159503,166
0.461615,0.0340765,0.160311,167
0.461869,0.0340634,0.161326,169
0.461772,0.0340655,0.162218,169
0.461559,0.0340727,0.163069,163
0.461638,0.0340671,0.164025,157
0.46096,0.0340944,0.164708,159
0.460748,0.0341015,0.165559,156
0.460247,0.0341211,0.166304,160
0.460211,0.0341206,0.167219,162
0.459885,0.0341326,0.168027,163
0.459444,0.0341497,0.168792,163
0.459757,0.034134,0.169838,158
0.459549,0.0341409,0.17069,155
0.459341,0.0341478,0.171542,158
0.459539,0.0341371,0.172549,154
0.459738,0.0341264,0.173558,157
0.460113,0.034108,0.174636,153
0.459499,0.0341325,0.175334,151
0.459119,0.0341469,0.176122,148
0.459378,0.0341335,0.177158,148
0.459463,0.0341277,0.178128,145
0.459549,0.0341219,0.179099,146
0.459577,0.0341186,0.180049,142
0.459664,0.0341127,0.181023,136
0.459809,0.0341042,0.182022,126
0.458675,0.0341514,0.182507,132
0.458995,0.0341353,0.183577,137
0.458734,0.0341445,0.184413,136
0.459521,0.0341082,0.185677,119
0.459493,0.0341073,0.186611,115
0.46046,0.0340631,0.187956,110
0.4602,0.0340723,0.188797,113
0.459881,0.034084,0.189613,111
0.459797,0.0340855,0.190527,107
0.459596,0.0340921,0.191392,107
0.459571,0.0340911,0.192332,115
0.458904,0.0341179,0.192999,111
0.460167,0.0340609,0.19449,113
0.460437,0.034047,0.195561,108
0.460238,0.0340535,0.196431,111
0.460568,0.034037,0.197531,108
0.460016,0.0340588,0.198248,115
0.459936,0.0340601,0.199171,115
0.461151,0.0340051,0.200665,120
0.460717,0.0340218,0.201435,110
0.461286,0.0339948,0.202651,119
0.460499,0.0340269,0.203264,126
0.461661,0.0339742,0.204749,123
0.461879,0.0339625,0.205815,128
0.461564,0.033974,0.206641,126
0.446856,0.0390438,-0.212245,6
0.443983,0.0391381,-0.209938,8
0.447647,0.039013,-0.210731,8
0.447038,0.0390313,-0.209502,6
0.444938,0.0390997,-0.207577,6
0.445884,0.0390658,-0.207082,5
0.446334,0.0390486,-0.206354,5
0.446674,0.039035,-0.205574,9
0.444033,0.0391217,-0.203424,5
0.446135,0.0390489,-0.203455,7
0.441543,0.0392012,-0.200431,8
0.443348,0.0391384,-0.200325,6
0.445168,0.0390751,-0.20022,5
0.444243,0.0391041,-0.198876,6
0.443761,0.0391183,-0.197735,6
0.440625,0.0392217,-0.195416,6
0.441771,0.039181,-0.195006,8
0.439629,0.0392511,-0.193144,10
0.44034,0.0392251,-0.192543,7
0.439923,0.039237,-0.191448,9
0.438548,0.0392813,-0.189938,8
0.439737,0.0392392,-0.189544,8
0.437409,0.0393155,-0.187633,5
0.440248,0.0392179,-0.187945,9
0.438926,0.0392603,-0.186473,11
0.439849,0.0392272,-0.185959,7
0.439544,0.0392354,-0.184924,4
0.440523,0.0392004,-0.18443,5
0.438459,0.0392679,-0.182661,5
0.440395,0.0392006,-0.182565,4
0.440787,0.0391854,-0.181823,3
0.439894,0.0392134,-0.180552,9
0.440126,0.0392036,-0.179745,13
0.441268,0.039163,-0.17931,14
0.441608,0.0391495,-0.178545,13
0.444657,0.0390446,-0.178873,12
0.441484,0.0391496,-0.176691,16
0.442256,0.0391216,-0.176099,16
0.441844,0.0391334,-0.175034,13
0.442563,0.0391071,-0.174418,11
0.442799,0.0390971,-0.173611,14
0.442819,0.0390944,-0.172719,14
0.443109,0.0390826,-0.171932,20
0.443995,0.0390506,-0.171376,20
0.443691,0.0390589,-0.170359,18
0.443982,0.039047,-0.169572,19
0.444763,0.0390186,-0.168971,23
0.444839,0.039014,-0.168101,25
0.44459,0.0390204,-0.167108,22
0.445101,0.0390011,-0.166403,24
0.445504,0.0389854,-0.165656,28
0.446892,0.0389365,-0.165273,28
0.447958,0.0388984,-0.164767,31
0.446065,0.0389604,-0.163171,30
0.446034,0.0389594,-0.162264,35
0.44737,0.0389122,-0.161853,31
0.44723,0.0389149,-0.160905,34
0.448023,0.038886,-0.160293,32
0.447938,0.0388869,-0.159366,34
0.448624,0.0388617,-0.158713,35
0.448265,0.0388718,-0.157689,35
0.449117,0.0388409,-0.157093,37
0.449751,0.0388174,-0.156418,40
0.449833,0.0388126,-0.155549,32
0.450081,0.0388022,-0.154739,39
0.450219,0.0387955,-0.15389,36
0.451692,0.0387436,-0.153496,39
0.451775,0.0387387,-0.152627,37
0.452083,0.0387263,-0.151833,41
0.452167,0.0387214,-0.150965,42
0.452643,0.0387032,-0.150227,36
0.452059,0.038721,-0.149136,38
0.452368,0.0387085,-0.148343,41
0.452231,0.0387111,-0.147404,43
0.453436,0.0386683,-0.146902,44
0.45459,0.0386271,-0.146379,42
0.455412,0.0385972,-0.145746,42
0.45471,0.038619,-0.144624,45
0.455137,0.0386025,-0.143864,46
0.456131,0.0385667,-0.143281,50
0.456731,0.0385443,-0.142572,55
0.457276,0.0385238,-0.141844,53
0.457594,0.038511,-0.141044,55
0.458313,0.0384845,-0.140367,54
0.45892,0.0384619,-0.139654,57
0.45844,0.0384762,-0.138609,59
0.459392,0.0384418,-0.137998,55
0.460462,0.0384034,-0.13742,56
0.460499,0.0384002,-0.136531,60
0.460824,0.0383871,-0.135728,58
0.461902,0.0383484,-0.135145,61
0.461823,0.038349,-0.134221,62
0.462267,0.0383319,-0.133449,58
0.462887,0.0383088,-0.132727,58
0.463975,0.0382698,-0.132137,61
0.464307,0.0382565,-0.131329,61
0.464932,0.0382332,-0.130603,67
0.465442,0.0382138,-0.129843,63
0.465542,0.0382083,-0.128968,66
0.465936,0.0381929,-0.128174,64
0.465979,0.0381894,-0.127283,66
0.467497,0.0381357,-0.126794,66
0.467126,0.0381463,-0.125789,68
0.466933,0.0381508,-0.124834,72
0.467805,0.0381191,-0.124164,72
0.46785,0.0381155,-0.123272,71
0.468607,0.0380877,-0.122568,75
0.469606,0.0380516,-0.121925,74
0.469712,0.038046,-0.121047,71
0.468628,0.0380809,-0.119864,78
0.469806,0.0380387,-0.119263,79
0.470272,0.0380208,-0.118477,75
0.469843,0.0380333,-0.117466,76
0.468999,0.0380601,-0.116353,78
0.469406,0.0380442,-0.115554,81
0.469277,0.0380465,-0.114622,80
0.469566,0.0380346,-0.113793,82
0.468786,0.0380592,-0.112705,76
0.46866,0.0380615,-0.111777,75
0.468475,0.0380658,-0.110837,76
0.469419,0.0380316,-0.110164,78
0.468642,0.038056,-0.109085,85
0.468341,0.0380643,-0.108121,94
0.467333,0.0380967,-0.106996,95
0.467978,0.0380726,-0.106252,99
0.467268,0.0380949,-0.105199,99
0.467207,0.0380949,-0.104296,104
0.46656,0.038115,-0.103263,107
0.46744,0.038083,-0.102569,104
0.467675,0.0380729,-0.101732,102
0.467734,0.0380689,-0.100856,108
0.467735,0.0380669,-0.0999684,107
0.466855,0.0380949,-0.0988937,110
0.466857,0.0380929,-0.0980089,116
0.466567,0.0381008,-0.0970635,114
0.466336,0.0381067,-0.096132,109
0.466165,0.0381105,-0.0952141,114
0.466228,0.0381064,-0.094345,115
0.465708,0.0381222,-0.0933588,126
0.466181,0.038104,-0.0925729,131
0.465546,0.0381238,-0.0915671,133
0.465146,0.0381354,-0.0906102,125
0.465038,0.0381372,-0.0897117,126
0.46464,0.0381488,-0.0887586,119
0.464302,0.0381584,-0.0878188,124
0.463849,0.0381719,-0.0868593,126
0.463744,0.0381735,-0.0859666,129
0.463929,0.0381652,-0.085128,127
0.464114,0.0381569,-0.0842893,135
0.463838,0.0381644,-0.0833672,136
0.463735,0.038166,-0.0824776,135
0.463346,0.0381773,-0.0815381,139
0.463302,0.0381768,-0.0806611,144
0.463375,0.0381724,-0.0798046,142
0.463218,0.0381758,-0.078909,137
0.463407,0.0381674,-0.0780729,140
0.463366,0.0381668,-0.0771982,140
0.463039,0.0381761,-0.0762767,131
0.462541,0.0381912,-0.075329,138
0.462961,0.0381748,-0.0745317,138
0.463038,0.0381702,-0.0736785,138
0.463576,0.0381499,-0.072898,134
0.463079,0.0381649,-0.0719549,140
0.46356,0.0381465,-0.0711643,142
0.463352,0.0381517,-0.0702677,142
0.463432,0.038147,-0.0694155,140
0.463858,0.0381304,-0.0686146,143
0.463998,0.0381237,-0.0677705,144
0.46408,0.0381189,-0.066918,145
0.464105,0.0381161,-0.0660575,149
0.463958,0.0381192,-0.065173,147
0.463582,0.0381301,-0.0642577,141
0.463782,0.0381213,-0.0634229,142
0.464616,0.0380907,-0.0626733,146
0.464472,0.0380937,-0.0617907,146
0.464732,0.0380828,-0.060962,144
0.464704,0.0380819,-0.0600955,150
0.464561,0.0380848,-0.0592148,151
0.46465,0.0380798,-0.058364,149
0.464682,0.0380768,-0.0575061,147
0.465119,0.0380598,-0.0566978,150
0.464805,0.0380686,-0.0557981,152
0.465128,0.0380556,-0.054975,157
0.465162,0.0380525,-0.0541176,156
0.465255,0.0380473,-0.053267,154
0.465986,0.0380202,-0.052488,151
0.466429,0.0380031,-0.0516748,154
0.466524,0.0379978,-0.0508225,146
0.466853,0.0379846,-0.0499949,154
0.466892,0.0379813,-0.049136,155
0.467048,0.037974,-0.0482893,156
0.466855,0.0379787,-0.047407,147
0.467012,0.0379713,-0.0465604,151
0.467287,0.0379599,-0.045725,158
0.46762,0.0379465,-0.0448944,162
0.467955,0.037933,-0.0440629,162
0.468584,0.0379094,-0.0432575,160
0.468687,0.0379039,-0.0424026,159
0.469378,0.0378781,-0.0415994,162
0.469306,0.0378787,-0.040728,162
0.469294,0.0378771,-0.0398621,166
0.469577,0.0378654,-0.0390208,163
0.469625,0.0378618,-0.0381598,171
0.470204,0.0378399,-0.0373406,173
0.470548,0.0378261,-0.0365015,173
0.470658,0.0378204,-0.0356436,177
0.470827,0.0378126,-0.0347899,172
0.470997,0.0378047,-0.0339358,169
0.471109,0.0377989,-0.0330772,173
0.471458,0.0377849,-0.0322344,170
0.471039,0.0377974,-0.0313399,171
0.471271,0.0377875,-0.0304888,168
0.471979,0.0377611,-0.0296666,175
0.472392,0.0377449,-0.0288241,175
0.473045,0.0377204,-0.0279943,181
0.473103,0.0377164,-0.0271286,178
0.47364,0.0376959,-0.026289,182
0.47376,0.0376898,-0.0254254,179
0.473461,0.0376981,-0.0245402,180
0.473702,0.0376879,-0.0236828,182
0.473883,0.0376796,-0.0228218,183
0.474066,0.0376714,-0.0219603,183
0.474129,0.0376672,-0.021093,186
0.474733,0.0376444,-0.0202482,185
0.474799,0.0376402,-0.0193798,190
0.475828,0.0376026,-0.0185479,187
0.474751,0.0376379,-0.017636,189
0.476144,0.0375878,-0.0168131,191
0.47591,0.0375939,-0.0159322,191
0.475859,0.0375937,-0.0150578,190
0.47605,0.0375851,-0.0141907,193
0.474675,0.0376307,-0.0132808,190
0.474506,0.0376346,-0.0124063,191
0.4756,0.0375947,-0.0115618,191
0.476277,0.0375694,-0.0107044,193
0.47623,0.037569,-0.00983043,190
0.475882,0.0375791,-0.00895134,191
0.475836,0.0375787,-0.00807837,190
0.47537,0.0375929,-0.00719973,191
0.474845,0.0376091,-0.00632215,193
0.474682,0.0376127,-0.00545024,200
0.4741,0.0376309,-0.00457545,197
0.474059,0.0376304,-0.00370637,197
0.47366,0.0376423,-0.00283577,197
0.473441,0.0376479,-0.00196717,198
0.473402,0.0376473,-0.00109956,199
0.473483,0.0376425,-0.000231981,201
0.473565,0.0376377,0.000635905,205
0.47329,0.0376453,0.00150247,210
0.473015,0.0376528,0.00236804,210
0.472861,0.0376562,0.00323362,209
0.473005,0.0376493,0.00410167,206
0.473031,0.0376464,0.00496888,207
0.472998,0.0376456,0.0058354,208
0.472788,0.0376509,0.00669906,210
0.472756,0.0376501,0.00756513,212
0.472845,0.037645,0.00843346,212
0.472398,0.0376586,0.00929081,212
0.472072,0.0376679,0.0101493,211
0.472103,0.0376649,0.0110157,207
0.472076,0.0376639,0.0118806,209
0.47199,0.0376649,0.0127438,209
0.472082,0.0376598,0.0136123,214
0.47182,0.0376669,0.0144696,212
0.471855,0.0376638,0.0153363,210
0.471712,0.0376668,0.0161968,205
0.47163,0.0376677,0.0170592,206
0.470484,0.0377055,0.017879,206
0.469579,0.037735,0.0187047,206
0.469324,0.0377419,0.0195555,203
0.470009,0.0377162,0.0204481,202
0.470225,0.0377067,0.0213212,202
0.469501,0.0377299,0.0221491,201
0.468428,0.0377653,0.0229567,201
0.468002,0.0377781,0.0237946,201
0.467752,0.0377849,0.0246407,202
0.467737,0.0377835,0.0254992,205
0.467372,0.0377942,0.0263375,200
0.467358,0.0377928,0.0271957,200
0.467286,0.0377933,0.0280504,196
0.466866,0.037806,0.0288828,199
0.46697,0.0378004,0.0297482,197
0.466959,0.0377989,0.0306064,195
0.46689,0.0377994,0.0314608,192
0.466822,0.0377998,0.0323152,195
0.466987,0.0377921,0.0331865,197
0.467153,0.0377844,0.0340588,198
0.467029,0.0377868,0.0349095,195
0.466673,0.0377972,0.0357418,199
0.467016,0.0377833,0.0366292,197
0.46701,0.0377816,0.0374894,193
0.467179,0.0377737,0.0383647,201
0.467292,0.0377679,0.0392358,195
0.46723,0.0377681,0.0400922,198
0.467227,0.0377663,0.040954,197
0.4674,0.0377583,0.0418321,195
0.467748,0.0377442,0.0427276,193
0.467572,0.0377484,0.0435745,194
0.467572,0.0377464,0.0444382,190
0.467748,0.0377383,0.0453196,191
0.467925,0.0377302,0.046202,194
0.467693,0.0377363,0.0470433,189
0.467813,0.0377302,0.0479208,195
0.468167,0.0377159,0.0488241,192
0.468875,0.0376892,0.0497675,189
0.469174,0.0376768,0.0506686,191
0.468593,0.0376952,0.0514721,189
0.46854,0.037695,0.0523343,190
0.468724,0.0376867,0.0532239,194
0.468908,0.0376783,0.0541146,196
0.468681,0.0376842,0.0549571,196
0.469396,0.0376573,0.0559138,189
0.469112,0.0376653,0.0567498,187
0.469358,0.0376547,0.0576517,187
0.470078,0.0376276,0.0586152,189
0.469736,0.0376376,0.0594445,188
0.469926,0.037629,0.0603426,189
0.470413,0.03761,0.0612814,187
0.470427,0.0376075,0.0621585,193
0.471035,0.0375842,0.0631173,191
0.471289,0.0375734,0.0640296,197
0.471365,0.0375688,0.0649182,199
0.471502,0.037562,0.0658161,194
0.471639,0.0375552,0.0667151,195
0.471479,0.0375588,0.0675714,195
0.471797,0.0375457,0.0684983,195
0.471937,0.0375388,0.0694,195
0.472137,0.0375298,0.0703119,193
0.472577,0.0375124,0.071262,192
0.47272,0.0375055,0.0721676,195
0.472623,0.0375068,0.0730366,196
0.472587,0.0375061,0.0739153,196
0.473152,0.0374843,0.0748912,194
0.473658,0.0374646,0.0758602,194
0.474892,0.0374194,0.0769517,194
0.475041,0.0374122,0.0778669,195
0.475251,0.0374028,0.0787936,190
0.475219,0.0374019,0.0796802,189
0.475248,0.0373989,0.0805777,192
0.475643,0.037383,0.0815396,191
0.476527,0.03735,0.0825897,192
0.476559,0.0373469,0.0834917,190
0.478307,0.0372836,0.0847039,187
0.477053,0.0373255,0.0853759,186
0.477393,0.0373115,0.0863374,183
0.477981,0.0372889,0.0873466,182
0.478078,0.0372834,0.0882664,183
0.478731,0.0372585,0.0892924,185
0.47951,0.0372291,0.0903458,185
0.479549,0.0372257,0.0912592,181
0.479712,0.037218,0.0921976,178
0.479628,0.0372189,0.0930883,174
0.480352,0.0371914,0.0941403,172
0.480829,0.0371726,0.095146,174
0.481933,0.0371318,0.0962815,170
0.481727,0.037137,0.0971528,169
0.481896,0.037129,0.0981017,165
0.481754,0.0371319,0.0989866,161
0.482175,0.037115,0.0999905,160
0.482913,0.037087,0.101064,159
0.483402,0.0370678,0.102087,158
0.483324,0.0370685,0.10299,160
0.483373,0.0370646,0.103921,156
0.483865,0.0370453,0.104951,157
0.483853,0.0370436,0.10587,153
0.484031,0.0370353,0.106833,153
0.483893,0.037038,0.107726,155
0.483946,0.0370341,0.108662,154
0.484,0.0370301,0.1096,153
0.483548,0.0370439,0.110421,161
0.484173,0.0370198,0.111492,159
0.484039,0.0370225,0.112388,158
0.483462,0.0370407,0.113178,155
0.483899,0.0370232,0.11421,157
0.48402,0.0370168,0.115168,156
0.483635,0.0370283,0.116003,157
0.483884,0.0370174,0.116994,155
0.484071,0.0370088,0.11797,153
0.483814,0.0370157,0.118838,155
0.484065,0.0370047,0.119832,150
0.483873,0.0370094,0.120717,158
0.483175,0.0370319,0.121471,164
0.483936,0.037003,0.122599,164
0.483492,0.0370165,0.123418,165
0.483176,0.0370255,0.12427,169
0.482229,0.0370568,0.124955,174
0.482294,0.0370524,0.125906,180
0.481981,0.0370613,0.126756,183
0.481795,0.0370658,0.12764,185
0.481358,0.0370791,0.128456,185
0.479919,0.0371277,0.128997,184
0.479611,0.0371365,0.129845,189
0.479366,0.037143,0.130709,189
0.478997,0.0371539,0.131538,187
0.478381,0.0371736,0.132298,186
0.478325,0.0371734,0.133214,185
0.477897,0.0371864,0.134024,181
0.476048,0.0372496,0.134427,184
0.475809,0.0372559,0.135287,187
0.475509,0.0372644,0.13613,184
0.475087,0.0372772,0.136936,181
0.474605,0.0372921,0.137724,185
0.474431,0.0372962,0.138601,185
0.473523,0.0373261,0.13926,185
0.473167,0.0373366,0.140082,189
0.472203,0.0373685,0.140719,190
0.47185,0.0373789,0.141539,185
0.471679,0.0373829,0.142415,188
0.471509,0.0373868,0.14329,188
0.471461,0.0373864,0.144204,188
0.470868,0.0374053,0.144948,186
0.469554,0.0374496,0.145464,182
0.468966,0.0374683,0.146205,181
0.46904,0.0374636,0.147154,181
0.468574,0.037478,0.147933,177
0.46787,0.0375008,0.148633,178
0.467407,0.0375151,0.149409,174
0.466528,0.0375441,0.150049,176
0.466068,0.0375583,0.150824,178
0.466024,0.0375578,0.151734,181
0.465981,0.0375572,0.152646,180
0.465345,0.0375776,0.15336,178
0.46477,0.0375959,0.154093,170
0.464728,0.0375953,0.155005,172
0.46445,0.037603,0.155837,171
0.464409,0.0376024,0.156749,171
0.463543,0.037631,0.157379,170
0.462681,0.0376594,0.158007,169
0.46364,0.0376234,0.159266,168
0.463247,0.0376352,0.160057,170
0.463562,0.0376219,0.161096,168
0.462465,0.0376587,0.161637,167
0.462838,0.0376434,0.162698,172
0.462154,0.0376655,0.163383,167
0.462059,0.0376668,0.164278,167
0.462198,0.0376598,0.165258,164
0.461868,0.0376694,0.166069,162
0.461598,0.0376769,0.166901,165
0.461386,0.0376823,0.167755,156
0.461468,0.0376773,0.168717,157
0.461668,0.0376681,0.169724,155
0.461692,0.0376651,0.170668,157
0.460955,0.0376891,0.171326,160
0.46063,0.0376986,0.172137,164
0.460713,0.0376935,0.173103,153
0.460447,0.0377009,0.173937,150
0.460239,0.0377061,0.174793,147
0.460499,0.0376948,0.17583,143
0.460819,0.0376813,0.176891,143
0.46032,0.0376969,0.177636,151
0.460464,0.0376897,0.178632,147
0.460609,0.0376824,0.179629,141
0.460638,0.0376792,0.180582,136
0.460374,0.0376865,0.181419,135
0.460404,0.0376833,0.182374,132
0.460844,0.0376655,0.183495,132
0.460288,0.0376832,0.184215,119
0.460084,0.0376883,0.185077,121
0.460643,0.0376663,0.186252,121
0.460616,0.0376651,0.187188,123
0.460589,0.0376639,0.188126,111
0.460798,0.0376543,0.189162,107
0.461243,0.0376363,0.190299,104
0.461159,0.0376372,0.191216,110
0.46137,0.0376275,0.192258,111
0.461818,0.0376094,0.193403,114
0.461735,0.0376102,0.194324,112
0.461416,0.0376194,0.195145,124
0.46163,0.0376096,0.196194,126
0.461903,0.0375977,0.197271,121
0.461881,0.0375963,0.198222,124
0.461859,0.037595,0.199174,129
0.461719,0.0375978,0.200076,117
0.461994,0.0375858,0.20116,113
0.462271,0.0375737,0.202247,104
0.462251,0.0375723,0.203204,113
0.462648,0.0375559,0.204349,120
0.463046,0.0375395,0.205496,115
0.462908,0.0375423,0.206405,113
0.463129,0.0375322,0.207476,117
0.453442,0.0423746,-0.215534,7
0.451214,0.0424297,-0.213519,5
1.03389,0.0274445,-0.488983,2
0.446551,0.0425454,-0.209423,5
0.449245,0.0424739,-0.209742,3
0.445896,0.042558,-0.207237,3
0.446514,0.04254,-0.206586,6
0.445025,0.0425762,-0.204961,6
0.448425,0.0424865,-0.205589,4
0.44449,0.0425857,-0.202849,7
0.448384,0.0424833,-0.203691,9
0.446441,0.0425313,-0.201872,9
0.442655,0.0426267,-0.199232,8
0.441361,0.042658,-0.197726,8
0.443878,0.042591,-0.19793,7
0.442524,0.0426238,-0.196403,10
0.440639,0.0426704,-0.194647,7
0.440543,0.0426708,-0.193689,9
0.440556,0.0426684,-0.192779,8
0.438852,0.0427103,-0.191121,7
0.438812,0.0427092,-0.190193,6
0.439201,0.0426972,-0.189452,9
0.438788,0.0427058,-0.188365,9
0.440033,0.0426716,-0.187991,8
0.441339,0.0426358,-0.187638,7
0.441139,0.0426389,-0.186642,5
0.440723,0.0426476,-0.185557,9
0.440685,0.0426465,-0.184633,7
0.444113,0.0425559,-0.185158,7
0.440664,0.042643,-0.182811,6
0.441164,0.042628,-0.182112,7
0.440912,0.0426325,-0.181103,8
0.442168,0.0425979,-0.180713,9
0.441808,0.0426052,-0.17966,10
0.442203,0.042593,-0.178916,13
0.442654,0.0425793,-0.178194,12
0.442132,0.0425907,-0.17708,13
0.442582,0.042577,-0.176357,12
0.443684,0.0425465,-0.175892,18
0.442512,0.0425748,-0.174525,14
0.444702,0.042516,-0.174485,15
0.44358,0.0425431,-0.173142,15
0.443329,0.0425475,-0.172143,18
0.444816,0.042507,-0.171818,19
0.445327,0.0424917,-0.171113,18
0.4435,0.042537,-0.16951,24
0.444824,0.0425006,-0.169117,23
0.445063,0.0424924,-0.168307,28
0.44563,0.0424757,-0.167621,28
0.445926,0.042466,-0.166832,30
0.445948,0.0424634,-0.165941,31
0.445643,0.0424692,-0.164929,31
0.447419,0.0424211,-0.164686,24
0.446784,0.0424356,-0.163552,30
0.448071,0.0424001,-0.163124,33
0.447545,0.0424118,-0.162032,32
0.447075,0.0424219,-0.160965,30
0.448144,0.0423921,-0.160451,31
0.447674,0.0424023,-0.159386,35
0.44847,0.0423796,-0.158772,38
0.448937,0.0423655,-0.158039,36
0.44935,0.0423527,-0.157287,33
0.449764,0.0423399,-0.156534,37
0.450068,0.04233,-0.155741,35
0.450151,0.0423258,-0.154873,37
0.450233,0.0423216,-0.154004,35
0.45182,0.0422783,-0.153649,36
0.451848,0.0422756,-0.152759,36
0.452827,0.0422481,-0.152192,36
0.452856,0.0422453,-0.151302,38
0.452773,0.0422454,-0.150376,44
0.453083,0.0422353,-0.149581,44
0.453562,0.0422208,-0.148841,43
0.453986,0.0422077,-0.148082,40
0.454073,0.0422034,-0.147212,39
0.454498,0.0421903,-0.146452,46
0.456682,0.0421314,-0.146256,49
0.455409,0.0421626,-0.144949,48
0.456008,0.0421449,-0.144241,52
0.456211,0.0421376,-0.143406,53
0.457324,0.0421065,-0.142857,51
0.458157,0.0420828,-0.142217,54
0.45842,0.0420739,-0.141398,56
0.458397,0.0420725,-0.14049,54
0.458833,0.042059,-0.139724,53
0.459672,0.0420351,-0.139079,52
0.460111,0.0420216,-0.138311,55
0.460377,0.0420126,-0.13749,55
0.460991,0.0419946,-0.136772,61
0.461781,0.0419719,-0.136104,62
0.462166,0.0419598,-0.135315,61
0.462669,0.0419446,-0.13456,65
0.463875,0.0419111,-0.134006,62
0.463504,0.0419187,-0.132996,60
0.464186,0.0418989,-0.132288,62
0.464754,0.041882,-0.131546,62
0.46497,0.0418743,-0.130703,62
0.465657,0.0418543,-0.129992,60
0.466642,0.0418265,-0.129361,66
0.466802,0.0418202,-0.1285,67
0.467733,0.0417938,-0.12785,73
0.467954,0.041786,-0.127004,69
0.468354,0.0417735,-0.126206,67
0.468517,0.0417672,-0.125343,65
0.469695,0.0417343,-0.124751,67
0.46944,0.0417389,-0.123776,71
0.468829,0.0417529,-0.122709,71
0.468816,0.0417512,-0.121801,70
0.469697,0.041726,-0.121125,71
0.469625,0.0417259,-0.120201,72
0.469971,0.0417148,-0.119385,70
0.470378,0.0417021,-0.118583,71
0.470427,0.0416988,-0.117691,74
0.470476,0.0416954,-0.116799,76
0.470706,0.0416874,-0.115952,77
0.471176,0.041673,-0.115164,76
0.470029,0.041701,-0.113981,80
0.47014,0.0416961,-0.113107,79
0.470073,0.0416958,-0.112191,77
0.469529,0.0417081,-0.111162,72
0.469701,0.0417015,-0.110304,78
0.469576,0.0417028,-0.109377,80
0.469095,0.0417134,-0.108368,83
0.468615,0.041724,-0.107362,88
0.468375,0.0417283,-0.106413,97
0.468727,0.041717,-0.1056,102
0.467778,0.0417399,-0.104494,109
0.467717,0.0417395,-0.10359,110
0.467775,0.041736,-0.102712,110
0.468011,0.0417278,-0.101874,105
0.468425,0.0417149,-0.101073,107
0.467775,0.0417299,-0.100044,107
0.467895,0.0417248,-0.0991814,107
0.467661,0.0417289,-0.0982442,116
0.467958,0.0417191,-0.0974193,123
0.46696,0.0417434,-0.096326,115
0.466378,0.0417567,-0.095322,118
0.466499,0.0417515,-0.0944638,107
0.466915,0.0417386,-0.0936646,110
0.465867,0.0417642,-0.0925729,115
0.467104,0.0417296,-0.0919363,123
0.466115,0.0417537,-0.0908607,126
0.466064,0.041753,-0.0899709,127
0.466306,0.0417447,-0.0891379,125
0.4648,0.0417824,-0.0879728,129
0.464519,0.0417878,-0.0870441,128
0.464414,0.0417886,-0.0861494,129
0.464135,0.041794,-0.0852238,124
0.463626,0.0418054,-0.0842577,126
0.463581,0.0418047,-0.0833776,132
0.463941,0.0417932,-0.0825702,136
0.463781,0.0417954,-0.0816704,142
0.463449,0.0418022,-0.0807415,141
0.463349,0.0418029,-0.0798543,137
0.464057,0.0417823,-0.0791059,132
0.463958,0.0417829,-0.0782189,131
0.463513,0.0417927,-0.0772751,138
0.464224,0.041772,-0.076524,138
0.463722,0.0417833,-0.0755729,144
0.464145,0.0417701,-0.0747732,140
0.463991,0.0417722,-0.0738804,139
0.464011,0.0417697,-0.073016,141
0.464321,0.0417596,-0.0721969,139
0.464458,0.041754,-0.0713505,143
0.46448,0.0417515,-0.0704866,149
0.465024,0.0417351,-0.0697012,147
0.464757,0.0417402,-0.0687941,145
0.464839,0.0417361,-0.0679393,141
0.465153,0.0417258,-0.0671182,147
0.465121,0.0417247,-0.0662468,145
0.465205,0.0417206,-0.0653922,152
0.465812,0.0417025,-0.0646103,147
0.4652,0.0417168,-0.0636598,153
0.465286,0.0417125,-0.062806,144
0.465315,0.0417098,-0.0619445,149
0.46546,0.041704,-0.0610986,144
0.46549,0.0417013,-0.0602376,149
0.465695,0.0416939,-0.0593991,150
0.466016,0.0416834,-0.0585748,150
0.465758,0.0416883,-0.0576779,156
0.466896,0.0416562,-0.0569524,158
0.466347,0.0416688,-0.0560205,157
0.466497,0.0416629,-0.0551736,156
0.467056,0.0416461,-0.054374,155
0.467208,0.0416401,-0.053526,155
0.467654,0.0416263,-0.0527107,154
0.467456,0.0416296,-0.051823,154
0.467319,0.0416313,-0.0509428,155
0.467415,0.0416268,-0.0500884,156
0.467396,0.0416254,-0.0492217,151
0.467903,0.04161,-0.0484097,157
0.468119,0.0416023,-0.0475666,157
0.46857,0.0415883,-0.0467463,158
0.469494,0.0415618,-0.0459707,158
0.468772,0.0415791,-0.0450344,161
0.468639,0.0415806,-0.0441563,155
0.4688,0.0415744,-0.043306,155
0.469021,0.0415666,-0.0424607,157
0.469832,0.0415431,-0.0416669,165
0.470173,0.041532,-0.0408297,170
0.470279,0.0415273,-0.0399716,171
0.470681,0.0415146,-0.0391378,173
0.47067,0.0415129,-0.0382694,171
0.470897,0.0415049,-0.0374199,167
0.47148,0.0414875,-0.0365973,171
0.471531,0.0414842,-0.0357327,172
0.471048,0.041495,-0.034829,173
0.471338,0.0414854,-0.0339824,175
0.471925,0.0414678,-0.0331556,180
0.472873,0.0414406,-0.0323513,180
0.473226,0.0414292,-0.0315045,186
0.473102,0.0414305,-0.030626,181
0.473218,0.0414255,-0.0297629,181
0.472916,0.0414316,-0.0288745,180
0.473332,0.0414185,-0.0280293,180
0.47333,0.0414166,-0.027159,182
0.473389,0.0414131,-0.0262922,179
0.473628,0.0414047,-0.0254349,180
0.474049,0.0413916,-0.0245861,184
0.47417,0.0413863,-0.0237211,186
0.474052,0.0413875,-0.0228445,187
0.473935,0.0413887,-0.0219685,189
0.473939,0.0413866,-0.0210983,189
0.474243,0.0413765,-0.0202407,184
0.475331,0.0413455,-0.0194134,189
0.475941,0.0413273,-0.018564,191
0.474801,0.0413557,-0.0176491,192
0.474628,0.0413584,-0.0167717,190
0.474877,0.0413498,-0.0159087,191
0.474105,0.0413684,-0.0150136,190
0.474414,0.0413582,-0.0141526,191
0.474966,0.0413415,-0.013297,198
0.474797,0.0413441,-0.0124214,189
0.475471,0.0413241,-0.011566,194
0.474641,0.0413443,-0.0106761,195
0.473694,0.0413676,-0.00978699,191
0.473469,0.0413717,-0.0089142,199
0.473544,0.0413677,-0.00804703,197
0.473559,0.0413654,-0.00717879,195
0.473336,0.0413694,-0.00630764,195
0.473353,0.0413669,-0.00543981,205
0.47361,0.0413581,-0.00457394,204
0.473569,0.0413573,-0.00370519,205
0.47323,0.0413644,-0.00283521,201
0.472772,0.0413747,-0.00196615,202
0.472316,0.0413849,-0.0010988,204
0.472695,0.0413728,-0.000232397,207
0.473016,0.0413623,0.000635254,206
0.472562,0.0413725,0.00150056,206
0.472407,0.0413747,0.00236613,204
0.472491,0.0413705,0.00323312,204
0.472397,0.041371,0.00409865,202
0.472245,0.0413732,0.00496317,205
0.472033,0.0413769,0.00582634,210
0.471942,0.0413774,0.00669065,208
0.472089,0.0413715,0.00755886,209
0.47188,0.0413751,0.00842076,211
0.471613,0.0413803,0.00928071,210
0.471703,0.041376,0.010148,213
0.470904,0.0413955,0.0109935,211
0.470936,0.0413927,0.0118583,214
0.471442,0.0413771,0.012737,213
0.471535,0.0413727,0.013605,215
0.471509,0.0413714,0.0144696,214
0.471307,0.0413749,0.0153282,212
0.47075,0.0413879,0.0161733,209
0.470019,0.0414056,0.0170098,206
0.46882,0.0414358,0.0178252,208
0.468975,0.0414297,0.0186925,210
0.468427,0.0414425,0.01953,207
0.468114,0.041449,0.0203762,205
0.467803,0.0414554,0.0212215,207
0.467492,0.0414618,0.0220658,203
0.467591,0.0414572,0.0229299,201
0.467749,0.0414511,0.0237976,204
0.467324,0.0414605,0.0246343,203
0.467192,0.0414622,0.025486,201
0.467003,0.0414653,0.0263341,193
0.466814,0.0414685,0.0271816,189
0.466917,0.0414638,0.0280468,189
0.466729,0.0414669,0.0288939,200
0.466892,0.0414606,0.0297635,194
0.466997,0.0414558,0.0306301,197
0.466986,0.0414541,0.0314891,198
0.466918,0.041454,0.0323442,199
0.467142,0.041446,0.0332206,201
0.467367,0.041438,0.0340982,203
0.467067,0.0414442,0.0349364,203
0.466885,0.0414471,0.035783,198
0.466996,0.0414422,0.0366527,201
0.467165,0.0414357,0.0375279,199
0.467218,0.0414323,0.0383942,196
0.467214,0.0414305,0.0392559,193
0.467327,0.0414255,0.0401282,192
0.46785,0.0414094,0.0410381,192
0.46779,0.0414091,0.0418965,195
0.468022,0.0414009,0.0427825,195
0.468608,0.0413831,0.0437033,193
0.46808,0.0413954,0.044518,193
0.468962,0.0413696,0.045471,197
0.469022,0.0413661,0.0463445,195
0.468966,0.0413656,0.0472064,188
0.469971,0.0413365,0.0481799,193
0.469975,0.0413344,0.0490504,191
0.470098,0.0413291,0.0499341,195
0.469394,0.0413462,0.0507272,197
0.47005,0.0413265,0.0516708,194
0.470116,0.0413228,0.0525498,191
0.4703,0.0413158,0.0534431,194
0.470486,0.0413088,0.0543376,191
0.470733,0.0413002,0.0552403,191
0.470742,0.0412979,0.0561154,193
0.470812,0.0412941,0.0569984,191
0.470823,0.0412918,0.0578745,190
0.470894,0.0412879,0.0587588,194
0.471025,0.0412824,0.0596513,192
0.471217,0.0412752,0.0605527,194
0.471231,0.0412728,0.0614315,190
0.471484,0.041264,0.0623429,191
0.471857,0.0412519,0.0632721,191
0.471933,0.0412479,0.0641619,192
0.472788,0.0412227,0.0651618,196
0.473406,0.041204,0.0661316,193
0.474027,0.0411851,0.0671045,194
0.473384,0.0412006,0.0678953,199
0.47455,0.041167,0.0689519,199
0.475055,0.0411512,0.0699143,203
0.474714,0.0411585,0.0707504,199
0.474373,0.0411657,0.0715858,193
0.474699,0.0411549,0.0725239,195
0.475208,0.0411391,0.0734926,195
0.475536,0.0411282,0.0744349,196
0.475683,0.0411222,0.0753495,193
0.475588,0.0411227,0.0762256,192
0.476468,0.0410968,0.0772628,190
0.476069,0.0411056,0.0780902,190
0.477872,0.0410546,0.0792885,189
0.47784,0.0410535,0.0801806,186
0.477257,0.0410673,0.0809779,185
0.478025,0.0410444,0.0820093,184
0.478549,0.0410281,0.0830011,189
0.479014,0.0410134,0.0839848,187
0.479109,0.0410088,0.084904,190
0.479391,0.0409991,0.0858581,187
0.47955,0.0409927,0.0867912,187
0.479958,0.0409796,0.0877716,186
0.480119,0.0409732,0.0887077,181
0.480095,0.0409718,0.0896097,179
0.480631,0.0409552,0.0906196,177
0.481231,0.0409368,0.0916445,172
0.481771,0.04092,0.0926604,173
0.482,0.0409117,0.0936175,169
0.481729,0.040917,0.0944761,169
0.482461,0.040895,0.0955364,165
0.482505,0.0408918,0.0964599,163
0.483115,0.0408731,0.0975005,162
0.483034,0.0408732,0.0984008,158
0.483711,0.0408527,0.0994597,161
0.483568,0.0408545,0.100349,164
0.484248,0.0408339,0.101413,164
0.484107,0.0408357,0.102304,161
0.484219,0.0408305,0.10325,159
0.484269,0.0408271,0.104184,158
0.484256,0.0408254,0.105104,157
0.484942,0.0408045,0.106181,163
0.485376,0.0407906,0.107204,167
0.484984,0.0407992,0.108042,170
0.48542,0.0407852,0.109068,173
0.485155,0.0407904,0.109936,171
0.485913,0.0407676,0.11104,168
0.485202,0.0407849,0.111804,164
0.485323,0.0407795,0.112763,168
0.485571,0.0407706,0.113752,166
0.485566,0.0407687,0.114683,164
0.485752,0.0407615,0.11566,163
0.485748,0.0407595,0.116592,156
0.485169,0.0407732,0.117384,157
0.485038,0.0407747,0.118285,159
0.484844,0.0407779,0.119171,157
0.484078,0.0407967,0.119912,157
0.484267,0.0407894,0.120894,161
0.483884,0.0407978,0.12173,164
0.483123,0.0408165,0.122469,164
0.48344,0.0408057,0.123484,165
0.48306,0.040814,0.12432,170
0.482808,0.0408188,0.125188,176
0.482304,0.0408305,0.125989,180
0.481991,0.040837,0.12684,185
0.481805,0.04084,0.127725,183
0.481682,0.0408412,0.128626,185
0.481623,0.0408407,0.129546,185
0.481187,0.0408505,0.130362,186
0.479998,0.040881,0.130969,189
0.47894,0.0409079,0.131608,186
0.478821,0.0409091,0.132507,187
0.478454,0.040917,0.133337,187
0.478087,0.040925,0.134166,183
0.477721,0.0409329,0.134994,187
0.477481,0.0409374,0.135858,186
0.476497,0.0409623,0.136506,186
0.475518,0.0409871,0.137152,185
0.475527,0.0409847,0.138085,187
0.475414,0.0409857,0.138984,185
0.47487,0.0409985,0.139754,187
0.474021,0.0410198,0.140431,182
0.47348,0.0410325,0.141198,187
0.473492,0.0410301,0.142133,186
0.471918,0.0410712,0.142582,188
0.471626,0.0410772,0.143421,182
0.471092,0.0410897,0.144185,183
0.471044,0.0410889,0.145099,182
0.470452,0.0411031,0.145842,178
0.469319,0.0411322,0.146414,175
0.468731,0.0411463,0.147154,181
0.468385,0.0411537,0.147971,181
0.46792,0.0411644,0.148749,177
0.467815,0.0411652,0.149642,177
0.467352,0.0411758,0.150418,176
0.46683,0.0411881,0.151175,172
0.467144,0.0411774,0.152206,173
0.466982,0.0411797,0.153081,167
0.465748,0.0412116,0.153598,169
0.465705,0.0412107,0.154511,170
0.465307,0.0412196,0.155305,176
0.464673,0.041235,0.156017,171
0.464336,0.0412421,0.15683,170
0.46471,0.0412297,0.157886,170
0.464374,0.0412369,0.158699,170
0.463979,0.0412457,0.159492,162
0.463645,0.0412528,0.160304,164
0.464078,0.0412388,0.161386,168
0.463804,0.0412442,0.16222,168
0.463529,0.0412497,0.163054,161
0.462902,0.0412649,0.163762,159
0.463455,0.0412475,0.164892,154
0.462887,0.0412611,0.16562,153
0.462321,0.0412746,0.166347,149
0.462226,0.0412751,0.167245,155
0.462721,0.0412594,0.16836,146
0.462568,0.0412615,0.169239,153
0.462357,0.0412652,0.170096,158
0.462087,0.0412706,0.170931,159
0.462171,0.0412661,0.171899,152
0.462491,0.0412551,0.172958,155
0.461928,0.0412686,0.173683,150
0.463313,0.0412282,0.175151,148
0.462335,0.0412531,0.175717,144
0.461949,0.0412616,0.17651,142
0.461447,0.0412734,0.177256,139
0.461181,0.0412786,0.178093,137
0.461857,0.0412578,0.1793,141
0.461886,0.0412549,0.180255,139
0.461326,0.0412682,0.180978,130
0.46165,0.0412571,0.182051,126
0.462271,0.0412378,0.183246,120
0.462006,0.041243,0.184088,115
0.462333,0.0412318,0.185168,116
0.462187,0.0412337,0.186059,113
0.461865,0.0412405,0.186878,114
0.461602,0.0412456,0.187721,116
0.461634,0.0412426,0.188685,116
0.462675,0.0412116,0.19007,116
0.462828,0.0412052,0.191089,112
0.462565,0.0412103,0.191935,112
0.462957,0.0411973,0.193057,111
0.462101,0.0412189,0.193654,111
0.46279,0.0411976,0.194905,117
0.462351,0.0412076,0.195677,120
0.462685,0.0411962,0.196781,118
0.462009,0.0412128,0.197451,130
0.462641,0.0411931,0.198686,127
0.463156,0.0411766,0.199875,124
0.463493,0.041165,0.200988,112
0.463473,0.0411634,0.201947,116
0.464172,0.0411418,0.203224,114
0.463613,0.0411551,0.203947,115
0.463534,0.0411551,0.204882,117
0.464356,0.0411301,0.206222,119
0.463737,0.0411451,0.206917,117
0.464742,0.041115,0.208346,117
0.453614,0.0459253,-0.215781,7
0.450753,0.0459742,-0.213465,3
0.45144,0.0459598,-0.212837,6
0.454717,0.0458991,-0.213424,5
0.45031,0.0459757,-0.210403,8
0.450315,0.0459735,-0.209457,5
0.450774,0.0459631,-0.208722,5
0.447288,0.0460233,-0.206165,4
0.447798,0.0460121,-0.20546,4
0.446633,0.0460308,-0.203988,7
0.446863,0.0460246,-0.203157,7
0.447876,0.0460043,-0.20268,7
0.445382,0.0460469,-0.200618,9
0.444839,0.0460545,-0.199444,7
0.442273,0.0460984,-0.197369,5
0.44272,0.0460883,-0.196645,7
0.443442,0.0460733,-0.196042,8
0.445487,0.0460345,-0.19602,6
0.442592,0.0460844,-0.193824,8
0.440706,0.0461161,-0.192082,11
0.44126,0.0461041,-0.191407,9
0.441652,0.046095,-0.190662,11
0.439939,0.0461237,-0.18901,7
0.444076,0.0460474,-0.18987,10
0.441261,0.0460959,-0.187753,14
0.440682,0.0461042,-0.186596,9
0.440321,0.0461086,-0.185534,10
0.440336,0.0461063,-0.184633,8
0.4417,0.0460797,-0.184295,10
0.440961,0.046091,-0.183079,11
0.442057,0.0460692,-0.182626,8
0.442128,0.0460659,-0.181747,8
0.440635,0.0460907,-0.180228,9
0.443736,0.0460328,-0.180588,8
0.440831,0.0460831,-0.178501,8
0.441442,0.0460701,-0.177845,10
0.442811,0.0460434,-0.177492,10
0.443862,0.0460224,-0.177007,12
0.444753,0.0460043,-0.176455,9
0.444171,0.0460127,-0.175318,13
0.444463,0.0460054,-0.174528,16
0.444919,0.0459951,-0.173802,18
0.444121,0.0460075,-0.172586,17
0.444631,0.0459962,-0.171881,20
0.445253,0.045983,-0.171218,19
0.445,0.0459855,-0.170218,27
0.445677,0.0459712,-0.169574,22
0.445207,0.0459777,-0.168493,22
0.445885,0.0459634,-0.167848,23
0.446674,0.0459471,-0.167243,26
0.447412,0.0459317,-0.166616,26
0.44628,0.0459502,-0.165294,30
0.446687,0.0459408,-0.164544,26
0.44704,0.0459323,-0.163774,28
0.447504,0.0459219,-0.163043,28
0.447969,0.0459115,-0.162312,23
0.448048,0.045908,-0.161441,28
0.448681,0.0458945,-0.160768,29
0.449592,0.045876,-0.160194,23
0.448454,0.0458945,-0.158889,24
0.449144,0.04588,-0.158234,32
0.449502,0.0458715,-0.157462,34
0.450473,0.0458519,-0.156902,33
0.451448,0.0458321,-0.15634,32
0.450248,0.0458519,-0.155026,44
0.451,0.0458362,-0.154386,42
0.452089,0.0458144,-0.153858,40
0.452678,0.0458017,-0.153158,38
0.452538,0.0458022,-0.15221,37
0.454368,0.0457669,-0.151924,33
0.453101,0.0457879,-0.1506,32
0.454088,0.0457679,-0.150028,39
0.454117,0.0457654,-0.149137,37
0.45443,0.0457576,-0.14834,39
0.455026,0.0457448,-0.147634,38
0.455908,0.0457267,-0.147019,35
0.457079,0.0457033,-0.146494,42
0.456142,0.0457184,-0.145293,46
0.457542,0.0456908,-0.144837,50
0.457232,0.0456944,-0.143837,53
0.457894,0.0456803,-0.143144,53
0.458673,0.0456641,-0.142485,49
0.459109,0.0456541,-0.141717,46
0.4592,0.0456504,-0.140843,49
0.460273,0.0456288,-0.140269,47
0.459731,0.0456367,-0.139201,52
0.460286,0.0456245,-0.138467,51
0.460958,0.0456102,-0.137767,55
0.461516,0.045598,-0.13703,60
0.461611,0.0455942,-0.136155,55
0.46223,0.0455809,-0.135435,59
0.4625,0.0455739,-0.134611,58
0.463883,0.0455466,-0.134108,58
0.464567,0.0455321,-0.1334,55
0.464547,0.0455304,-0.132489,60
0.465234,0.0455158,-0.131779,64
0.466988,0.0454816,-0.131369,66
0.467861,0.0454636,-0.130705,60
0.468021,0.0454586,-0.12984,62
0.468301,0.0454515,-0.129008,63
0.468224,0.0454508,-0.128078,71
0.468684,0.0454404,-0.127296,72
0.469145,0.0454299,-0.126512,75
0.46889,0.0454325,-0.125535,69
0.469892,0.0454121,-0.124895,70
0.469817,0.0454114,-0.123966,70
0.470282,0.0454008,-0.12318,69
0.470508,0.0453946,-0.122331,72
0.470314,0.0453961,-0.121373,78
0.470962,0.0453822,-0.120632,80
0.47119,0.045376,-0.119783,76
0.470696,0.045383,-0.11875,72
0.471528,0.0453657,-0.118053,75
0.470854,0.045376,-0.116979,74
0.471024,0.0453708,-0.116116,75
0.471015,0.045369,-0.115208,76
0.471246,0.0453627,-0.114361,77
0.470757,0.0453696,-0.113339,76
0.470869,0.0453655,-0.112463,76
0.470142,0.0453768,-0.111389,76
0.469896,0.0453793,-0.110431,78
0.469592,0.0453829,-0.10946,78
0.469288,0.0453865,-0.108492,80
0.469105,0.0453878,-0.107554,84
0.468982,0.0453881,-0.10663,90
0.468623,0.0453927,-0.105653,91
0.468679,0.0453896,-0.104772,92
0.46844,0.045392,-0.103826,89
0.468202,0.0453944,-0.102881,103
0.468083,0.0453946,-0.101964,109
0.467846,0.0453969,-0.101022,110
0.467787,0.045396,-0.10012,104
0.467907,0.0453918,-0.0992567,107
0.467436,0.0453984,-0.098269,105
0.466674,0.0454105,-0.0972226,114
0.467265,0.0453976,-0.0964598,114
0.467269,0.0453955,-0.0955747,119
0.46692,0.0454,-0.0946186,117
0.46722,0.0453924,-0.0937947,121
0.466462,0.0454045,-0.0927594,117
0.465765,0.0454153,-0.0917398,122
0.465714,0.0454143,-0.0908493,124
0.465254,0.0454208,-0.0898806,128
0.464564,0.0454316,-0.0888698,134
0.464341,0.0454337,-0.0879508,138
0.464293,0.0454327,-0.0870659,132
0.464245,0.0454316,-0.0861817,134
0.464198,0.0454305,-0.0852984,131
0.463747,0.0454368,-0.084342,128
0.463412,0.0454411,-0.0834088,130
0.463367,0.0454399,-0.082529,126
0.464017,0.0454259,-0.0817724,123
0.463684,0.0454301,-0.0808422,130
0.464685,0.0454096,-0.0801438,135
0.464526,0.0454106,-0.0792443,137
0.464833,0.0454029,-0.0784243,134
0.464443,0.0454082,-0.0774874,136
0.465041,0.0453951,-0.0767154,133
0.464827,0.0453971,-0.075809,133
0.465078,0.0453905,-0.0749788,137
0.464865,0.0453925,-0.0740742,135
0.465001,0.045388,-0.0732257,136
0.465022,0.0453857,-0.0723592,140
0.465334,0.0453779,-0.0715377,140
0.465472,0.0453734,-0.0706891,140
0.465437,0.0453721,-0.0698143,141
0.465169,0.0453751,-0.0689057,143
0.465309,0.0453705,-0.0680581,141
0.465392,0.045367,-0.0672019,142
0.465941,0.0453548,-0.0664123,142
0.466901,0.045335,-0.0656787,144
0.466285,0.0453445,-0.0647234,145
0.466137,0.0453453,-0.0638347,146
0.466749,0.045332,-0.0630494,147
0.466544,0.0453338,-0.0621535,149
0.466982,0.0453237,-0.0613431,150
0.467363,0.0453146,-0.060524,158
0.467335,0.0453132,-0.0596517,154
0.467016,0.0453172,-0.0587431,155
0.467809,0.0453004,-0.0579738,151
0.468077,0.0452935,-0.0571377,155
0.467406,0.045304,-0.0561885,151
0.46744,0.0453014,-0.0553253,152
0.467475,0.0452988,-0.0544623,151
0.467803,0.0452907,-0.0536331,151
0.468427,0.0452771,-0.052836,153
0.468464,0.0452745,-0.0519721,158
0.46909,0.0452608,-0.0511724,154
0.468716,0.0452659,-0.0502638,164
0.469344,0.0452522,-0.0494621,162
0.470034,0.0452373,-0.0486646,161
0.470133,0.0452335,-0.0478051,163
0.470412,0.0452263,-0.0469632,166
0.470039,0.0452313,-0.0460571,162
0.469845,0.045233,-0.0451697,160
0.470421,0.0452203,-0.0443554,165
0.470465,0.0452175,-0.0434904,169
0.470569,0.0452136,-0.0426309,171
0.470614,0.0452108,-0.041766,171
0.471433,0.0451935,-0.0409679,171
0.471004,0.0451995,-0.0400617,172
0.470518,0.0452067,-0.0391525,173
0.47116,0.0451927,-0.0383364,172
0.471387,0.0451865,-0.0374855,173
0.472271,0.0451679,-0.0366845,173
0.472382,0.0451639,-0.0358222,173
0.472732,0.0451554,-0.0349774,174
0.473024,0.0451479,-0.0341272,175
0.473197,0.0451427,-0.0332678,176
0.473011,0.0451442,-0.0323837,176
0.473245,0.0451379,-0.0315282,182
0.4736,0.0451292,-0.0306796,182
0.473777,0.0451239,-0.0298188,179
0.474194,0.0451141,-0.0289721,176
0.473711,0.0451212,-0.0280713,181
0.473529,0.0451227,-0.0271895,179
0.473589,0.0451196,-0.0263218,182
0.473949,0.0451109,-0.0254698,184
0.476668,0.0450577,-0.0247371,134
0.474251,0.0451012,-0.0237418,192
0.476186,0.0450629,-0.0229615,192
0.474316,0.0450961,-0.0220012,189
0.475103,0.0450793,-0.0211638,184
0.474685,0.0450852,-0.0202734,178
0.47451,0.0450865,-0.0193942,185
0.47536,0.0450685,-0.0185548,181
0.475427,0.0450653,-0.017684,184
0.475313,0.0450655,-0.0168068,185
0.475261,0.0450645,-0.0159322,185
0.474968,0.045068,-0.0150504,182
0.474978,0.0450659,-0.0141786,194
0.474085,0.0450808,-0.0132824,192
0.473437,0.045091,-0.0123958,188
0.473329,0.0450911,-0.0115242,189
0.473401,0.0450878,-0.0106568,193
0.473175,0.0450901,-0.00978349,199
0.472711,0.0450969,-0.00890682,203
0.472666,0.0450958,-0.00803853,203
0.472503,0.0450969,-0.00716879,203
0.47234,0.045098,-0.0062997,201
0.472119,0.0451003,-0.00543064,202
0.472136,0.045098,-0.00456442,204
0.472274,0.0450934,-0.00369894,204
0.471996,0.0450967,-0.00283101,204
0.472135,0.0450921,-0.00196531,203
0.471977,0.0450932,-0.0010988,204
0.47176,0.0450953,-0.000232916,205
0.471902,0.0450907,0.000633143,206
0.471865,0.0450894,0.00149893,209
0.47171,0.0450904,0.00236383,206
0.471378,0.0450947,0.00322672,202
0.471285,0.0450946,0.00409082,202
0.471133,0.0450955,0.00495391,203
0.471219,0.0450919,0.00581976,203
0.47089,0.0450962,0.00667948,206
0.472464,0.0450644,0.0075714,207
0.471481,0.0450811,0.00841961,206
0.471333,0.0450819,0.00928197,209
0.471185,0.0450828,0.0101439,207
0.471275,0.0450791,0.0110112,207
0.471189,0.0450788,0.0118742,209
0.470865,0.045083,0.0127302,204
0.470839,0.0450815,0.0135942,207
0.470577,0.0450846,0.0144504,204
0.468725,0.0451178,0.0152514,208
0.468643,0.0451174,0.0161095,207
0.468092,0.045126,0.0169496,208
0.467836,0.0451289,0.0177995,206
0.468049,0.0451229,0.0186681,207
0.467619,0.0451291,0.0195096,205
0.467248,0.0451343,0.0203524,207
0.466937,0.0451382,0.0211967,204
0.466861,0.0451378,0.0220515,203
0.466843,0.0451362,0.0229091,200
0.46636,0.0451434,0.0237423,197
0.466344,0.0451418,0.0245993,197
0.466212,0.0451424,0.0254499,200
0.466546,0.0451341,0.0263273,197
0.466532,0.0451324,0.0271851,198
0.466402,0.0451329,0.0280359,194
0.465808,0.0451423,0.0288568,192
0.466145,0.045134,0.0297367,194
0.466657,0.0451222,0.0306301,199
0.466821,0.0451172,0.0315013,199
0.466695,0.0451176,0.0323525,199
0.467035,0.0451092,0.0332377,198
0.46691,0.0451096,0.0340894,200
0.466961,0.0451067,0.0349544,204
0.466954,0.0451049,0.0358152,203
0.467006,0.045102,0.0366809,204
0.46735,0.0450935,0.0375713,197
0.467404,0.0450905,0.0384385,199
0.467575,0.0450853,0.0393164,192
0.468569,0.0450643,0.0402676,194
0.468331,0.0450669,0.0411119,198
0.468388,0.0450639,0.0419827,198
0.468798,0.045054,0.042887,194
0.469033,0.0450476,0.0437764,194
0.469683,0.0450332,0.0447073,195
0.469743,0.0450301,0.0455823,192
0.47004,0.0450224,0.0464819,195
0.470043,0.0450204,0.0473524,194
0.470105,0.0450173,0.0482295,193
0.469991,0.0450175,0.0490883,195
0.470232,0.0450109,0.0499856,196
0.470356,0.0450065,0.0508711,198
0.4706,0.0449999,0.0517708,196
0.470785,0.0449944,0.052665,198
0.471209,0.0449843,0.053588,197
0.471336,0.0449799,0.0544779,193
0.471882,0.0449674,0.0554188,194
0.471117,0.0449801,0.0562023,192
0.471485,0.0449711,0.0571235,196
0.472213,0.0449551,0.0580916,195
0.472046,0.0449563,0.0589486,196
0.472777,0.0449403,0.0599217,198
0.474055,0.0449137,0.0609694,196
0.473527,0.0449219,0.061782,195
0.473181,0.0449266,0.0626176,195
0.473739,0.0449138,0.0635758,193
0.47448,0.0448976,0.0645621,196
0.474256,0.0448999,0.0654157,195
0.474455,0.0448941,0.0663292,194
0.474474,0.0448917,0.0672178,194
0.474797,0.0448835,0.0681513,193
0.474757,0.0448823,0.0690326,191
0.474839,0.0448787,0.0699325,192
0.475225,0.0448692,0.0708793,192
0.475795,0.0448562,0.0718563,196
0.476489,0.0448408,0.0728552,197
0.476697,0.0448348,0.0737805,195
0.476967,0.0448276,0.0747169,196
0.478037,0.0448049,0.0757838,193
0.477818,0.0448071,0.0766448,189
0.477846,0.0448046,0.0775461,191
0.47849,0.0447901,0.078551,192
0.478581,0.0447863,0.0794653,190
0.478549,0.0447849,0.0803594,187
0.479074,0.0447727,0.0813501,183
0.479354,0.0447653,0.0823002,189
0.480131,0.0447483,0.0833398,185
0.480662,0.0447359,0.0843389,185
0.481258,0.0447224,0.0853522,179
0.481606,0.0447136,0.0863231,175
0.481579,0.0447121,0.0872268,172
0.481804,0.0447057,0.0881776,171
0.482092,0.044698,0.0891418,171
0.482131,0.0446952,0.0900601,172
0.482295,0.04469,0.0910033,170
0.482713,0.0446798,0.0919965,166
0.484459,0.0446439,0.0932518,164
0.483426,0.0446619,0.0939653,166
0.484037,0.044648,0.0950034,165
0.485096,0.0446254,0.0961344,162
0.484252,0.0446397,0.0968832,163
0.48417,0.0446392,0.0977857,159
0.484977,0.0446215,0.0988727,159
0.485151,0.044616,0.0998309,162
0.485964,0.0445981,0.100925,162
0.485438,0.0446063,0.101738,161
0.486254,0.0445883,0.102837,159
0.486625,0.0445791,0.103844,157
0.486163,0.0445859,0.104671,156
0.486663,0.0445741,0.105709,161
0.486523,0.0445747,0.106607,162
0.486704,0.0445691,0.107577,160
0.487144,0.0445585,0.108606,162
0.487134,0.0445566,0.109536,166
0.487254,0.0445521,0.110496,166
0.486795,0.0445589,0.111323,162
0.486595,0.0445607,0.112209,158
0.486524,0.04456,0.113125,151
0.486389,0.0445605,0.114027,151
0.487091,0.0445448,0.115129,150
0.48715,0.0445415,0.116079,151
0.487017,0.044542,0.116983,156
0.486821,0.0445437,0.117872,154
0.486689,0.0445441,0.118777,157
0.486044,0.0445546,0.119554,162
0.485465,0.0445638,0.120345,164
0.485592,0.0445592,0.121314,172
0.4854,0.0445608,0.122203,175
0.485144,0.0445637,0.123075,178
0.485017,0.044564,0.12398,180
0.48457,0.0445706,0.124802,180
0.484062,0.0445784,0.125606,186
0.484128,0.044575,0.126562,186
0.483494,0.0445853,0.127331,186
0.482228,0.0446079,0.127929,183
0.482168,0.044607,0.128849,183
0.481793,0.0446122,0.129684,184
0.481356,0.0446186,0.1305,183
0.480479,0.0446336,0.131195,184
0.480359,0.0446339,0.132097,184
0.479173,0.044655,0.1327,183
0.478492,0.0446662,0.133443,187
0.478187,0.04467,0.13429,190
0.477634,0.0446788,0.135065,184
0.477331,0.0446826,0.135912,183
0.475914,0.0447082,0.136434,188
0.476232,0.0446999,0.137459,191
0.475438,0.0447133,0.138158,190
0.474646,0.0447267,0.138856,189
0.474349,0.0447305,0.139699,189
0.473868,0.0447378,0.140486,183
0.473756,0.0447379,0.141383,182
0.473522,0.0447404,0.142244,179
0.472494,0.0447584,0.142862,181
0.471958,0.0447669,0.143627,184
0.471179,0.04478,0.144317,185
0.47101,0.0447813,0.145194,178
0.470417,0.0447908,0.145937,184
0.470491,0.0447872,0.146891,180
0.470566,0.0447837,0.147845,186
0.468949,0.0448133,0.148259,176
0.468603,0.0448181,0.149077,177
0.468257,0.0448228,0.149894,175
0.468153,0.0448227,0.150789,176
0.467748,0.0448286,0.151587,176
0.467166,0.0448379,0.152324,174
0.467182,0.0448355,0.153259,175
0.46696,0.0448378,0.154115,176
0.466978,0.0448353,0.155052,172
0.465682,0.0448587,0.155546,176
0.465046,0.0448692,0.156259,169
0.465243,0.0448632,0.157256,172
0.464846,0.0448689,0.158049,177
0.464569,0.0448723,0.158884,169
0.46441,0.0448733,0.159759,167
0.464609,0.0448673,0.16076,163
0.464392,0.0448695,0.161616,158
0.464294,0.0448693,0.162514,163
0.464138,0.0448703,0.163391,158
0.463686,0.0448771,0.164163,158
0.464301,0.0448628,0.165318,159
0.464265,0.0448614,0.166241,149
0.463813,0.0448682,0.167013,141
0.463837,0.0448656,0.167958,144
0.463268,0.0448748,0.168686,142
0.463056,0.0448768,0.169545,149
0.46314,0.0448731,0.170513,146
0.463818,0.0448576,0.171705,145
0.463725,0.0448573,0.172611,145
0.463573,0.0448581,0.173495,145
0.463125,0.0448649,0.174267,133
0.463093,0.0448634,0.175196,138
0.463239,0.0448584,0.176195,138
0.463505,0.044851,0.177241,134
0.464188,0.0448353,0.178452,134
0.463028,0.0448562,0.178946,136
0.463294,0.0448487,0.179997,130
0.463622,0.0448401,0.181073,127
0.463414,0.0448421,0.18194,120
0.463266,0.0448429,0.18283,123
0.462941,0.0448472,0.18365,124
0.46315,0.0448409,0.184684,123
0.462707,0.0448475,0.185456,115
0.462798,0.0448436,0.186445,122
0.46295,0.0448384,0.18746,120
0.463639,0.0448226,0.188697,118
