ply
format ascii 1.0
comment Created by CloudCompare v2.11 alpha (Anoia)
comment Created 2025/12/9 17:47
obj_info Generated by CloudCompare!
element vertex 1430
property float x
property float y
property float z
property float scalar_Scalar_field
end_header
0.315129 -0.686562 0.076921 206 
0.315285 -0.686652 0.0777986 209 
0.314997 -0.686493 0.0786114 206 
0.314808 -0.68639 0.0794383 207 
0.315213 -0.686619 0.0803551 210 
0.315174 -0.686598 0.0812054 211 
0.31287 -0.685317 0.0817015 210 
0.312587 -0.685161 0.0825087 208 
0.31255 -0.685142 0.0833545 210 
0.312366 -0.685042 0.0841766 210 
0.312281 -0.684996 0.0850146 213 
0.312294 -0.685005 0.0858691 216 
0.310314 -0.683904 0.0863865 219 
0.310038 -0.683752 0.0871878 218 
0.309762 -0.6836 0.0879886 217 
0.309536 -0.683477 0.0887971 219 
0.309358 -0.683379 0.0896138 217 
0.309133 -0.683256 0.0904215 215 
0.30795 -0.682598 0.0910541 214 
0.30725 -0.682211 0.0917711 217 
0.306933 -0.682036 0.0925569 219 
0.306903 -0.682021 0.0933959 220 
0.306968 -0.682059 0.0942534 219 
0.306558 -0.681833 0.0950199 216 
0.306244 -0.68166 0.0958038 217 
0.305789 -0.681408 0.0965589 215 
0.30543 -0.68121 0.0973316 216 
0.304177 -0.680514 0.097923 218 
0.303822 -0.680318 0.0986923 217 
0.303608 -0.680201 0.0994896 215 
0.303441 -0.68011 0.100296 216 
0.303462 -0.680124 0.101142 214 
0.302829 -0.679774 0.10185 215 
0.30192 -0.679268 0.102496 215 
0.301061 -0.678791 0.103149 213 
0.300899 -0.678703 0.103952 211 
0.300598 -0.678537 0.104724 210 
0.300483 -0.678475 0.105536 207 
0.300276 -0.678362 0.106328 204 
0.299701 -0.678043 0.107035 202 
0.298808 -0.677547 0.107668 208 
0.298558 -0.67741 0.108446 205 
0.298309 -0.677273 0.109224 206 
0.298152 -0.677188 0.110023 203 
0.297721 -0.67695 0.110756 203 
0.29752 -0.676839 0.111544 203 
0.297092 -0.676602 0.112276 203 
0.2973 -0.676721 0.113162 202 
0.297054 -0.676586 0.113938 203 
0.2969 -0.676502 0.114736 199 
0.295932 -0.675964 0.115329 196 
0.29587 -0.675932 0.116148 192 
0.295628 -0.675799 0.116922 189 
0.295656 -0.675817 0.117765 195 
0.29528 -0.675609 0.118503 192 
0.295084 -0.675502 0.119287 192 
0.295069 -0.675496 0.120119 190 
0.295144 -0.675541 0.120976 189 
0.295265 -0.67561 0.121846 190 
0.295206 -0.675579 0.122668 191 
0.295148 -0.675548 0.12349 187 
0.29509 -0.675518 0.124313 189 
0.294942 -0.675438 0.125112 192 
0.295065 -0.675509 0.125986 186 
0.295144 -0.675555 0.126848 186 
0.295223 -0.675601 0.127712 182 
0.295212 -0.675597 0.128551 185 
0.295427 -0.675719 0.129456 181 
0.295417 -0.675716 0.130297 185 
0.295634 -0.675839 0.131205 188 
0.295851 -0.675963 0.132115 186 
0.296069 -0.676086 0.133026 185 
0.296015 -0.676059 0.133858 184 
0.296053 -0.676082 0.134717 183 
0.296 -0.676054 0.13555 184 
0.296084 -0.676103 0.136425 188 
0.296168 -0.676153 0.137301 184 
0.296344 -0.676253 0.138206 179 
0.296429 -0.676303 0.139085 177 
0.296469 -0.676327 0.139951 184 
0.296738 -0.676479 0.14089 182 
0.296597 -0.676403 0.141699 183 
0.296775 -0.676506 0.142612 185 
0.297046 -0.676658 0.143556 185 
0.297547 -0.676941 0.144578 183 
0.297958 -0.677171 0.145572 179 
0.297083 -0.676685 0.146143 186 
0.297908 -0.677148 0.147278 175 
0.298413 -0.677432 0.14831 177 
0.298366 -0.677408 0.149158 177 
0.298412 -0.677436 0.150038 180 
0.29906 -0.6778 0.151125 182 
0.298828 -0.677673 0.151913 186 
0.298921 -0.677727 0.152813 182 
0.299015 -0.677782 0.153714 183 
0.299575 -0.678096 0.15478 184 
0.29953 -0.678073 0.155636 184 
0.299439 -0.678025 0.156475 180 
0.299628 -0.678133 0.157416 181 
0.300005 -0.678346 0.158425 174 
0.299822 -0.678245 0.159234 179 
0.300246 -0.678484 0.160265 177 
0.30011 -0.678411 0.161092 181 
0.30049 -0.678625 0.16211 182 
0.300777 -0.678787 0.163096 181 
0.301394 -0.679134 0.164208 177 
0.301542 -0.679219 0.165147 174 
0.301313 -0.679093 0.165944 175 
0.301887 -0.679416 0.167047 177 
0.301894 -0.679422 0.167936 177 
0.302281 -0.679641 0.168973 173 
0.302622 -0.679833 0.169994 177 
0.302631 -0.679841 0.170887 173 
0.302878 -0.679981 0.171875 172 
0.303126 -0.680122 0.172866 171 
0.303662 -0.680423 0.173972 169 
0.303768 -0.680485 0.174911 172 
0.304163 -0.680708 0.175966 178 
0.303983 -0.680609 0.176792 175 
0.304379 -0.680833 0.177852 176 
0.304584 -0.68095 0.178836 174 
0.305176 -0.681282 0.179981 168 
0.304851 -0.681103 0.180751 169 
0.305203 -0.681302 0.181801 165 
0.305798 -0.681637 0.182956 163 
0.305765 -0.681621 0.18385 158 
0.306509 -0.682039 0.185073 161 
0.307111 -0.682377 0.18624 165 
0.307127 -0.682388 0.187161 164 
0.307193 -0.682427 0.188103 156 
0.307651 -0.682687 0.189217 163 
0.308013 -0.68289 0.190291 163 
0.308327 -0.683068 0.191347 162 
0.309037 -0.683466 0.192579 153 
0.309353 -0.683645 0.193642 156 
0.309274 -0.683604 0.194531 149 
0.309592 -0.683783 0.195598 152 
0.309961 -0.683992 0.196691 149 
0.310181 -0.684117 0.197719 146 
0.310802 -0.684466 0.19893 144 
0.310724 -0.684425 0.199827 146 
0.311047 -0.684608 0.200908 149 
0.311121 -0.684653 0.201876 143 
0.311848 -0.68506 0.203149 140 
0.311872 -0.685076 0.204098 141 
0.312654 -0.685515 0.205403 141 
0.313034 -0.68573 0.206524 145 
0.313111 -0.685775 0.207504 141 
0.313646 -0.686076 0.208702 142 
0.31408 -0.686321 0.209857 135 
0.314517 -0.686568 0.211015 136 
0.314801 -0.686729 0.212103 136 
0.314215 -0.686404 0.212772 131 
0.314551 -0.686594 0.213887 122 
0.314837 -0.686756 0.214981 131 
0.314764 -0.686718 0.2159 126 
0.315875 -0.687341 0.217405 128 
0.316009 -0.687418 0.218432 129 
0.315731 -0.687265 0.219254 132 
0.316072 -0.687459 0.220387 126 
0.31595 -0.687393 0.221288 129 
0.316086 -0.687471 0.222321 126 
0.315912 -0.687376 0.223197 125 
0.316308 -0.6876 0.224365 117 
0.316238 -0.687564 0.225297 120 
0.316117 -0.687499 0.226203 113 
0.316671 -0.68781 0.227459 110 
0.290246 -0.668173 -0.183815 7 
0.292945 -0.669648 -0.184363 8 
0.292448 -0.669379 -0.183183 4 
0.293972 -0.670213 -0.183087 3 
0.294488 -0.670497 -0.182448 7 
0.291378 -0.668803 -0.179885 4 
0.293353 -0.669882 -0.180021 8 
0.293086 -0.669739 -0.178972 5 
0.295077 -0.670828 -0.179105 6 
0.293105 -0.669754 -0.177166 6 
0.293666 -0.670062 -0.17655 7 
0.294504 -0.670522 -0.176076 7 
0.296835 -0.671797 -0.176364 9 
0.294248 -0.670387 -0.17413 10 
0.296761 -0.671761 -0.174503 8 
0.293902 -0.670204 -0.172145 8 
0.295434 -0.671043 -0.172014 5 
0.294799 -0.670698 -0.17079 10 
0.296291 -0.671514 -0.170632 9 
0.294408 -0.670488 -0.16879 9 
0.295712 -0.671202 -0.168534 11 
0.296188 -0.671465 -0.167865 14 
0.29699 -0.671905 -0.167355 11 
0.295796 -0.671255 -0.165869 12 
0.296597 -0.671694 -0.165357 13 
0.296749 -0.67178 -0.164529 12 
0.297088 -0.671967 -0.163791 12 
0.297474 -0.67218 -0.163074 14 
0.298656 -0.672828 -0.162736 11 
0.298998 -0.673017 -0.161995 13 
0.299059 -0.673052 -0.16112 18 
0.299967 -0.67355 -0.160644 14 
0.298338 -0.672664 -0.158981 12 
0.299243 -0.67316 -0.158502 12 
0.300105 -0.673632 -0.157999 15 
0.299884 -0.673514 -0.156997 19 
0.300418 -0.673808 -0.156341 13 
0.299258 -0.673177 -0.154913 14 
0.300544 -0.673881 -0.154597 15 
0.300561 -0.673893 -0.153706 16 
0.300907 -0.674084 -0.152963 19 
0.301587 -0.674457 -0.152367 19 
0.301509 -0.674417 -0.151433 19 
0.301337 -0.674325 -0.150459 22 
0.301875 -0.674622 -0.149798 23 
0.302463 -0.674945 -0.149157 21 
0.303769 -0.67566 -0.148826 16 
0.300795 -0.674039 -0.146642 22 
0.30228 -0.674852 -0.146387 31 
0.302347 -0.674891 -0.14552 24 
0.303938 -0.675762 -0.145302 24 
0.303719 -0.675644 -0.144311 24 
0.303595 -0.675579 -0.143363 25 
0.303806 -0.675696 -0.142556 24 
0.304257 -0.675945 -0.141849 24 
0.304086 -0.675855 -0.140883 29 
0.304873 -0.676286 -0.140312 28 
0.304702 -0.676195 -0.139348 31 
0.305444 -0.676602 -0.138755 33 
0.305658 -0.676721 -0.137947 30 
0.306742 -0.677315 -0.137488 30 
0.305846 -0.676829 -0.136234 27 
0.30611 -0.676975 -0.135445 28 
0.306664 -0.67728 -0.13477 30 
0.30688 -0.6774 -0.133962 33 
0.306517 -0.677204 -0.132926 33 
0.307703 -0.677854 -0.132495 39 
0.308164 -0.678108 -0.131779 37 
0.30746 -0.677726 -0.130614 38 
0.307922 -0.67798 -0.129898 35 
0.309018 -0.678581 -0.129422 35 
0.308897 -0.678517 -0.128482 39 
0.308923 -0.678534 -0.127598 36 
0.308851 -0.678497 -0.126679 39 
0.309219 -0.678701 -0.125924 38 
0.309735 -0.678984 -0.125222 37 
0.310497 -0.679403 -0.124609 39 
0.310279 -0.679286 -0.123636 43 
0.310552 -0.679437 -0.122843 41 
0.31058 -0.679455 -0.121961 45 
0.31115 -0.679769 -0.121273 42 
0.310932 -0.679652 -0.120304 42 
0.311158 -0.679777 -0.119493 47 
0.31109 -0.679742 -0.118579 46 
0.311612 -0.68003 -0.117871 45 
0.312086 -0.680291 -0.117144 47 
0.312018 -0.680256 -0.116231 51 
0.312148 -0.68033 -0.115385 52 
0.311834 -0.68016 -0.11439 46 
0.312805 -0.680693 -0.113828 46 
0.313085 -0.680848 -0.113033 45 
0.312623 -0.680598 -0.11199 51 
0.313548 -0.681105 -0.111407 55 
0.312442 -0.680505 -0.110156 52 
0.312328 -0.680444 -0.109233 49 
0.312807 -0.680708 -0.108503 47 
0.312941 -0.680783 -0.10766 51 
0.312927 -0.680777 -0.10677 55 
0.313012 -0.680826 -0.105913 57 
0.312504 -0.680551 -0.104869 57 
0.312887 -0.680762 -0.104106 58 
0.312529 -0.680569 -0.103113 62 
0.312024 -0.680296 -0.102077 66 
0.311571 -0.680052 -0.101059 70 
0.311904 -0.680235 -0.100282 76 
0.311207 -0.679856 -0.0991941 82 
0.311246 -0.67988 -0.0983301 84 
0.310261 -0.679344 -0.0971631 77 
0.310544 -0.679501 -0.0963741 75 
0.309467 -0.678915 -0.0951871 76 
0.309508 -0.67894 -0.0943291 77 
0.308824 -0.678568 -0.0932631 78 
0.308624 -0.678461 -0.0923401 77 
0.308378 -0.678329 -0.0914041 81 
0.307747 -0.677987 -0.0903621 79 
0.306642 -0.677386 -0.0891911 79 
0.305877 -0.676969 -0.0881191 82 
0.304642 -0.676297 -0.0869231 85 
0.30431 -0.676118 -0.0859781 89 
0.304307 -0.67612 -0.0851241 87 
0.303835 -0.675863 -0.0841451 89 
0.303084 -0.675456 -0.0830951 95 
0.302524 -0.675151 -0.0820981 96 
0.302011 -0.674873 -0.0811181 91 
0.301548 -0.674622 -0.0801521 97 
0.301595 -0.67465 -0.0793206 103 
0.30081 -0.674223 -0.0782773 112 
0.300489 -0.674051 -0.0773552 119 
0.29994 -0.673752 -0.0763777 113 
0.299621 -0.67358 -0.0754605 113 
0.298893 -0.673184 -0.0744443 114 
0.298304 -0.672865 -0.0734659 120 
0.297854 -0.672621 -0.072524 120 
0.297814 -0.672601 -0.0716828 116 
0.296824 -0.672062 -0.0706167 119 
0.296605 -0.671945 -0.0697368 127 
0.296657 -0.671975 -0.0689214 133 
0.295944 -0.671588 -0.0679298 124 
0.295682 -0.671447 -0.0670449 122 
0.295198 -0.671185 -0.0661112 123 
0.295028 -0.671094 -0.0652505 128 
0.294591 -0.670857 -0.0643317 126 
0.294467 -0.670791 -0.0634841 127 
0.293589 -0.670314 -0.0624732 128 
0.293821 -0.670443 -0.0617061 132 
0.293655 -0.670354 -0.0608533 134 
0.293622 -0.670338 -0.0600299 132 
0.292794 -0.669888 -0.0590407 130 
0.292587 -0.669777 -0.0581839 128 
0.292688 -0.669834 -0.0573917 128 
0.292657 -0.669819 -0.0565727 129 
0.292451 -0.66971 -0.0557191 128 
0.292817 -0.669911 -0.0549804 130 
0.292567 -0.669777 -0.0541197 134 
0.292495 -0.669739 -0.0532947 134 
0.292598 -0.669797 -0.0525043 135 
0.292482 -0.669736 -0.0516721 130 
0.292323 -0.669651 -0.0508328 136 
0.29234 -0.669663 -0.0500272 134 
0.292357 -0.669674 -0.0492219 140 
0.292507 -0.669758 -0.048441 141 
0.292481 -0.669746 -0.0476284 141 
0.292368 -0.669686 -0.0468008 149 
0.292299 -0.669651 -0.0459818 151 
0.292582 -0.669807 -0.0452242 152 
0.292163 -0.669581 -0.044346 147 
0.292009 -0.669499 -0.0435145 143 
0.292643 -0.669847 -0.0428152 141 
0.292884 -0.669981 -0.042049 147 
0.292818 -0.669947 -0.0412323 150 
0.292928 -0.670009 -0.0404444 153 
0.293127 -0.67012 -0.0396703 161 
0.293282 -0.670207 -0.0388889 160 
0.292954 -0.670029 -0.038033 158 
0.29311 -0.670117 -0.0372521 155 
0.293047 -0.670084 -0.0364381 158 
0.293072 -0.670101 -0.0356377 154 
0.293141 -0.67014 -0.0348439 156 
0.293387 -0.670276 -0.0340754 164 
0.293457 -0.670317 -0.0332814 163 
0.293661 -0.67043 -0.0325058 164 
0.293512 -0.670351 -0.0316815 161 
0.293584 -0.670392 -0.0308879 164 
0.293304 -0.670241 -0.0300477 167 
0.294568 -0.670934 -0.0294098 167 
0.293802 -0.670518 -0.0285071 167 
0.293215 -0.670199 -0.0276305 179 
0.29373 -0.670482 -0.0268927 169 
0.293981 -0.670622 -0.0261211 176 
0.294144 -0.670713 -0.0253382 178 
0.294928 -0.671144 -0.0246276 182 
0.294208 -0.670752 -0.0237407 173 
0.294816 -0.671086 -0.0230072 177 
0.294804 -0.671082 -0.0222027 176 
0.294927 -0.671151 -0.021413 175 
0.294872 -0.671123 -0.0206041 177 
0.294818 -0.671097 -0.0197958 173 
0.295163 -0.671287 -0.0190288 168 
0.295332 -0.671381 -0.0182428 170 
0.295324 -0.67138 -0.017439 174 
0.295671 -0.671571 -0.0166696 178 
0.29602 -0.671764 -0.015899 178 
0.296236 -0.671884 -0.015115 180 
0.295784 -0.67164 -0.0142703 181 
0.296402 -0.671979 -0.0135214 183 
0.296174 -0.671856 -0.0126978 183 
0.297017 -0.672319 -0.0119647 186 
0.297102 -0.672368 -0.0111665 185 
0.297188 -0.672417 -0.0103682 196 
0.297095 -0.672368 -0.0095559 186 
0.297092 -0.672368 -0.0087509 187 
0.297268 -0.672467 -0.0079592 184 
0.297311 -0.672492 -0.0071574 184 
0.297534 -0.672616 -0.0063679 184 
0.297802 -0.672765 -0.0055807 187 
0.297667 -0.672693 -0.0047665 187 
0.298027 -0.672892 -0.0039838 191 
0.298207 -0.672992 -0.0031889 191 
0.299111 -0.673489 -0.0024354 193 
0.299157 -0.673516 -0.0016302 193 
0.299612 -0.673768 -0.000846998 193 
0.299433 -0.673671 -2.90978e-05 195 
0.299663 -0.673799 0.000767602 193 
0.299894 -0.673927 0.0015652 191 
0.299898 -0.673931 0.0023739 190 
0.299902 -0.673936 0.0031825 193 
0.299907 -0.673941 0.003991 192 
0.300185 -0.674095 0.0047888 196 
0.300465 -0.67425 0.0055877 197 
0.300562 -0.674305 0.006394 195 
0.300752 -0.674411 0.0071976 193 
0.300942 -0.674517 0.0080019 196 
0.301636 -0.674899 0.0087926 197 
0.301737 -0.674957 0.0096019 199 
0.302251 -0.67524 0.0104015 199 
0.302261 -0.675247 0.0112144 202 
0.302271 -0.675255 0.0120273 200 
0.30242 -0.675338 0.0128377 203 
0.302293 -0.675271 0.013653 204 
0.302351 -0.675305 0.0144653 199 
0.302824 -0.675566 0.015273 200 
0.302745 -0.675524 0.0160879 203 
0.304379 -0.676421 0.0168897 202 
0.304533 -0.676506 0.0177063 205 
0.303758 -0.676085 0.0185265 204 
0.304423 -0.676452 0.0193419 202 
0.304718 -0.676614 0.0201597 202 
0.304781 -0.676651 0.020978 200 
0.305078 -0.676815 0.0217978 203 
0.305002 -0.676776 0.0226162 201 
0.305207 -0.67689 0.023437 205 
0.305179 -0.676877 0.0242559 205 
0.305338 -0.676966 0.0250773 204 
0.305499 -0.677056 0.0258995 203 
0.306456 -0.677582 0.0267366 202 
0.306948 -0.677853 0.0275685 203 
0.307489 -0.678151 0.0284036 204 
0.307464 -0.67814 0.0292273 202 
0.307534 -0.67818 0.0300535 203 
0.307605 -0.67822 0.0308801 205 
0.308007 -0.678443 0.0317172 206 
0.307937 -0.678407 0.0325407 206 
0.308057 -0.678474 0.0333705 204 
0.308367 -0.678647 0.034208 205 
0.309585 -0.679314 0.0350822 205 
0.308801 -0.678888 0.0358794 203 
0.308781 -0.678879 0.0367064 204 
0.309859 -0.679471 0.0375832 203 
0.310559 -0.679856 0.0384467 204 
0.310685 -0.679927 0.0392849 206 
0.311003 -0.680103 0.0401336 203 
0.311275 -0.680254 0.0409814 203 
0.311451 -0.680353 0.041825 201 
0.311967 -0.680637 0.0426893 197 
0.312727 -0.681055 0.0435705 195 
0.312809 -0.681102 0.0444129 196 
0.313378 -0.681416 0.0452872 201 
0.313462 -0.681464 0.0461318 201 
0.313644 -0.681565 0.0469836 194 
0.313387 -0.681427 0.0478053 194 
0.31401 -0.681771 0.0486902 193 
0.314635 -0.682114 0.049578 196 
0.315805 -0.682757 0.0505107 197 
0.315696 -0.6827 0.0513473 196 
0.315983 -0.682858 0.0522157 197 
0.315677 -0.682693 0.0530362 197 
0.315422 -0.682556 0.0538598 200 
0.315858 -0.682796 0.0547432 204 
0.316197 -0.682984 0.0556199 201 
0.316239 -0.683009 0.0564711 202 
0.31658 -0.683198 0.0573506 208 
0.316773 -0.683306 0.0582177 209 
0.316768 -0.683305 0.0590663 208 
0.316912 -0.683387 0.0599302 206 
0.316809 -0.683333 0.0607695 205 
0.316607 -0.683224 0.0615983 203 
0.316803 -0.683333 0.0624689 206 
0.31705 -0.68347 0.0633462 205 
0.316949 -0.683417 0.0641862 202 
0.316749 -0.68331 0.0650149 199 
0.316798 -0.683339 0.0658716 198 
0.316948 -0.683423 0.0667406 200 
0.31675 -0.683317 0.067569 197 
0.316453 -0.683158 0.0683849 195 
0.316555 -0.683215 0.069249 199 
0.316607 -0.683246 0.0701077 197 
0.316759 -0.683331 0.0709797 195 
0.316614 -0.683254 0.0718139 191 
0.31637 -0.683122 0.0726347 192 
0.316971 -0.683454 0.0735685 194 
0.316728 -0.683323 0.0743898 198 
0.316734 -0.683328 0.0752449 202 
0.316791 -0.683362 0.0761075 207 
0.3164 -0.68315 0.0769068 206 
0.316358 -0.683129 0.0777553 204 
0.315871 -0.682865 0.0785383 209 
0.316078 -0.68298 0.0794234 212 
0.315295 -0.682554 0.0801598 210 
0.316246 -0.683077 0.0811596 209 
0.314084 -0.681895 0.0816785 213 
0.314045 -0.681876 0.0825242 214 
0.313909 -0.681804 0.0833545 214 
0.313774 -0.681732 0.0841846 212 
0.313737 -0.681714 0.0850308 216 
0.313701 -0.681697 0.0858772 216 
0.313078 -0.681358 0.0866249 217 
0.311629 -0.680567 0.0872293 218 
0.310965 -0.680205 0.0879634 217 
0.310979 -0.680215 0.0888141 216 
0.310462 -0.679935 0.089571 218 
0.308603 -0.678919 0.0900852 217 
0.308236 -0.67872 0.0908628 220 
0.308061 -0.678627 0.0916745 221 
0.30803 -0.678612 0.0925126 223 
0.307951 -0.678571 0.093342 221 
0.307778 -0.678478 0.0941536 220 
0.307177 -0.678151 0.0948825 217 
0.307672 -0.678424 0.0958223 219 
0.305887 -0.677449 0.0963167 218 
0.305105 -0.677023 0.0970029 217 
0.304936 -0.676933 0.0978095 214 
0.304674 -0.676791 0.0985968 215 
0.304929 -0.676933 0.0994896 216 
0.304714 -0.676818 0.100287 217 
0.302911 -0.675833 0.10075 216 
0.302746 -0.675745 0.101553 215 
0.302582 -0.675657 0.102356 217 
0.302046 -0.675366 0.103079 211 
0.30193 -0.675304 0.103891 211 
0.30186 -0.675268 0.104713 213 
0.301374 -0.675004 0.105443 208 
0.300061 -0.674287 0.105986 207 
0.299901 -0.674203 0.106785 207 
0.299787 -0.674142 0.107594 209 
0.299307 -0.673881 0.108319 207 
0.299103 -0.673772 0.109106 205 
0.299129 -0.673787 0.109947 205 
0.298926 -0.673678 0.110735 203 
0.298952 -0.673696 0.111577 203 
0.298704 -0.673561 0.112353 202 
0.29791 -0.673129 0.112995 202 
0.29721 -0.672749 0.113658 203 
0.29683 -0.672542 0.114397 201 
0.296496 -0.672361 0.115147 198 
0.296343 -0.672279 0.115942 191 
0.296236 -0.672224 0.116749 191 
0.296219 -0.672216 0.117578 193 
0.296113 -0.67216 0.118385 193 
0.296052 -0.672129 0.119204 192 
0.296173 -0.672197 0.120071 197 
0.296203 -0.672215 0.120916 193 
0.296234 -0.672234 0.121761 190 
0.29622 -0.672229 0.122594 193 
0.296026 -0.672125 0.123379 191 
0.296148 -0.672194 0.124251 190 
0.296181 -0.672214 0.125099 191 
0.296123 -0.672185 0.125923 188 
0.296338 -0.672304 0.126823 185 
0.296326 -0.6723 0.127661 188 
0.29627 -0.672273 0.128486 189 
0.296441 -0.672367 0.129378 189 
0.296068 -0.672165 0.130113 188 
0.296285 -0.672286 0.131019 185 
0.296457 -0.672383 0.131914 185 
0.296675 -0.672504 0.132823 190 
0.296712 -0.672527 0.13368 190 
0.296841 -0.672599 0.134566 185 
0.296878 -0.672623 0.135425 187 
0.297099 -0.672745 0.136341 188 
0.296956 -0.672669 0.137146 188 
0.297177 -0.672792 0.138065 181 
0.297491 -0.672966 0.139014 181 
0.297485 -0.672966 0.139864 179 
0.297526 -0.672991 0.14073 183 
0.298209 -0.673366 0.141802 185 
0.297609 -0.67304 0.142464 188 
0.297834 -0.673166 0.143392 189 
0.298198 -0.673367 0.144367 189 
0.298195 -0.673368 0.145224 187 
0.298192 -0.673368 0.146082 182 
0.298974 -0.673799 0.147201 181 
0.298557 -0.673572 0.147923 181 
0.298187 -0.673372 0.148659 190 
0.29897 -0.673804 0.149786 180 
0.299386 -0.674034 0.150792 186 
0.299897 -0.674316 0.151833 183 
0.30013 -0.674445 0.15278 181 
0.300364 -0.674576 0.15373 178 
0.300412 -0.674604 0.154617 180 
0.300601 -0.67471 0.155553 182 
0.300743 -0.67479 0.156475 181 
0.300652 -0.674743 0.157315 181 
0.300983 -0.674926 0.158307 177 
0.300987 -0.674931 0.159183 178 
0.301178 -0.675038 0.160128 171 
0.301276 -0.675094 0.16104 178 
0.301422 -0.675176 0.161971 177 
0.30171 -0.675336 0.162956 178 
0.302092 -0.675548 0.163979 177 
0.302429 -0.675734 0.164987 178 
0.302957 -0.676026 0.166069 174 
0.302585 -0.675824 0.166813 169 
0.302545 -0.675806 0.167682 179 
0.303836 -0.676514 0.169064 174 
0.30394 -0.676574 0.169994 177 
0.303997 -0.676607 0.170906 178 
0.304197 -0.676719 0.171875 173 
0.304303 -0.676779 0.172809 174 
0.304553 -0.676919 0.173801 172 
0.304851 -0.677085 0.174815 173 
0.305055 -0.677198 0.175792 173 
0.305211 -0.677286 0.176753 174 
0.305753 -0.677586 0.177871 174 
0.305814 -0.677622 0.178796 170 
0.306069 -0.677764 0.179802 173 
0.306179 -0.677826 0.180751 169 
0.306776 -0.678155 0.181902 171 
0.307228 -0.678406 0.182997 172 
0.307243 -0.678416 0.183911 170 
0.307747 -0.678695 0.185032 170 
0.307518 -0.678572 0.185846 168 
0.308269 -0.678986 0.187077 171 
0.30863 -0.679186 0.188145 170 
0.308352 -0.679036 0.188941 169 
0.30901 -0.679399 0.190141 165 
0.309176 -0.679492 0.191132 165 
0.30959 -0.679721 0.192232 161 
0.309758 -0.679816 0.193227 155 
0.309975 -0.679938 0.194245 156 
0.310393 -0.680169 0.195355 155 
0.311061 -0.680538 0.196579 148 
0.310983 -0.680497 0.197471 151 
0.311054 -0.680538 0.198432 138 
0.311827 -0.680965 0.199713 137 
0.312101 -0.681117 0.20077 145 
0.312325 -0.681242 0.201807 142 
0.312954 -0.681589 0.203032 129 
0.31313 -0.681688 0.204051 133 
0.313661 -0.681982 0.205237 139 
0.313788 -0.682054 0.206238 146 
0.31417 -0.682266 0.20736 144 
0.314451 -0.682422 0.208437 141 
0.315551 -0.683028 0.209906 142 
0.315477 -0.682989 0.210819 136 
0.315556 -0.683035 0.211807 141 
0.315944 -0.68325 0.212945 139 
0.316437 -0.683523 0.214137 138 
0.316054 -0.683316 0.214905 131 
0.316239 -0.683419 0.215951 128 
0.316269 -0.683438 0.216922 133 
0.316765 -0.683713 0.218124 132 
0.316279 -0.683449 0.218843 128 
0.31719 -0.683951 0.220257 124 
0.317119 -0.683914 0.221184 126 
0.318088 -0.684448 0.222636 125 
0.318174 -0.684498 0.223646 121 
0.318103 -0.684461 0.224577 125 
0.318138 -0.684483 0.225564 119 
0.317599 -0.68419 0.226256 119 
0.31779 -0.684298 0.227324 124 
0.295379 -0.667103 -0.185923 6 
0.293906 -0.666316 -0.184214 8 
0.294652 -0.666718 -0.183701 6 
0.293876 -0.666305 -0.182374 6 
0.293839 -0.666287 -0.181443 6 
0.293663 -0.666196 -0.180441 8 
0.293535 -0.666129 -0.179465 5 
0.293269 -0.665989 -0.178419 8 
0.293554 -0.666144 -0.177662 9 
0.292239 -0.665442 -0.176075 6 
0.297884 -0.668467 -0.178086 7 
0.295056 -0.666955 -0.17572 10 
0.295898 -0.667409 -0.175244 6 
0.296094 -0.667516 -0.174436 5 
0.299851 -0.66953 -0.175433 6 
0.296208 -0.667582 -0.172681 10 
0.295618 -0.667268 -0.171479 8 
0.297533 -0.668296 -0.171533 9 
0.297824 -0.668454 -0.170771 10 
0.296811 -0.667914 -0.169363 12 
0.29673 -0.667873 -0.16842 12 
0.297673 -0.66838 -0.167979 11 
0.297685 -0.668389 -0.167082 12 
0.298071 -0.668598 -0.166366 11 
0.296874 -0.667959 -0.164885 12 
0.300446 -0.669874 -0.165703 9 
0.297971 -0.668552 -0.163612 8 
0.29967 -0.669464 -0.163521 11 
0.299543 -0.669398 -0.162557 11 
0.299651 -0.669458 -0.161706 14 
0.299806 -0.669543 -0.160877 17 
0.299398 -0.669327 -0.159786 16 
0.300683 -0.670018 -0.159483 16 
0.301028 -0.670205 -0.158742 16 
0.299677 -0.669484 -0.157219 15 
0.300163 -0.669746 -0.156544 16 
0.299991 -0.669656 -0.155568 16 
0.300477 -0.669919 -0.154891 20 
0.302956 -0.671249 -0.155111 19 
0.301974 -0.670726 -0.153769 19 
0.301565 -0.670508 -0.152688 16 
0.301392 -0.670419 -0.151715 21 
0.302927 -0.671243 -0.151496 21 
0.3019 -0.670695 -0.150147 19 
0.303295 -0.671445 -0.149861 17 
0.302695 -0.671125 -0.148702 20 
0.305199 -0.672469 -0.148888 21 
0.303207 -0.671404 -0.147132 25 
0.303131 -0.671366 -0.146204 23 
0.304486 -0.672094 -0.145886 29 
0.303693 -0.671671 -0.144654 27 
0.305196 -0.672479 -0.144392 28 
0.30464 -0.672184 -0.143263 29 
0.305332 -0.672556 -0.142656 29 
0.305929 -0.672879 -0.142008 29 
0.305805 -0.672816 -0.141061 29 
0.306356 -0.673112 -0.140391 30 
0.306522 -0.673203 -0.139563 27 
0.306061 -0.67296 -0.138482 28 
0.30671 -0.67331 -0.13785 33 
0.30707 -0.673504 -0.1371 34 
0.307771 -0.673882 -0.136484 31 
0.307212 -0.673584 -0.135368 35 
0.307671 -0.673833 -0.134656 31 
0.308228 -0.674133 -0.133981 32 
0.308689 -0.674383 -0.133266 34 
0.308421 -0.674241 -0.132269 35 
0.308445 -0.674257 -0.131385 37 
0.308859 -0.674481 -0.130651 35 
0.308933 -0.674522 -0.129787 37 
0.310228 -0.675219 -0.129385 31 
0.310352 -0.675287 -0.128537 34 
0.309253 -0.674701 -0.127234 32 
0.310208 -0.675215 -0.126697 38 
0.31043 -0.675336 -0.125888 42 
0.310948 -0.675616 -0.125186 42 
0.310926 -0.675606 -0.124286 46 
0.311051 -0.675676 -0.12344 42 
0.311325 -0.675825 -0.122648 45 
0.311599 -0.675974 -0.121855 45 
0.311235 -0.675781 -0.120835 47 
0.311953 -0.676169 -0.1202 46 
0.312081 -0.676239 -0.119355 46 
0.312357 -0.67639 -0.118561 48 
0.31308 -0.676779 -0.117922 50 
0.313457 -0.676984 -0.117162 48 
0.31324 -0.67687 -0.116197 48 
0.313321 -0.676915 -0.115335 50 
0.313452 -0.676988 -0.11449 46 
0.314528 -0.677567 -0.113962 49 
0.314959 -0.6778 -0.113215 43 
0.314294 -0.677446 -0.112105 40 
0.314178 -0.677386 -0.111178 42 
0.313567 -0.677061 -0.110091 47 
0.31375 -0.677161 -0.109265 44 
0.314132 -0.677368 -0.108503 49 
0.313522 -0.677043 -0.107422 60 
0.313409 -0.676985 -0.106503 59 
0.313891 -0.677246 -0.105772 57 
0.313185 -0.676869 -0.104668 55 
0.313073 -0.676812 -0.103752 49 
0.313012 -0.676781 -0.102853 56 
0.312803 -0.676672 -0.10191 63 
0.31289 -0.676721 -0.101059 68 
0.313027 -0.676796 -0.100222 67 
0.312476 -0.676503 -0.0991801 69 
0.311828 -0.676158 -0.0981111 71 
0.311282 -0.675867 -0.0970761 73 
0.311468 -0.67597 -0.0962591 72 
0.310437 -0.67542 -0.0950881 73 
0.310139 -0.675261 -0.0941331 77 
0.309841 -0.675104 -0.0931801 74 
0.309062 -0.674688 -0.0920921 79 
0.30843 -0.674352 -0.0910501 87 
0.307658 -0.67394 -0.0899721 84 
0.306652 -0.673403 -0.0888331 82 
0.306934 -0.673557 -0.0880531 87 
0.306502 -0.673328 -0.0870781 85 
0.305362 -0.672718 -0.0859141 89 
0.305171 -0.672618 -0.0850101 95 
0.304369 -0.67219 -0.0839441 96 
0.30404 -0.672016 -0.0830081 97 
0.303477 -0.671716 -0.0820121 101 
0.303618 -0.671794 -0.0812031 105 
0.302732 -0.671321 -0.0801281 110 
0.302268 -0.671074 -0.0791659 106 
0.302084 -0.670978 -0.0782773 113 
0.301577 -0.670708 -0.0773086 117 
0.300933 -0.670365 -0.0763087 112 
0.300844 -0.67032 -0.0754492 105 
0.29993 -0.669831 -0.0743881 110 
0.299431 -0.669566 -0.0734326 115 
0.299116 -0.669399 -0.072524 117 
0.29903 -0.669355 -0.0716719 118 
0.298535 -0.669092 -0.070724 118 
0.298042 -0.66883 -0.0697792 121 
0.298049 -0.668836 -0.0689529 130 
0.297333 -0.668454 -0.0679609 122 
0.296845 -0.668194 -0.0670244 124 
0.296224 -0.667863 -0.0660605 125 
0.296053 -0.667774 -0.0652004 129 
0.296018 -0.667757 -0.0643713 130 
0.295848 -0.667668 -0.0635135 136 
0.295278 -0.667364 -0.0625699 136 
0.294932 -0.667181 -0.0616774 139 
0.294543 -0.666974 -0.0607777 132 
0.294599 -0.667008 -0.0599737 136 
0.294345 -0.666872 -0.0591053 133 
0.294313 -0.666857 -0.0582843 135 
0.293883 -0.666629 -0.0573826 134 
0.293941 -0.666662 -0.0565816 136 
0.293778 -0.666577 -0.0557367 136 
0.293395 -0.666373 -0.0548495 139 
0.29363 -0.666502 -0.0540851 138 
0.293645 -0.666512 -0.0532776 145 
0.293485 -0.666429 -0.0524368 140 
0.293633 -0.666509 -0.0516555 144 
0.293517 -0.666449 -0.0508245 145 
0.293622 -0.666508 -0.0500353 144 
0.293331 -0.666354 -0.0491737 144 
0.293261 -0.666318 -0.0483535 143 
0.293544 -0.666472 -0.0475969 150 
0.293695 -0.666555 -0.0468163 146 
0.293494 -0.666449 -0.0459741 146 
0.29391 -0.666674 -0.0452393 145 
0.293577 -0.666498 -0.0443759 142 
0.293378 -0.666393 -0.0435366 144 
0.293707 -0.666572 -0.042786 148 
0.293817 -0.666633 -0.0419985 148 
0.293398 -0.666411 -0.0411257 150 
0.293597 -0.666519 -0.0403532 149 
0.293575 -0.666509 -0.0395456 156 
0.293775 -0.666618 -0.0387727 157 
0.293666 -0.666562 -0.0379522 157 
0.293691 -0.666577 -0.0371524 154 
0.293936 -0.666712 -0.0363857 158 
0.293917 -0.666703 -0.0355796 158 
0.294207 -0.66686 -0.0348185 157 
0.2941 -0.666805 -0.034 159 
0.294083 -0.666798 -0.0331948 158 
0.293978 -0.666744 -0.0323778 157 
0.294049 -0.666784 -0.0315856 158 
0.29443 -0.66699 -0.0308347 163 
0.294547 -0.667055 -0.0300477 164 
0.294576 -0.667073 -0.0292491 164 
0.294472 -0.667019 -0.0284339 166 
0.294458 -0.667014 -0.0276305 171 
0.29493 -0.667269 -0.0268873 178 
0.29567 -0.667668 -0.0261748 176 
0.296102 -0.667902 -0.0254227 180 
0.295911 -0.667802 -0.0245964 175 
0.295499 -0.667583 -0.0237457 172 
0.296065 -0.667888 -0.0230072 168 
0.29601 -0.667861 -0.0221977 170 
0.296088 -0.667906 -0.0214033 175 
0.296256 -0.667997 -0.0206183 174 
0.296068 -0.667898 -0.0197958 179 
0.296147 -0.667943 -0.0190015 174 
0.296495 -0.668131 -0.0182339 177 
0.296487 -0.66813 -0.0174303 176 
0.29639 -0.668079 -0.0166184 177 
0.296516 -0.668149 -0.015828 179 
0.296464 -0.668123 -0.015021 180 
0.296414 -0.668099 -0.0142145 180 
0.296898 -0.66836 -0.0134551 180 
0.297474 -0.668671 -0.0127016 180 
0.297514 -0.668694 -0.0119013 184 
0.298137 -0.669031 -0.0111483 186 
0.298358 -0.669152 -0.0103611 185 
0.298265 -0.669103 -0.009549 194 
0.298396 -0.669176 -0.0087543 186 
0.298169 -0.669056 -0.0079331 185 
0.298527 -0.66925 -0.0071542 186 
0.29857 -0.669276 -0.0063526 192 
0.298794 -0.669398 -0.0055628 193 
0.298749 -0.669376 -0.0047549 191 
0.298974 -0.669499 -0.0039642 191 
0.298884 -0.669453 -0.0031537 191 
0.299156 -0.669602 -0.0023647 191 
0.299519 -0.669797 -0.0015797 195 
0.300974 -0.67058 -0.000851897 196 
0.300476 -0.670315 -1.73985e-05 193 
0.300706 -0.670441 0.000778903 192 
0.30071 -0.670446 0.0015867 190 
0.300486 -0.670327 0.0024048 190 
0.301083 -0.670649 0.0031865 193 
0.301133 -0.670678 0.0039929 196 
0.30123 -0.670732 0.0047977 192 
0.301419 -0.670837 0.0055995 194 
0.301288 -0.670768 0.006413 196 
0.301387 -0.670823 0.0072185 199 
0.301989 -0.671148 0.0080089 199 
0.302181 -0.671254 0.0088135 195 
0.302098 -0.67121 0.0096261 196 
0.303441 -0.671933 0.0104037 200 
0.303358 -0.671892 0.0112185 201 
0.302908 -0.671651 0.0120402 198 
0.303241 -0.671833 0.0128459 199 
0.303576 -0.672014 0.013653 200 
0.303542 -0.671998 0.0144666 200 
0.303369 -0.671908 0.0152816 195 
0.303152 -0.671793 0.0160962 197 
0.303858 -0.672174 0.0169031 201 
0.304011 -0.672258 0.0177159 203 
0.304536 -0.672542 0.0185282 202 
0.305528 -0.673077 0.0193421 201 
0.305218 -0.672912 0.0201589 202 
0.305188 -0.672898 0.0209753 202 
0.305811 -0.673235 0.0217949 201 
0.306062 -0.673372 0.0226145 203 
0.306081 -0.673384 0.023433 203 
0.306052 -0.673371 0.0242511 199 
0.306446 -0.673584 0.0250748 204 
0.306795 -0.673774 0.0258995 206 
0.306674 -0.673711 0.0267173 204 
0.306601 -0.673674 0.0275357 200 
0.307328 -0.674066 0.0283713 200 
0.308105 -0.674486 0.0292113 199 
0.308507 -0.674703 0.0300448 201 
0.308673 -0.674794 0.0308734 201 
0.308697 -0.674809 0.0316984 200 
0.308911 -0.674927 0.0325299 202 
0.309174 -0.67507 0.0333639 206 
0.3092 -0.675086 0.0341905 209 
0.309464 -0.67523 0.0350265 208 
0.30973 -0.675375 0.0358638 208 
0.311146 -0.676138 0.0367517 209 
0.310742 -0.675922 0.0375637 204 
0.311299 -0.676224 0.0384194 202 
0.311714 -0.676449 0.0392706 203 
0.312034 -0.676622 0.0401187 203 
0.312161 -0.676693 0.0409581 200 
0.312289 -0.676764 0.0417981 201 
0.312563 -0.676913 0.0426472 197 
0.314152 -0.677768 0.0435763 199 
0.313941 -0.677657 0.0444008 198 
0.31422 -0.677809 0.0452559 195 
0.314646 -0.67804 0.046122 196 
0.314975 -0.678219 0.0469836 195 
0.315257 -0.678372 0.0478433 194 
0.315441 -0.678473 0.0486973 198 
0.316662 -0.679131 0.0496296 200 
0.316009 -0.678783 0.0504235 197 
0.315555 -0.678541 0.0512305 197 
0.316828 -0.679227 0.0521756 197 
0.316671 -0.679145 0.0530074 197 
0.316959 -0.679302 0.0538767 200 
0.317149 -0.679406 0.0547389 200 
0.317241 -0.679458 0.0555933 198 
0.317532 -0.679616 0.0564665 200 
0.317476 -0.679588 0.0573087 203 
0.31762 -0.679667 0.05817 203 
0.317664 -0.679694 0.0590224 203 
0.317809 -0.679774 0.0598853 200 
0.317656 -0.679693 0.0607186 199 
0.317603 -0.679667 0.061562 201 
0.3177 -0.679721 0.0624213 198 
0.317698 -0.679722 0.0632705 199 
0.317796 -0.679777 0.0641311 199 
0.317695 -0.679725 0.0649699 197 
0.317795 -0.679781 0.0658316 199 
0.317646 -0.679703 0.0666649 200 
0.317846 -0.679813 0.0675394 197 
0.317947 -0.679869 0.068403 202 
0.317899 -0.679846 0.069249 201 
0.317652 -0.679715 0.0700702 198 
0.317606 -0.679693 0.0709161 203 
0.316814 -0.67927 0.0716655 197 
0.317216 -0.679487 0.0725691 199 
0.317221 -0.679492 0.0734216 197 
0.31668 -0.679204 0.0742003 198 
0.316487 -0.679103 0.075025 200 
0.316048 -0.678869 0.0758147 203 
0.316154 -0.678928 0.0766805 206 
0.316063 -0.678881 0.0775185 205 
0.316517 -0.679127 0.0784364 209 
0.316426 -0.679081 0.0792756 211 
0.315546 -0.678611 0.0799955 211 
0.315112 -0.678379 0.0807803 212 
0.314974 -0.678307 0.0816097 212 
0.315083 -0.678369 0.0824777 213 
0.314799 -0.678218 0.0832838 211 
0.314025 -0.677804 0.0840099 210 
0.313157 -0.67734 0.0847177 207 
0.31405 -0.677822 0.0857142 211 
0.312744 -0.677122 0.0863455 216 
0.312271 -0.67687 0.0871134 217 
0.311897 -0.676671 0.0878965 216 
0.312154 -0.676812 0.0887886 218 
0.311345 -0.67638 0.089494 215 
0.309818 -0.675561 0.090068 217 
0.309449 -0.675366 0.0908455 217 
0.309178 -0.675222 0.0916395 220 
0.309242 -0.675258 0.0924948 219 
0.309451 -0.675372 0.0933779 221 
0.30899 -0.675127 0.0941354 219 
0.307577 -0.67437 0.0947092 216 
0.306789 -0.673948 0.0953984 215 
0.306382 -0.673732 0.0961591 215 
0.30607 -0.673566 0.0969375 212 
0.305995 -0.673528 0.0977623 210 
0.305685 -0.673364 0.0985396 210 
0.30411 -0.67252 0.0990576 213 
0.303897 -0.672407 0.0998505 219 
0.303731 -0.67232 0.100653 217 
0.303752 -0.672334 0.101494 216 
0.303447 -0.672172 0.102267 214 
0.303097 -0.671986 0.103029 212 
0.30298 -0.671925 0.10384 206 
0.302863 -0.671865 0.104652 205 
0.302097 -0.671455 0.10532 206 
0.301151 -0.670949 0.105945 206 
0.300898 -0.670815 0.106722 207 
0.300554 -0.670632 0.107479 212 
0.300487 -0.670598 0.108298 211 
0.300236 -0.670466 0.109074 208 
0.299986 -0.670334 0.10985 206 
0.298914 -0.66976 0.110431 208 
0.298621 -0.669604 0.111194 206 
0.298329 -0.66945 0.111956 202 
0.298037 -0.669294 0.112718 200 
0.297791 -0.669165 0.113491 199 
0.297864 -0.669206 0.114341 199 
0.297529 -0.669028 0.115091 199 
0.297693 -0.669118 0.115965 197 
0.297404 -0.668965 0.116726 197 
0.297115 -0.668812 0.117486 188 
0.297099 -0.668805 0.118315 188 
0.296903 -0.668702 0.119098 191 
0.296797 -0.668647 0.119905 188 
0.296827 -0.668666 0.120748 188 
0.296858 -0.668684 0.121591 185 
0.296889 -0.668703 0.122436 192 
0.296966 -0.668747 0.123293 181 
0.296953 -0.668742 0.124127 183 
0.296804 -0.668664 0.124924 183 
0.296973 -0.668757 0.125809 183 
0.296961 -0.668753 0.126645 186 
0.297131 -0.668846 0.127532 183 
0.297211 -0.668891 0.128396 186 
0.297155 -0.668863 0.129221 186 
0.297144 -0.66886 0.13006 185 
0.297362 -0.668979 0.130966 186 
0.297262 -0.668927 0.13178 187 
0.297116 -0.668851 0.132581 192 
0.297563 -0.669093 0.133558 185 
0.297236 -0.66892 0.134306 182 
0.297547 -0.669089 0.135246 181 
0.297448 -0.669038 0.136063 181 
0.297715 -0.669185 0.136992 181 
0.297845 -0.669257 0.137881 183 
0.298022 -0.669353 0.138785 181 
0.298245 -0.669475 0.139706 179 
0.298194 -0.66945 0.140542 180 
0.298235 -0.669474 0.141407 182 
0.298506 -0.669622 0.142347 183 
0.298227 -0.669474 0.143111 185 
0.298453 -0.669598 0.144039 183 
0.299001 -0.669895 0.145073 187 
0.299598 -0.670218 0.146127 181 
0.299504 -0.67017 0.146955 180 
0.299502 -0.670171 0.147815 175 
0.299732 -0.670297 0.148752 184 
0.29987 -0.670373 0.149661 180 
0.300194 -0.67055 0.150634 183 
0.300612 -0.670777 0.151641 184 
0.301126 -0.671055 0.152684 184 
0.301313 -0.671158 0.153617 182 
0.301128 -0.671061 0.154421 184 
0.300943 -0.670963 0.155225 183 
0.301272 -0.671143 0.15621 184 
0.301556 -0.671297 0.157182 184 
0.301746 -0.671402 0.158122 175 
0.301703 -0.671381 0.15898 178 
0.302223 -0.671663 0.160043 178 
0.302322 -0.671718 0.160954 176 
0.302704 -0.671926 0.161971 177 
0.302803 -0.671982 0.162887 180 
0.302903 -0.672038 0.163803 179 
0.303051 -0.67212 0.164739 180 
0.303247 -0.672227 0.165694 181 
0.303444 -0.672335 0.166651 177 
0.304022 -0.672648 0.167755 178 
0.303507 -0.672373 0.168443 175 
0.303943 -0.67261 0.169496 170 
0.304094 -0.672695 0.170442 173 
0.304294 -0.672804 0.171409 173 
0.304782 -0.673068 0.172489 171 
0.305319 -0.67336 0.173593 176 
0.304802 -0.673084 0.174281 175 
0.305629 -0.673531 0.175504 173 
0.305929 -0.673696 0.17652 172 
0.306569 -0.674041 0.177676 168 
0.306678 -0.674102 0.178619 171 
0.307079 -0.67432 0.179683 169 
0.307093 -0.67433 0.180591 171 
0.307204 -0.674392 0.18154 168 
0.30751 -0.674559 0.182571 167 
0.30767 -0.674648 0.183544 165 
0.307978 -0.674815 0.18458 161 
0.308581 -0.675142 0.185742 156 
0.308843 -0.675285 0.186764 156 
0.310041 -0.675932 0.188187 155 
0.310009 -0.675917 0.189089 157 
0.30978 -0.675796 0.189907 161 
0.310541 -0.676208 0.191153 165 
0.311056 -0.676488 0.192297 158 
0.311026 -0.676473 0.193205 167 
0.311244 -0.676593 0.194223 151 
0.311414 -0.676687 0.195222 161 
0.311784 -0.676889 0.196311 157 
0.312055 -0.677037 0.197359 155 
0.312328 -0.677186 0.19841 152 
0.313003 -0.677551 0.199645 150 
0.313278 -0.677702 0.200701 149 
0.313604 -0.677879 0.201784 148 
0.313931 -0.678058 0.202869 146 
0.314209 -0.67821 0.203934 141 
0.31464 -0.678444 0.205072 136 
0.31497 -0.678624 0.206167 139 
0.315558 -0.678943 0.207384 138 
0.315635 -0.678987 0.208364 140 
0.315151 -0.678729 0.20908 135 
0.315638 -0.678993 0.210257 131 
0.316179 -0.679286 0.211463 125 
0.316824 -0.679636 0.212722 122 
0.316441 -0.679433 0.213489 117 
0.316419 -0.679423 0.21443 118 
0.317947 -0.680248 0.216128 123 
0.317304 -0.679904 0.21677 136 
0.317387 -0.679951 0.217767 135 
0.317729 -0.680138 0.218894 130 
0.317968 -0.680269 0.219973 125 
0.317896 -0.680233 0.220898 116 
0.319285 -0.680982 0.222557 124 
0.319162 -0.680918 0.223461 129 
0.318829 -0.680742 0.224259 126 
0.318341 -0.680482 0.224978 127 
0.319265 -0.680981 0.226417 127 
0.318828 -0.680749 0.227163 126 
0.296178 -0.66368 -0.185698 7 
0.296278 -0.663735 -0.184835 7 
0.292738 -0.661877 -0.182033 5 
0.295412 -0.663285 -0.182546 7 
0.295467 -0.663316 -0.181663 7 
0.294736 -0.662934 -0.180368 7 
0.296597 -0.663915 -0.180434 7 
0.296467 -0.663848 -0.179454 10 
0.294857 -0.663004 -0.177709 8 
0.295605 -0.6634 -0.17719 10 
0.296867 -0.664065 -0.176932 10 
0.294887 -0.663027 -0.175011 9 
0.295405 -0.663302 -0.174371 8 
0.296109 -0.663674 -0.173825 6 
0.296444 -0.663852 -0.17309 12 
0.29553 -0.663375 -0.171727 9 
0.297116 -0.66421 -0.171618 9 
0.297639 -0.664487 -0.170975 8 
0.296953 -0.664129 -0.169731 8 
0.29869 -0.665044 -0.169685 10 
0.297908 -0.664635 -0.168397 11 
0.298247 -0.664816 -0.16766 11 
0.301507 -0.666532 -0.168341 9 
0.298039 -0.664711 -0.165756 11 
0.300066 -0.665779 -0.165831 11 
0.300739 -0.666135 -0.16525 13 
0.300375 -0.665946 -0.164171 12 
0.299261 -0.665363 -0.162741 14 
0.302676 -0.66716 -0.163452 11 
0.300134 -0.665826 -0.161352 17 
0.301327 -0.666455 -0.16101 14 
0.299834 -0.665673 -0.159414 17 
0.301356 -0.666475 -0.159221 17 
0.300475 -0.666014 -0.157915 15 
0.301339 -0.666471 -0.157414 16 
0.301496 -0.666556 -0.156587 18 
0.302649 -0.667165 -0.156211 23 
0.302191 -0.666925 -0.155105 19 
0.30145 -0.666538 -0.153875 18 
0.302413 -0.667047 -0.153409 16 
0.30262 -0.667158 -0.152604 18 
0.302827 -0.667269 -0.151799 20 
0.303367 -0.667555 -0.15114 17 
0.304004 -0.667892 -0.150522 23 
0.303926 -0.667854 -0.149591 26 
0.30447 -0.668142 -0.148929 24 
0.304392 -0.668103 -0.147999 24 
0.305081 -0.668468 -0.147398 22 
0.304717 -0.668278 -0.146346 23 
0.305359 -0.668619 -0.145723 29 
0.306292 -0.669111 -0.145221 26 
0.30583 -0.668871 -0.14413 30 
0.306814 -0.66939 -0.143645 24 
0.305918 -0.668921 -0.142377 26 
0.306854 -0.669416 -0.141868 27 
0.307213 -0.669607 -0.14112 25 
0.307089 -0.669544 -0.140174 23 
0.30711 -0.669557 -0.139289 23 
0.307615 -0.669825 -0.138599 28 
0.308608 -0.670349 -0.138103 24 
0.308096 -0.670083 -0.137003 26 
0.308944 -0.67053 -0.136446 28 
0.309259 -0.670698 -0.135675 29 
0.309039 -0.670585 -0.134694 27 
0.30999 -0.671087 -0.134171 30 
0.309135 -0.67064 -0.132945 28 
0.310282 -0.671245 -0.132495 29 
0.309134 -0.670644 -0.131161 32 
0.309744 -0.670967 -0.130503 32 
0.309964 -0.671085 -0.129695 34 
0.310528 -0.671383 -0.129015 39 
0.311044 -0.671658 -0.128316 39 
0.311709 -0.672009 -0.127672 35 
0.311342 -0.671818 -0.126643 40 
0.311319 -0.671809 -0.125743 42 
0.312084 -0.672213 -0.125132 45 
0.312408 -0.672386 -0.124358 36 
0.312534 -0.672454 -0.123512 41 
0.312414 -0.672394 -0.122577 39 
0.313928 -0.673192 -0.122226 41 
0.313213 -0.672818 -0.12108 43 
0.313886 -0.673175 -0.120426 44 
0.312974 -0.672697 -0.119216 43 
0.313598 -0.673028 -0.118544 45 
0.313728 -0.673099 -0.117699 46 
0.314007 -0.673247 -0.116906 48 
0.31379 -0.673135 -0.115943 45 
0.314467 -0.673493 -0.115284 46 
0.314498 -0.673512 -0.114406 49 
0.314133 -0.673323 -0.113396 54 
0.314912 -0.673734 -0.112768 49 
0.315044 -0.673806 -0.111924 49 
0.314729 -0.673643 -0.110934 48 
0.314614 -0.673584 -0.11001 52 
0.315146 -0.673866 -0.109297 52 
0.314187 -0.673364 -0.108104 49 
0.314917 -0.673751 -0.107454 52 
0.315003 -0.673799 -0.106597 59 
0.315138 -0.673871 -0.105756 60 
0.315573 -0.674102 -0.105009 57 
0.315062 -0.673836 -0.103968 62 
0.314851 -0.673727 -0.103021 63 
0.314195 -0.673384 -0.10194 62 
0.314481 -0.673537 -0.101149 64 
0.31447 -0.673533 -0.100267 62 
0.313817 -0.673192 -0.0991941 61 
0.31361 -0.673085 -0.0982571 64 
0.31301 -0.672772 -0.0972061 68 
0.312266 -0.672383 -0.0961161 73 
0.311769 -0.672124 -0.0951021 76 
0.31108 -0.671764 -0.0940351 82 
0.30991 -0.671151 -0.0928341 81 
0.309373 -0.67087 -0.0918191 82 
0.309272 -0.670819 -0.0909281 78 
0.308978 -0.670667 -0.0899851 82 
0.308111 -0.670213 -0.0888861 86 
0.307868 -0.670087 -0.0879621 93 
0.307435 -0.669862 -0.0869871 88 
0.306435 -0.669337 -0.0858621 91 
0.305959 -0.66909 -0.0848831 92 
0.305863 -0.669041 -0.0840071 93 
0.305249 -0.66872 -0.0829951 93 
0.304497 -0.668328 -0.0819511 98 
0.304076 -0.668107 -0.0809961 99 
0.303516 -0.667816 -0.0800081 97 
0.303145 -0.667623 -0.079071 110 
0.302775 -0.66743 -0.0781363 111 
0.302452 -0.667262 -0.0772156 112 
0.301577 -0.666803 -0.0761595 114 
0.301534 -0.666783 -0.0753127 113 
0.30071 -0.666351 -0.074276 118 
0.300668 -0.666332 -0.0734326 115 
0.300627 -0.666312 -0.0725899 119 
0.299946 -0.665956 -0.0715959 117 
0.299541 -0.665745 -0.0706704 116 
0.299138 -0.665536 -0.0697474 116 
0.298373 -0.665135 -0.0687431 113 
0.297657 -0.66476 -0.0677539 121 
0.2978 -0.664838 -0.0669629 130 
0.296953 -0.664394 -0.0659494 133 
0.296962 -0.664401 -0.0651304 131 
0.296837 -0.664337 -0.0642822 134 
0.296354 -0.664085 -0.063357 130 
0.295962 -0.66388 -0.062454 133 
0.295705 -0.663747 -0.0615819 132 
0.295582 -0.663686 -0.0607399 135 
0.295683 -0.66374 -0.0599457 135 
0.295294 -0.663538 -0.0590499 138 
0.295174 -0.663476 -0.0582112 140 
0.29492 -0.663345 -0.0573466 137 
0.294934 -0.663354 -0.056537 139 
0.294682 -0.663224 -0.055675 142 
0.294785 -0.66328 -0.0548844 147 
0.294622 -0.663197 -0.054042 147 
0.294505 -0.663137 -0.0532094 145 
0.294609 -0.663194 -0.0524199 151 
0.29467 -0.663227 -0.0516221 151 
0.294421 -0.663099 -0.0507669 148 
0.294217 -0.662993 -0.0499214 146 
0.294367 -0.663074 -0.0491415 148 
0.294562 -0.663179 -0.0483694 151 
0.294448 -0.663121 -0.0475419 148 
0.294511 -0.663156 -0.0467465 148 
0.294574 -0.663192 -0.0459511 151 
0.294904 -0.663367 -0.0452014 152 
0.29457 -0.663194 -0.0443386 155 
0.294944 -0.663393 -0.0435957 155 
0.295231 -0.663547 -0.0428371 152 
0.29481 -0.663326 -0.0419625 157 
0.294523 -0.663177 -0.0411115 157 
0.295164 -0.663517 -0.0404093 158 
0.294789 -0.663321 -0.0395456 160 
0.29468 -0.663266 -0.038725 162 
0.294483 -0.663164 -0.0378917 159 
0.294463 -0.663156 -0.0370862 161 
0.29462 -0.663241 -0.0363072 160 
0.295043 -0.663465 -0.0355667 162 
0.294804 -0.663341 -0.0347295 158 
0.295405 -0.66366 -0.0340126 159 
0.29521 -0.663559 -0.0331825 162 
0.29537 -0.663646 -0.0324021 167 
0.295442 -0.663686 -0.0316095 162 
0.295382 -0.663656 -0.0307993 165 
0.295676 -0.663813 -0.0300361 168 
0.295882 -0.663923 -0.0292606 173 
0.296579 -0.664292 -0.0285466 170 
0.295454 -0.663702 -0.0276028 170 
0.295352 -0.66365 -0.0267894 174 
0.295648 -0.663808 -0.0260248 169 
0.295591 -0.663781 -0.0252172 177 
0.295845 -0.663916 -0.0244463 176 
0.2957 -0.663841 -0.0236291 175 
0.29622 -0.664118 -0.0228873 178 
0.296743 -0.664395 -0.0221438 176 
0.296199 -0.66411 -0.0212832 173 
0.296945 -0.664505 -0.0205616 170 
0.296846 -0.664455 -0.0197495 170 
0.296748 -0.664406 -0.0189381 172 
0.29723 -0.664661 -0.018185 170 
0.2974 -0.664753 -0.0173998 178 
0.297481 -0.664798 -0.0166056 178 
0.297385 -0.664749 -0.0157947 179 
0.297646 -0.664889 -0.0150169 183 
0.297506 -0.664817 -0.0142025 183 
0.297947 -0.665051 -0.0134395 181 
0.298031 -0.665098 -0.0126445 188 
0.298026 -0.665097 -0.0118419 186 
0.298022 -0.665097 -0.0110396 187 
0.298377 -0.665286 -0.0102657 187 
0.298643 -0.665428 -0.0094836 188 
0.298595 -0.665405 -0.0086773 191 
0.298682 -0.665453 -0.0078811 189 
0.299401 -0.665833 -0.0071289 187 
0.29958 -0.665929 -0.0063372 192 
0.300076 -0.666193 -0.0055658 190 
0.300166 -0.666242 -0.0047665 193 
0.300302 -0.666316 -0.0039698 193 
0.300076 -0.6662 -0.003151 190 
0.300032 -0.666178 -0.0023438 190 
0.300395 -0.666371 -0.0015596 197 
0.30076 -0.666566 -0.000773998 197 
0.300763 -0.666569 3.17027e-05 196 
0.300811 -0.666597 0.000834903 195 
0.301589 -0.667008 0.0016039 189 
0.301183 -0.666797 0.0024294 197 
0.301871 -0.667161 0.0032061 189 
0.302105 -0.667286 0.0040041 197 
0.302339 -0.667412 0.004803 193 
0.302437 -0.667466 0.0056079 193 
0.30249 -0.667495 0.0064146 190 
0.302818 -0.66767 0.0072125 195 
0.30278 -0.667652 0.0080229 196 
0.303155 -0.667852 0.0088213 202 
0.303717 -0.668149 0.0096164 203 
0.303403 -0.667986 0.0104349 200 
0.303459 -0.668018 0.0112439 198 
0.304624 -0.668634 0.012031 202 
0.304682 -0.668666 0.0128426 201 
0.304693 -0.668674 0.0136552 200 
0.304659 -0.668658 0.0144685 203 
0.305089 -0.668887 0.0152762 203 
0.305242 -0.668969 0.0160883 202 
0.305627 -0.669174 0.0168994 205 
0.305781 -0.669258 0.0177132 206 
0.305843 -0.669293 0.018528 207 
0.305439 -0.669082 0.0193436 203 
0.305828 -0.669288 0.0201582 201 
0.305984 -0.669373 0.0209738 201 
0.3075 -0.670173 0.0217971 207 
0.307377 -0.67011 0.0226149 205 
0.307395 -0.670122 0.0234334 205 
0.307602 -0.670233 0.0242543 207 
0.307715 -0.670295 0.0250748 206 
0.307641 -0.670258 0.0258928 207 
0.307756 -0.67032 0.026714 207 
0.307871 -0.670383 0.0275357 206 
0.308034 -0.670471 0.0283589 205 
0.308103 -0.67051 0.0291807 208 
0.30841 -0.670673 0.030009 205 
0.309523 -0.671262 0.0308613 203 
0.309452 -0.671227 0.0316826 202 
0.309905 -0.671467 0.0325206 207 
0.310168 -0.671609 0.0333541 208 
0.310576 -0.671825 0.034194 212 
0.310507 -0.671791 0.0350173 209 
0.310821 -0.671959 0.035856 207 
0.311472 -0.672303 0.0367105 208 
0.311404 -0.67227 0.0375356 207 
0.312444 -0.672821 0.0384126 205 
0.312908 -0.673068 0.0392658 204 
0.313229 -0.673238 0.0401138 206 
0.313648 -0.673461 0.0409684 205 
0.313923 -0.673608 0.0418169 204 
0.313858 -0.673576 0.0426472 199 
0.318316 -0.675927 0.043747 134 
0.315634 -0.674516 0.044425 198 
0.316998 -0.675236 0.0453501 199 
0.3159 -0.674661 0.0461188 201 
0.316083 -0.674759 0.0469702 198 
0.316317 -0.674884 0.047826 197 
0.316452 -0.674957 0.0486759 197 
0.316638 -0.675057 0.0495303 201 
0.317417 -0.67547 0.0504311 197 
0.317258 -0.675389 0.0512616 198 
0.317051 -0.675281 0.0520877 196 
0.31719 -0.675357 0.0529418 200 
0.317627 -0.67559 0.0538219 200 
0.318314 -0.675954 0.0547259 203 
0.319005 -0.67632 0.0556332 206 
0.318798 -0.676213 0.056462 203 
0.318792 -0.676212 0.0573087 203 
0.318886 -0.676264 0.0581652 203 
0.318981 -0.676316 0.0590224 203 
0.318877 -0.676263 0.0598604 199 
0.318823 -0.676237 0.0607034 196 
0.31882 -0.676237 0.0615516 196 
0.318617 -0.676133 0.062379 195 
0.318366 -0.676003 0.0632005 193 
0.318663 -0.676162 0.0640816 200 
0.318463 -0.676058 0.0649083 194 
0.318512 -0.676086 0.0657631 201 
0.318513 -0.676089 0.0666125 203 
0.318514 -0.676091 0.0674624 202 
