0.418531,-0.143407,-0.176368,16
0.418451,-0.143371,-0.175434,18
0.419867,-0.144061,-0.175162,15
0.420029,-0.144142,-0.174333,15
0.419949,-0.144106,-0.173399,17
0.419097,-0.143694,-0.17213,18
0.42076,-0.144504,-0.171953,20
0.420632,-0.144444,-0.170999,22
0.422454,-0.145333,-0.170882,22
0.421349,-0.144798,-0.16951,22
0.421709,-0.144975,-0.168765,23
0.422313,-0.145271,-0.168122,24
0.421844,-0.145045,-0.167027,24
0.422743,-0.145484,-0.166505,29
0.422665,-0.145448,-0.165575,25
0.423223,-0.145722,-0.164908,25
0.423636,-0.145925,-0.16418,23
0.423755,-0.145985,-0.163331,26
0.424515,-0.146357,-0.162743,28
0.42419,-0.146202,-0.161714,33
0.424606,-0.146406,-0.160984,30
0.424726,-0.146467,-0.160136,26
0.425242,-0.14672,-0.159444,24
0.424918,-0.146565,-0.15842,18
0.42603,-0.147107,-0.157961,24
0.42635,-0.147265,-0.15719,29
0.426224,-0.147206,-0.156244,29
0.427193,-0.14768,-0.155722,27
0.42647,-0.14733,-0.154548,26
0.427041,-0.14761,-0.153871,28
0.427315,-0.147746,-0.153079,34
0.42719,-0.147687,-0.152137,35
0.427863,-0.148017,-0.151496,32
0.427989,-0.14808,-0.150647,33
0.428264,-0.148216,-0.149855,35
0.42789,-0.148037,-0.148823,33
0.429119,-0.148637,-0.14838,31
0.429246,-0.148701,-0.147531,32
0.429625,-0.148887,-0.146774,39
0.430661,-0.149393,-0.146252,39
0.430133,-0.149139,-0.145168,42
0.430363,-0.149253,-0.144355,42
0.430341,-0.149245,-0.143453,42
0.430572,-0.149359,-0.142641,41
0.430955,-0.149548,-0.141881,45
0.43053,-0.149343,-0.140841,48
0.43056,-0.14936,-0.13996,49
0.431298,-0.149721,-0.139321,45
0.43143,-0.149787,-0.138474,50
0.430955,-0.149559,-0.137423,51
0.432203,-0.150168,-0.136951,50
0.431676,-0.149914,-0.135885,52
0.432674,-0.150402,-0.135325,52
0.43235,-0.150246,-0.134327,48
0.432485,-0.150314,-0.133481,49
0.432011,-0.150086,-0.132438,48
0.432197,-0.150179,-0.13161,52
0.43208,-0.150124,-0.130684,55
0.432317,-0.150242,-0.129873,55
0.432607,-0.150384,-0.129078,53
0.431932,-0.150059,-0.12798,53
0.432121,-0.150152,-0.127154,55
0.431197,-0.149705,-0.125984,58
0.431739,-0.149971,-0.125269,57
0.431574,-0.149893,-0.124336,60
0.430806,-0.149522,-0.123223,64
0.430594,-0.149421,-0.12228,62
0.430231,-0.149247,-0.121294,62
0.42952,-0.148903,-0.120207,62
0.42951,-0.1489,-0.11933,65
0.428853,-0.148583,-0.118265,68
0.428496,-0.148411,-0.11729,73
0.428091,-0.148216,-0.116303,76
0.426948,-0.147662,-0.115108,72
0.427088,-0.147733,-0.114282,74
0.425561,-0.146992,-0.112988,76
0.425458,-0.146944,-0.112097,78
0.42477,-0.146611,-0.111046,78
0.424231,-0.146351,-0.11004,86
0.423549,-0.146021,-0.108997,86
0.423159,-0.145834,-0.108037,93
0.42306,-0.145788,-0.107157,91
0.42224,-0.145391,-0.106086,89
0.421186,-0.14488,-0.104957,91
0.420803,-0.144696,-0.104009,94
0.42009,-0.144351,-0.102978,90
0.4199,-0.144261,-0.102085,96
0.419569,-0.144102,-0.101157,98
0.41924,-0.143944,-0.100232,101
0.418958,-0.143809,-0.0993201,104
0.418208,-0.143446,-0.0982937,108
0.416901,-0.142812,-0.0971339,108
0.416998,-0.142861,-0.0963231,113
0.416443,-0.142593,-0.0953545,116
0.417145,-0.142937,-0.0946909,119
0.415247,-0.142016,-0.0934057,117
0.415068,-0.14193,-0.0925346,117
0.414567,-0.141689,-0.0915895,120
0.414298,-0.14156,-0.0907006,120
0.4138,-0.14132,-0.089761,117
0.413442,-0.141147,-0.0888556,114
0.412856,-0.140864,-0.0879011,121
0.412501,-0.140693,-0.0870008,132
0.412373,-0.140633,-0.0861529,128
0.412428,-0.140662,-0.0853459,128
0.411984,-0.140448,-0.084431,125
0.411451,-0.140191,-0.0834994,123
0.411056,-0.14,-0.0825996,124
0.411337,-0.140139,-0.0818445,129
0.411123,-0.140037,-0.0809854,127
0.41082,-0.139892,-0.0801092,124
0.410653,-0.139812,-0.0792624,123
0.410846,-0.139908,-0.0784895,122
0.410589,-0.139785,-0.0776265,118
0.41011,-0.139554,-0.0767208,124
0.4099,-0.139454,-0.0758703,127
0.410005,-0.139507,-0.0750819,128
0.410109,-0.13956,-0.0742936,124
0.41017,-0.139591,-0.0734968,128
0.41032,-0.139667,-0.0727171,130
0.410068,-0.139546,-0.0718625,124
0.409951,-0.139491,-0.0710341,127
0.410192,-0.13961,-0.0702714,129
0.410255,-0.139643,-0.0694762,133
0.410094,-0.139567,-0.0686416,133
0.409934,-0.139491,-0.0678081,135
0.410087,-0.139567,-0.0670298,136
0.410197,-0.139623,-0.0662437,142
0.409949,-0.139504,-0.0653973,139
0.409746,-0.139407,-0.0645598,145
0.41008,-0.139572,-0.0638117,154
0.410414,-0.139737,-0.0630627,152
0.41075,-0.139902,-0.0623127,154
0.411446,-0.140243,-0.0616187,151
0.410705,-0.139884,-0.0606981,144
0.410505,-0.139789,-0.0598639,147
0.411156,-0.140108,-0.0591603,149
0.410956,-0.140013,-0.0583268,146
0.411026,-0.140049,-0.0575342,146
0.411096,-0.140085,-0.0567417,146
0.410808,-0.139946,-0.0558979,144
0.411103,-0.140092,-0.055138,147
0.411219,-0.140151,-0.0543523,152
0.410619,-0.139861,-0.0534681,159
0.41105,-0.140072,-0.052726,162
0.410943,-0.140022,-0.0519109,157
0.411106,-0.140104,-0.0511318,158
0.411405,-0.140251,-0.0503698,163
0.411659,-0.140377,-0.0496012,166
0.411464,-0.140284,-0.0487758,164
0.411719,-0.14041,-0.0480067,169
0.41184,-0.140471,-0.0472206,170
0.412007,-0.140554,-0.0464397,171
0.411904,-0.140506,-0.0456269,170
0.412161,-0.140633,-0.044856,170
0.411699,-0.140411,-0.0440035,171
0.411957,-0.140538,-0.0432326,170
0.411946,-0.140535,-0.0424317,172
0.412431,-0.140773,-0.0416837,170
0.412105,-0.140616,-0.0408496,169
0.412908,-0.141009,-0.0401321,175
0.413124,-0.141117,-0.039353,177
0.413116,-0.141114,-0.0385511,174
0.412926,-0.141024,-0.0377322,175
0.413326,-0.141221,-0.0369695,176
0.413545,-0.14133,-0.0361888,177
0.413674,-0.141394,-0.0353993,182
0.41335,-0.141239,-0.0345698,182
0.413662,-0.141392,-0.0337961,180
0.413656,-0.141392,-0.0329949,179
0.413924,-0.141524,-0.0322161,182
0.413965,-0.141546,-0.0314184,179
0.414006,-0.141568,-0.0306208,182
0.413776,-0.141458,-0.0298027,181
0.414045,-0.141591,-0.0290222,181
0.414543,-0.141836,-0.0282571,183
0.414496,-0.141815,-0.0274524,184
0.414722,-0.141927,-0.0266664,184
0.415086,-0.142106,-0.0258885,187
0.415726,-0.14242,-0.0251266,184
0.415909,-0.142511,-0.0243344,186
0.415864,-0.142491,-0.0235282,187
0.415911,-0.142516,-0.0227275,187
0.416005,-0.142564,-0.0219293,188
0.416328,-0.142723,-0.0211429,192
0.416285,-0.142704,-0.0203368,192
0.41638,-0.142753,-0.0195376,188
0.416475,-0.142801,-0.0187382,189
0.416802,-0.142962,-0.0179487,185
0.416622,-0.142877,-0.0171366,188
0.417735,-0.143421,-0.0163772,191
0.418157,-0.143629,-0.0155871,192
0.418164,-0.143634,-0.0147802,191
0.417384,-0.143256,-0.0139467,194
0.417576,-0.143352,-0.0131475,198
0.418464,-0.143786,-0.0123684,196
0.418519,-0.143815,-0.0115624,196
0.418621,-0.143867,-0.0107576,197
0.419142,-0.144123,-0.00996229,197
0.419199,-0.144152,-0.00915484,199
0.419303,-0.144205,-0.00834811,199
0.419267,-0.14419,-0.00753855,200
0.419419,-0.144266,-0.00673207,201
0.420507,-0.144798,-0.00593757,205
0.42099,-0.145035,-0.00513173,203
0.421238,-0.145158,-0.00432174,206
0.421252,-0.145167,-0.00350903,205
0.421408,-0.145245,-0.00269701,203
0.421565,-0.145324,-0.00188436,200
0.421628,-0.145356,-0.00107096,197
0.421927,-0.145504,-0.000257063,199
0.422038,-0.14556,0.000557507,199
0.422245,-0.145663,0.00137303,200
0.423688,-0.146368,0.00219826,202
0.423946,-0.146496,0.00301854,203
0.423965,-0.146507,0.00383724,205
0.424271,-0.146659,0.00465987,204
0.424387,-0.146717,0.00548087,205
0.424696,-0.14687,0.00630575,204
0.424478,-0.146765,0.00712169,202
0.424739,-0.146895,0.00794712,204
0.42505,-0.147048,0.00877484,205
0.426181,-0.147602,0.00962497,206
0.426689,-0.147851,0.0104625,205
0.426568,-0.147794,0.0112835,202
0.42669,-0.147856,0.0121119,204
0.426958,-0.147989,0.0129457,206
0.426936,-0.14798,0.0137703,208
0.426672,-0.147854,0.0145858,209
0.426942,-0.147987,0.0154216,210
0.427456,-0.14824,0.0162689,207
0.427631,-0.148327,0.0171035,206
0.428099,-0.148557,0.0179524,200
0.428764,-0.148883,0.018813,199
0.429334,-0.149163,0.0196716,199
0.429464,-0.149229,0.0205096,199
0.429594,-0.149294,0.0213483,201
0.429775,-0.149384,0.0221905,197
0.430153,-0.149571,0.0230452,199
0.430483,-0.149734,0.0238986,195
0.431111,-0.150042,0.0247723,198
0.430701,-0.149844,0.0255815,197
0.430886,-0.149936,0.0264288,191
0.431965,-0.150464,0.0273388,195
0.43255,-0.150752,0.0282184,202
0.432788,-0.15087,0.0290752,206
0.432877,-0.150915,0.0299219,204
0.432717,-0.150839,0.0307498,202
0.432657,-0.150812,0.0315853,199
0.432697,-0.150834,0.032429,195
0.432788,-0.150881,0.0332772,197
0.43278,-0.150879,0.0341175,189
0.432623,-0.150804,0.0349448,191
0.432716,-0.150851,0.0357942,192
0.432859,-0.150924,0.0366489,194
0.433254,-0.151118,0.0375279,197
0.433449,-0.151216,0.0383897,200
0.432994,-0.150995,0.0391888,197
0.432889,-0.150947,0.0400213,197
0.433086,-0.151045,0.0408844,199
0.433435,-0.151217,0.0417644,202
0.433282,-0.151144,0.0425928,197
0.432979,-0.150999,0.0434046,200
0.432978,-0.151001,0.0442487,202
0.433178,-0.1511,0.0451156,202
0.433178,-0.151102,0.0459608,205
0.433329,-0.151178,0.0468239,201
0.43323,-0.151132,0.0476581,204
0.433082,-0.151062,0.0484863,203
0.432783,-0.150918,0.0492957,200
0.432486,-0.150775,0.0501043,201
0.43269,-0.150877,0.0509756,203
0.432644,-0.150857,0.0518159,202
0.432498,-0.150788,0.0526432,204
0.432553,-0.150817,0.0534969,201
0.432409,-0.150749,0.0543242,204
0.432566,-0.150827,0.0551926,207
0.432122,-0.150613,0.0559782,210
0.431531,-0.150327,0.0567414,208
0.430694,-0.149921,0.057467,211
0.430851,-0.149999,0.0583346,212
0.430017,-0.149595,0.0590565,216
0.429977,-0.149577,0.0598944,216
0.429789,-0.149488,0.06071,216
0.429207,-0.149206,0.0614644,215
0.427891,-0.148567,0.0621021,217
0.427658,-0.148455,0.062906,223
0.427132,-0.148201,0.0636624,220
0.427095,-0.148185,0.0644964,220
0.42701,-0.148146,0.0653228,218
0.426147,-0.147727,0.0660194,218
0.424612,-0.14698,0.0665994,219
0.424336,-0.146848,0.0673887,218
0.424158,-0.146763,0.0681939,221
0.424124,-0.146749,0.0690242,218
0.424043,-0.146711,0.0698462,218
0.423963,-0.146674,0.0706685,217
0.423691,-0.146543,0.0714561,215
0.423036,-0.146226,0.0721727,215
0.421621,-0.145538,0.0727461,215
0.421448,-0.145456,0.0735468,213
0.421418,-0.145443,0.0743745,216
0.421104,-0.145292,0.0751479,214
0.420933,-0.145211,0.0759481,215
0.420715,-0.145107,0.0767389,215
0.41993,-0.144726,0.077417,213
0.41868,-0.144118,0.0779989,205
0.418512,-0.144039,0.0787951,209
0.418111,-0.143845,0.0795433,212
0.417991,-0.143789,0.0803484,214
0.418012,-0.143801,0.0811829,212
0.4178,-0.1437,0.0819687,211
0.417542,-0.143576,0.0827443,208
0.417565,-0.143589,0.0835796,208
0.417028,-0.143329,0.0842941,207
0.416075,-0.142867,0.0849156,208
0.415266,-0.142474,0.0855653,211
0.41529,-0.142488,0.0863982,208
0.415268,-0.142479,0.0872213,213
0.415108,-0.142403,0.0880134,212
0.415132,-0.142417,0.0888479,212
0.414973,-0.142341,0.0896403,210
0.415091,-0.142401,0.0904974,207
0.414703,-0.142214,0.0912358,204
0.414085,-0.141914,0.0919184,203
0.41402,-0.141885,0.0927319,201
0.413634,-0.141698,0.0934678,202
0.413295,-0.141535,0.094214,199
0.413506,-0.14164,0.0950952,199
0.412893,-0.141343,0.0957727,197
0.412831,-0.141315,0.0965861,195
0.412631,-0.14122,0.0973653,193
0.412524,-0.141169,0.0981675,195
0.412553,-0.141186,0.0990053,197
0.41263,-0.141225,0.0998557,195
0.41266,-0.141242,0.100695,194
0.41292,-0.141371,0.101596,192
0.412586,-0.14121,0.10234,196
0.412755,-0.141295,0.103218,189
0.412513,-0.141179,0.103987,192
0.412592,-0.141219,0.104842,189
0.412579,-0.141215,0.105674,191
0.412751,-0.141301,0.106556,185
0.412739,-0.141297,0.107389,182
0.412682,-0.141272,0.10821,183
0.412763,-0.141313,0.10907,180
0.412569,-0.141221,0.109853,180
0.412697,-0.141285,0.110728,176
0.412871,-0.141372,0.111618,176
0.413091,-0.141482,0.112522,175
0.413175,-0.141525,0.113388,176
0.413074,-0.141478,0.1142,177
0.413067,-0.141476,0.11504,180
0.413197,-0.141542,0.115922,181
0.413559,-0.141721,0.116876,178
0.413552,-0.14172,0.117719,175
0.413408,-0.141651,0.118521,174
0.413818,-0.141853,0.119494,178
0.413905,-0.141898,0.120369,178
0.414224,-0.142056,0.121318,179
0.413988,-0.141943,0.122093,174
0.414123,-0.142011,0.122986,176
0.414677,-0.142283,0.124015,178
0.414534,-0.142216,0.124822,180
0.414531,-0.142217,0.125674,179
0.414995,-0.142445,0.126679,177
0.415366,-0.142628,0.127657,179
0.415271,-0.142584,0.128483,180
0.415364,-0.142631,0.129372,179
0.415269,-0.142588,0.130198,179
0.415878,-0.142887,0.131263,180
0.416207,-0.143049,0.132236,179
0.416255,-0.143075,0.133115,182
0.416256,-0.143078,0.133978,178
0.416398,-0.143149,0.134892,179
0.416542,-0.143222,0.135807,180
0.416827,-0.143363,0.136773,179
0.416972,-0.143436,0.137691,180
0.417259,-0.143578,0.138662,176
0.417452,-0.143675,0.139601,181
0.417693,-0.143795,0.140558,178
0.41765,-0.143776,0.141415,173
0.417798,-0.14385,0.142342,176
0.417708,-0.143808,0.143182,179
0.418142,-0.144022,0.144217,172
0.418482,-0.144191,0.145219,170
0.419063,-0.144476,0.146313,168
0.419358,-0.144623,0.147304,169
0.419653,-0.144769,0.148297,172
0.419662,-0.144775,0.149182,171
0.419815,-0.144852,0.150124,170
0.419775,-0.144835,0.150993,174
0.420944,-0.145408,0.15233,175
0.420712,-0.145297,0.153128,174
0.420625,-0.145257,0.153983,171
0.420878,-0.145383,0.154972,167
0.421521,-0.145699,0.156117,172
0.421581,-0.14573,0.157034,167
0.421983,-0.145929,0.158088,164
0.422142,-0.146009,0.159048,171
0.422204,-0.146041,0.15997,167
0.422462,-0.14617,0.160972,171
0.42277,-0.146322,0.161997,170
0.423178,-0.146523,0.163065,166
0.423242,-0.146557,0.163994,162
0.424491,-0.147169,0.165417,164
0.424805,-0.147325,0.166455,162
0.424623,-0.147238,0.167287,165
0.425236,-0.14754,0.168455,159
0.425702,-0.14777,0.169564,156
0.42577,-0.147805,0.170506,160
0.426189,-0.148012,0.171599,155
0.42691,-0.148367,0.172826,150
0.427685,-0.148747,0.174081,155
0.428008,-0.148908,0.175143,155
0.428131,-0.14897,0.176119,151
0.428608,-0.149205,0.177253,148
0.429036,-0.149417,0.178369,141
0.429772,-0.149778,0.179624,137
0.430154,-0.149967,0.180725,133
0.430331,-0.150056,0.181736,140
0.430406,-0.150095,0.182703,141
0.430842,-0.15031,0.183835,134
0.431743,-0.150753,0.185183,130
0.432649,-0.151198,0.186538,132
0.432157,-0.15096,0.187253,129
0.433015,-0.151381,0.188593,133
0.432575,-0.151168,0.189332,136
0.433071,-0.151413,0.190509,128
0.433203,-0.15148,0.191518,121
0.433389,-0.151573,0.192554,118
0.434098,-0.151922,0.19384,124
0.434181,-0.151965,0.194831,127
0.433844,-0.151803,0.195623,127
0.433875,-0.15182,0.19659,124
0.434221,-0.151991,0.197712,114
0.43462,-0.152189,0.198863,113
0.434916,-0.152336,0.199965,104
0.434843,-0.152303,0.200889,110
0.435088,-0.152424,0.20197,113
0.435068,-0.152417,0.202922,114
0.435525,-0.152643,0.204113,119
0.435189,-0.152481,0.204909,128
0.435065,-0.152423,0.205812,127
0.411499,-0.136154,-0.204993,6
0.414866,-0.13776,-0.205849,5
0.412173,-0.136479,-0.203524,4
0.41237,-0.136575,-0.202715,8
0.411205,-0.136023,-0.201202,5
0.411448,-0.136141,-0.200421,6
0.412726,-0.136752,-0.20017,7
0.413822,-0.137276,-0.199821,6
0.41317,-0.136968,-0.198579,8
0.412332,-0.136571,-0.197248,9
0.416424,-0.138522,-0.198404,8
0.414383,-0.137553,-0.196467,7
0.414204,-0.137469,-0.19547,10
0.412705,-0.136758,-0.193819,9
0.413989,-0.137372,-0.193551,6
0.415281,-0.137989,-0.193283,9
0.414865,-0.137793,-0.192173,10
0.414829,-0.137779,-0.191251,8
0.415792,-0.13824,-0.190815,10
0.416186,-0.138429,-0.1901,10
0.416102,-0.138392,-0.189155,8
0.415734,-0.138219,-0.188075,9
0.415556,-0.138137,-0.187088,11
0.416618,-0.138645,-0.186691,12
0.416297,-0.138494,-0.185637,12
0.417363,-0.139004,-0.185236,11
0.417472,-0.139058,-0.184385,11
0.417438,-0.139044,-0.183467,13
0.416926,-0.138803,-0.182329,12
0.420119,-0.140326,-0.1829,11
0.417866,-0.139255,-0.180962,13
0.420148,-0.140344,-0.181103,14
0.419243,-0.139916,-0.179789,15
0.418825,-0.139718,-0.178699,13
0.420096,-0.140326,-0.178371,16
0.41929,-0.139945,-0.177109,14
0.421002,-0.140762,-0.176972,14
0.42029,-0.140425,-0.175755,16
0.421132,-0.140829,-0.175226,14
0.42042,-0.140492,-0.174014,15
0.421019,-0.14078,-0.173378,16
0.421865,-0.141185,-0.172845,18
0.421249,-0.140894,-0.17168,19
0.421607,-0.141067,-0.170937,21
0.422162,-0.141333,-0.170276,24
0.423159,-0.14181,-0.169801,24
0.423521,-0.141985,-0.169054,22
0.423933,-0.142184,-0.168328,23
0.42297,-0.141727,-0.167027,26
0.424562,-0.142488,-0.166791,23
0.425224,-0.142806,-0.166165,27
0.424404,-0.142417,-0.164929,27
0.423932,-0.142195,-0.163838,27
0.42479,-0.142606,-0.163291,27
0.42575,-0.143066,-0.162783,23
0.426416,-0.143385,-0.162152,22
0.426139,-0.143256,-0.161143,21
0.426409,-0.143386,-0.160353,24
0.426381,-0.143375,-0.159444,23
0.426851,-0.143601,-0.158733,29
0.426873,-0.143614,-0.157845,32
0.427294,-0.143817,-0.157112,31
0.428316,-0.144307,-0.156611,31
0.42834,-0.14432,-0.155722,29
0.427863,-0.144095,-0.154643,30
0.428087,-0.144204,-0.153833,31
0.429114,-0.144696,-0.153326,32
0.429088,-0.144686,-0.152419,36
0.429666,-0.144963,-0.151739,42
0.429038,-0.144666,-0.15061,36
0.429818,-0.14504,-0.150004,33
0.429341,-0.144815,-0.148934,36
0.42982,-0.145046,-0.148215,33
0.430249,-0.145253,-0.147477,28
0.430176,-0.14522,-0.146556,33
0.429952,-0.145115,-0.145583,33
0.431089,-0.14566,-0.145096,37
0.432131,-0.146159,-0.14457,39
0.432058,-0.146126,-0.143649,38
0.431985,-0.146094,-0.14273,44
0.432269,-0.146231,-0.141934,45
0.431689,-0.145957,-0.140841,44
0.432888,-0.146531,-0.14036,40
0.432003,-0.146111,-0.139166,46
0.432136,-0.146177,-0.13832,46
0.431914,-0.146073,-0.137355,45
0.432961,-0.146574,-0.136815,46
0.432688,-0.146446,-0.135834,49
0.432568,-0.146391,-0.134905,49
0.432449,-0.146337,-0.133977,54
0.432634,-0.146428,-0.13315,57
0.433024,-0.146616,-0.132388,55
0.432601,-0.146416,-0.131365,53
0.432889,-0.146556,-0.130571,53
0.432925,-0.146575,-0.129696,57
0.433062,-0.146642,-0.128854,59
0.432996,-0.146613,-0.127948,61
0.43288,-0.14656,-0.127028,64
0.432765,-0.146507,-0.126109,67
0.432498,-0.146382,-0.125145,67
0.432738,-0.146499,-0.124336,66
0.43227,-0.146278,-0.123314,60
0.432714,-0.146492,-0.122567,61
0.431843,-0.146079,-0.121429,60
0.431581,-0.145956,-0.120474,59
0.430466,-0.145427,-0.119271,64
0.429857,-0.145138,-0.118221,70
0.429002,-0.144733,-0.117103,72
0.428399,-0.144447,-0.116062,77
0.428094,-0.144304,-0.115108,87
0.427446,-0.143997,-0.11406,83
0.426702,-0.143645,-0.112988,78
0.426599,-0.143598,-0.112097,75
0.42508,-0.142876,-0.110818,81
0.424541,-0.142621,-0.109814,88
0.423812,-0.142275,-0.108761,91
0.423615,-0.142183,-0.107855,99
0.423082,-0.141931,-0.10686,101
0.423225,-0.142001,-0.106047,101
0.422311,-0.141568,-0.104957,94
0.42207,-0.141455,-0.104047,95
0.421401,-0.141138,-0.103027,98
0.420451,-0.140687,-0.101939,99
0.420262,-0.140599,-0.101049,103
0.419884,-0.140421,-0.100112,111
0.419461,-0.140221,-0.0991667,101
0.419699,-0.140337,-0.0983872,100
0.418478,-0.139757,-0.0972489,105
0.417826,-0.139448,-0.0962547,109
0.41727,-0.139185,-0.095287,112
0.417042,-0.139078,-0.0944006,118
0.416953,-0.139038,-0.0935488,114
0.416402,-0.138777,-0.092589,111
0.415714,-0.13845,-0.0916003,111
0.415581,-0.138389,-0.0907432,116
0.414806,-0.138021,-0.08974,118
0.414538,-0.137896,-0.0888556,125
0.414042,-0.137661,-0.0879217,124
0.413502,-0.137406,-0.0869805,125
0.413101,-0.137216,-0.0860727,124
0.413064,-0.137201,-0.0852466,123
0.412529,-0.136948,-0.0843133,126
0.412676,-0.13702,-0.0835285,125
0.411871,-0.136638,-0.0825422,127
0.412199,-0.136796,-0.0817971,120
0.411849,-0.136631,-0.0809103,128
0.412087,-0.136747,-0.0801463,131
0.411693,-0.136561,-0.0792532,131
0.411481,-0.136462,-0.0783988,135
0.410999,-0.136234,-0.077492,132
0.411373,-0.136415,-0.0767562,131
0.411388,-0.136423,-0.0759492,130
0.410998,-0.13624,-0.0750646,136
0.411013,-0.136249,-0.0742593,126
0.411029,-0.136258,-0.0734544,132
0.411045,-0.136268,-0.07265,133
0.411331,-0.136407,-0.0718957,128
0.410496,-0.13601,-0.070936,138
0.411141,-0.13632,-0.0702471,132
0.410935,-0.136224,-0.0694042,132
0.411222,-0.136363,-0.0686495,136
0.410972,-0.136245,-0.0678003,139
0.410812,-0.136171,-0.0669681,137
0.411236,-0.136375,-0.0662361,141
0.411615,-0.136558,-0.0654953,142
0.411007,-0.13627,-0.0645895,142
0.411029,-0.136282,-0.0637897,145
0.410782,-0.136167,-0.0629467,145
0.410625,-0.136094,-0.0621195,149
0.410871,-0.136213,-0.0613567,146
0.410894,-0.136226,-0.0605586,147
0.410962,-0.136261,-0.0597676,145
0.41121,-0.136381,-0.0590039,146
0.411818,-0.136673,-0.0582932,147
0.411439,-0.136494,-0.057435,145
0.41124,-0.136401,-0.0566049,146
0.411804,-0.136673,-0.055885,143
0.411606,-0.13658,-0.0550557,152
0.411633,-0.136595,-0.0542587,152
0.411795,-0.136674,-0.0534804,160
0.411867,-0.136711,-0.0526896,160
0.411536,-0.136555,-0.0518454,159
0.412104,-0.136828,-0.0511201,156
0.412178,-0.136865,-0.0503293,160
0.412253,-0.136903,-0.0495385,161
0.412418,-0.136984,-0.048759,164
0.412674,-0.137108,-0.0479902,167
0.41257,-0.13706,-0.0471772,167
0.412872,-0.137206,-0.046413,168
0.412994,-0.137267,-0.0456269,170
0.413072,-0.137306,-0.0448354,172
0.413467,-0.137496,-0.0440794,169
0.413274,-0.137406,-0.0432574,173
0.413399,-0.137468,-0.0424707,171
0.413298,-0.137421,-0.0416598,170
0.413831,-0.137678,-0.0409153,169
0.413912,-0.137718,-0.0401229,167
0.413902,-0.137716,-0.0393214,170
0.413848,-0.137692,-0.0385157,179
0.414112,-0.13782,-0.0377409,174
0.414377,-0.137948,-0.0369652,178
0.414188,-0.13786,-0.0361472,177
0.414544,-0.138033,-0.035379,182
0.414629,-0.138075,-0.0345857,181
0.414532,-0.138031,-0.0337767,182
0.4148,-0.13816,-0.0329987,184
0.414977,-0.138247,-0.0322124,185
0.415246,-0.138378,-0.0314328,187
0.415288,-0.1384,-0.0306348,187
0.415148,-0.138335,-0.0298232,186
0.415464,-0.138488,-0.0290455,188
0.415325,-0.138423,-0.0282344,184
0.416054,-0.138774,-0.0274838,186
0.41587,-0.138687,-0.0266694,190
0.416327,-0.138908,-0.0258974,193
0.416143,-0.138822,-0.0250835,189
0.416694,-0.139087,-0.0243149,191
0.416925,-0.139199,-0.0235255,189
0.417064,-0.139267,-0.0227301,190
0.417019,-0.139248,-0.0219243,189
0.41716,-0.139317,-0.0211284,192
0.417393,-0.13943,-0.0203368,195
0.41758,-0.139522,-0.0195421,196
0.4174,-0.139438,-0.0187297,194
0.417588,-0.13953,-0.0179344,194
0.417778,-0.139622,-0.0171385,192
0.417968,-0.139715,-0.016342,191
0.418159,-0.139808,-0.0155448,191
0.418814,-0.140123,-0.0147635,192
0.419658,-0.140528,-0.0139861,195
0.419759,-0.140579,-0.0131815,197
0.41958,-0.140495,-0.0123684,197
0.419636,-0.140524,-0.0115624,193
0.419598,-0.140508,-0.010754,196
0.420261,-0.140826,-0.00996229,206
0.420318,-0.140856,-0.00915484,203
0.420329,-0.140863,-0.00834628,202
0.421654,-0.141498,-0.00756072,203
0.421855,-0.141595,-0.00675238,204
0.422245,-0.141784,-0.00594578,206
0.422399,-0.14186,-0.00513495,205
0.422366,-0.141846,-0.00432174,205
0.422191,-0.141764,-0.00350766,201
0.422252,-0.141796,-0.00269554,201
0.422362,-0.14185,-0.00188332,201
0.422614,-0.141972,-0.0010708,199
0.422867,-0.142095,-0.000257245,199
0.423216,-0.142264,0.00055765,203
0.423424,-0.142365,0.00137327,206
0.424921,-0.143082,0.00219894,205
0.425179,-0.143207,0.00301942,206
0.425342,-0.143287,0.00383992,209
0.425218,-0.14323,0.00465732,205
0.425334,-0.143288,0.00547793,205
0.425548,-0.143392,0.00630074,204
0.425617,-0.143427,0.00712169,207
0.426265,-0.143739,0.00795539,204
0.426529,-0.143867,0.00878278,207
0.427036,-0.144111,0.00961753,202
0.427012,-0.144101,0.0104398,203
0.427521,-0.144347,0.0112778,203
0.427547,-0.144361,0.0121026,200
0.42801,-0.144584,0.0129424,206
0.428329,-0.144739,0.0137791,207
0.428551,-0.144847,0.0146135,206
0.428627,-0.144886,0.015443,208
0.428753,-0.144948,0.0162751,206
0.429272,-0.145197,0.017125,200
0.42989,-0.145495,0.0179818,198
0.430461,-0.14577,0.0188391,197
0.430788,-0.145928,0.0196865,203
0.43082,-0.145945,0.0205199,201
0.430902,-0.145986,0.0213563,200
0.431033,-0.146051,0.0221961,200
0.430968,-0.146022,0.0230249,195
0.431249,-0.146159,0.0238747,197
0.432227,-0.146628,0.0247692,198
0.431766,-0.14641,0.025575,196
0.432448,-0.146738,0.0264553,194
0.432983,-0.146995,0.0273285,198
0.432622,-0.146825,0.0281406,196
0.433309,-0.147155,0.0290277,197
0.433248,-0.147128,0.0298618,194
0.433437,-0.147221,0.0307151,197
0.433577,-0.14729,0.0315655,197
0.433618,-0.147311,0.0324086,198
0.433709,-0.147357,0.0332563,194
0.433401,-0.147212,0.0340705,193
0.433693,-0.147354,0.0349361,196
0.433837,-0.147424,0.0357898,198
0.43383,-0.147423,0.0366305,197
0.433925,-0.147471,0.037481,193
0.434322,-0.147662,0.0383609,194
0.434015,-0.147518,0.0391741,195
0.434363,-0.147686,0.0400514,194
0.433907,-0.147471,0.0408486,198
0.433754,-0.147399,0.0416756,193
0.433501,-0.147281,0.0424917,193
0.43365,-0.147354,0.0433504,190
0.433448,-0.14726,0.0441714,202
0.433648,-0.147357,0.0450368,197
0.433698,-0.147383,0.0458862,201
0.433799,-0.147434,0.046742,210
0.4336,-0.14734,0.047563,199
0.433702,-0.147391,0.0484197,203
0.434006,-0.147539,0.0493019,206
0.434159,-0.147614,0.0501669,208
0.433912,-0.147498,0.050982,209
0.433715,-0.147406,0.0518029,207
0.432917,-0.147027,0.0525449,204
0.431575,-0.146388,0.0532116,204
0.431531,-0.146369,0.054048,206
0.431537,-0.146374,0.0548914,209
0.431544,-0.146379,0.0557352,212
0.431502,-0.146361,0.0565725,215
0.431013,-0.146129,0.057346,213
0.430823,-0.146041,0.0581613,213
0.43098,-0.146118,0.0590273,217
0.430841,-0.146054,0.0598499,217
0.429911,-0.145611,0.0605525,220
0.429083,-0.145218,0.0612675,220
0.42875,-0.145061,0.0620562,222
0.428173,-0.144787,0.0628054,219
0.42794,-0.144678,0.0636076,219
0.427903,-0.144662,0.064441,218
0.427916,-0.14467,0.0652827,219
0.425836,-0.143678,0.0657774,218
0.425414,-0.143479,0.0665425,221
0.425428,-0.143487,0.0673804,221
0.425152,-0.143358,0.0681689,220
0.425312,-0.143436,0.0690326,223
0.425279,-0.143422,0.0698633,221
0.424957,-0.143271,0.0706426,215
0.423435,-0.142545,0.0712043,214
0.42326,-0.142464,0.0720062,212
0.422132,-0.141926,0.0726316,212
0.422006,-0.141868,0.07344,214
0.421786,-0.141765,0.0742305,213
0.421804,-0.141776,0.0750661,212
0.42187,-0.141809,0.0759114,211
0.421699,-0.14173,0.0767111,215
0.419873,-0.140859,0.077184,212
0.419752,-0.140803,0.0779895,212
0.419395,-0.140635,0.0787477,211
0.419228,-0.140557,0.0795433,211
0.41878,-0.140345,0.0802809,210
0.418941,-0.140424,0.0811439,212
0.418822,-0.140369,0.081949,211
0.417117,-0.139556,0.0824177,208
0.416907,-0.139457,0.0831999,208
0.416651,-0.139337,0.0839718,208
0.416303,-0.139173,0.084723,206
0.41628,-0.139164,0.0855449,207
0.415933,-0.139,0.0862951,203
0.416003,-0.139036,0.0871381,204
0.415889,-0.138983,0.0879399,207
0.415637,-0.138865,0.0887102,202
0.415293,-0.138702,0.0894587,200
0.415411,-0.138761,0.090314,201
0.414286,-0.138225,0.0908779,197
0.413853,-0.13802,0.0916019,198
0.414201,-0.138188,0.0925115,198
0.414274,-0.138225,0.0933567,194
0.413614,-0.137912,0.0940239,192
0.41355,-0.137883,0.0948356,190
0.413578,-0.137899,0.0956703,194
0.413698,-0.137958,0.0965288,196
0.413407,-0.137821,0.0972843,197
0.413482,-0.137859,0.0981326,194
0.413421,-0.137832,0.0989465,200
0.413497,-0.13787,0.0997964,191
0.413436,-0.137843,0.100611,195
0.413559,-0.137904,0.101475,192
0.41359,-0.137921,0.102316,196
0.413485,-0.137873,0.10312,190
0.413563,-0.137913,0.103975,190
0.413596,-0.13793,0.104817,189
0.413492,-0.137883,0.105623,191
0.413434,-0.137857,0.106442,185
0.413331,-0.13781,0.107249,185
0.413687,-0.137982,0.108184,184
0.41386,-0.138067,0.10907,186
0.413896,-0.138086,0.109919,178
0.413748,-0.138017,0.110715,183
0.413784,-0.138037,0.111564,176
0.413867,-0.138079,0.112428,181
0.413858,-0.138077,0.113266,183
0.413804,-0.138053,0.114091,180
0.41398,-0.138139,0.114985,178
0.413788,-0.13805,0.11577,179
0.414798,-0.138535,0.116918,179
0.414606,-0.138445,0.117705,178
0.414693,-0.138489,0.118578,176
0.414687,-0.138488,0.119422,174
0.415286,-0.138776,0.120455,180
0.415188,-0.138732,0.121274,174
0.414765,-0.138532,0.121991,175
0.414761,-0.138532,0.122839,178
0.415269,-0.138777,0.123851,176
0.41494,-0.138621,0.124597,176
0.415542,-0.138912,0.125644,175
0.415913,-0.139092,0.126618,177
0.416005,-0.139138,0.127504,170
0.416472,-0.139363,0.128514,176
0.416002,-0.139141,0.129216,177
0.415627,-0.138963,0.129948,176
0.415814,-0.139055,0.130868,177
0.416423,-0.139348,0.131933,176
0.416518,-0.139396,0.132826,179
0.417131,-0.139691,0.133897,179
0.416991,-0.139626,0.134712,179
0.417323,-0.139787,0.135692,176
0.417703,-0.139972,0.13669,178
0.419227,-0.140703,0.138093,178
0.418326,-0.140274,0.138645,176
0.418282,-0.140255,0.139499,174
0.418049,-0.140146,0.140286,175
0.418528,-0.140377,0.141329,175
0.418724,-0.140473,0.142272,177
0.418682,-0.140455,0.14313,178
0.418878,-0.140551,0.144077,177
0.419123,-0.140671,0.145042,176
0.419369,-0.14079,0.14601,172
0.420529,-0.141347,0.147322,172
0.420392,-0.141284,0.148152,172
0.4204,-0.14129,0.149036,171
0.420939,-0.141551,0.150124,168
0.420417,-0.141303,0.150808,172
0.421442,-0.141796,0.152087,168
0.42184,-0.141988,0.153128,172
0.422094,-0.142112,0.154116,172
0.422251,-0.142189,0.155067,173
0.422457,-0.14229,0.15604,173
0.422615,-0.142368,0.156995,172
0.422774,-0.142446,0.157952,168
0.423521,-0.142806,0.159146,164
0.423338,-0.142721,0.15997,165
0.423401,-0.142753,0.160893,163
0.423956,-0.143021,0.162017,165
0.423675,-0.142889,0.162803,166
0.425023,-0.143536,0.164259,168
0.425286,-0.143665,0.165273,170
0.425551,-0.143793,0.166289,164
0.425717,-0.143875,0.167266,167
0.425933,-0.143981,0.168266,165
0.42625,-0.144135,0.16931,172
0.426818,-0.144409,0.170463,161
0.427841,-0.144901,0.171815,163
0.427407,-0.144696,0.172545,156
0.428334,-0.145142,0.173862,159
0.429368,-0.145639,0.175231,152
0.429338,-0.145627,0.176141,152
0.430021,-0.145956,0.177365,159
0.429992,-0.145945,0.178278,152
0.429658,-0.145787,0.179057,141
0.430344,-0.146118,0.18029,140
0.431239,-0.146548,0.181621,137
0.431315,-0.146587,0.182587,137
0.431957,-0.146897,0.183812,133
0.432292,-0.14706,0.1849,129
0.432163,-0.147,0.185779,129
0.4325,-0.147163,0.186871,129
0.432889,-0.147352,0.187991,122
0.433124,-0.147467,0.189042,128
0.434404,-0.148082,0.190582,124
0.434642,-0.148198,0.191641,126
0.434566,-0.148165,0.192554,128
0.43491,-0.148332,0.193666,130
0.435203,-0.148474,0.194756,129
0.435076,-0.148416,0.195648,124
0.434949,-0.148357,0.19654,120
0.435348,-0.148551,0.197687,115
0.436331,-0.149024,0.19912,105
0.43594,-0.148839,0.199888,110
0.436662,-0.149187,0.201201,114
0.435795,-0.148774,0.201735,116
0.435722,-0.148742,0.20266,118
0.435968,-0.148862,0.203744,122
0.435949,-0.148856,0.204697,126
0.43694,-0.149333,0.206158,125
0.414353,-0.133757,-0.205938,6
0.410084,-0.131767,-0.20279,5
0.414369,-0.133769,-0.204116,5
0.41291,-0.13309,-0.202446,8
0.415959,-0.134515,-0.20311,6
0.413684,-0.133456,-0.201026,7
0.412797,-0.133044,-0.199663,5
0.412901,-0.133095,-0.19881,9
0.413996,-0.133608,-0.198459,8
0.414669,-0.133925,-0.197892,9
0.415202,-0.134176,-0.197251,5
0.413084,-0.133189,-0.195285,6
0.417374,-0.135194,-0.196516,8
0.415329,-0.134242,-0.194592,10
0.416054,-0.134582,-0.194044,7
0.415732,-0.134434,-0.192979,10
0.418959,-0.135943,-0.19365,9
0.418005,-0.1355,-0.192275,13
0.417824,-0.135418,-0.191279,7
0.415257,-0.134222,-0.189136,8
0.418377,-0.13568,-0.18973,9
0.416139,-0.134638,-0.187757,10
0.417921,-0.135472,-0.187702,11
0.418175,-0.135592,-0.186917,11
0.418621,-0.135803,-0.186224,13
0.419503,-0.136217,-0.185732,11
0.418648,-0.13582,-0.18443,9
0.41871,-0.135851,-0.183556,16
0.419013,-0.135995,-0.182794,13
0.421014,-0.136931,-0.182811,12
0.41885,-0.135924,-0.180918,13
0.420169,-0.136541,-0.180618,13
0.42135,-0.137095,-0.18025,15
0.421413,-0.137127,-0.179375,16
0.420845,-0.136864,-0.178219,17
0.42125,-0.137055,-0.177498,11
0.421558,-0.137201,-0.176734,11
0.420942,-0.136916,-0.175562,17
0.421932,-0.13738,-0.175098,15
0.422681,-0.137732,-0.174525,15
0.422161,-0.137492,-0.173399,12
0.422716,-0.137753,-0.17274,16
0.424107,-0.138405,-0.172438,17
0.423437,-0.138094,-0.17125,18
0.424044,-0.13838,-0.170609,19
0.423915,-0.138322,-0.169655,17
0.423983,-0.138356,-0.168785,20
0.424592,-0.138643,-0.168142,29
0.425253,-0.138953,-0.167519,26
0.425124,-0.138895,-0.166566,27
0.42544,-0.139045,-0.165798,26
0.425658,-0.139149,-0.164989,29
0.425777,-0.139207,-0.16414,28
0.426591,-0.139589,-0.163572,26
0.42686,-0.139717,-0.162783,28
0.42733,-0.139939,-0.162072,25
0.427301,-0.139928,-0.161163,19
0.427572,-0.140056,-0.160372,24
0.427893,-0.140209,-0.159602,22
0.428065,-0.140291,-0.158772,29
0.428738,-0.140608,-0.158137,30
0.429062,-0.140761,-0.157364,33
0.429035,-0.140751,-0.156456,29
0.430468,-0.141422,-0.156108,39
0.429383,-0.140918,-0.154796,32
0.430212,-0.141307,-0.154214,34
0.430086,-0.14125,-0.153269,29
0.430211,-0.141311,-0.152419,32
0.430488,-0.141443,-0.151627,31
0.430766,-0.141575,-0.150834,34
0.430893,-0.141636,-0.149985,29
0.430869,-0.141627,-0.149081,35
0.431047,-0.141713,-0.148251,30
0.431023,-0.141704,-0.147349,37
0.430748,-0.141577,-0.146357,36
0.431533,-0.141946,-0.145745,43
0.432575,-0.142436,-0.145222,43
0.43235,-0.142332,-0.144248,43
0.432632,-0.142467,-0.143453,39
0.432916,-0.142601,-0.142659,45
0.432386,-0.142356,-0.141583,41
0.43267,-0.142491,-0.140789,46
0.432802,-0.142555,-0.139943,49
0.43324,-0.142761,-0.1392,50
0.433525,-0.142897,-0.138406,48
0.433761,-0.143009,-0.137594,47
0.433793,-0.143026,-0.136713,48
0.43357,-0.142925,-0.13575,57
0.433704,-0.14299,-0.134905,57
0.43384,-0.143055,-0.13406,57
0.433466,-0.142882,-0.133051,51
0.434981,-0.143592,-0.132652,52
0.434605,-0.143419,-0.131642,53
0.434231,-0.143247,-0.130636,53
0.43442,-0.143337,-0.129809,52
0.4342,-0.143237,-0.128854,60
0.434185,-0.143232,-0.127964,62
0.433814,-0.143061,-0.126965,61
0.433089,-0.142724,-0.12586,66
0.432873,-0.142626,-0.124913,69
0.433418,-0.142882,-0.124198,67
0.43295,-0.142666,-0.123177,69
0.432382,-0.142403,-0.122129,64
0.432472,-0.142447,-0.121279,64
0.431254,-0.14188,-0.120045,65
0.431444,-0.141971,-0.119227,71
0.431334,-0.141922,-0.118323,65
0.431225,-0.141873,-0.117419,71
0.42947,-0.141055,-0.116048,75
0.428077,-0.140406,-0.114786,77
0.42812,-0.140428,-0.113935,82
0.427572,-0.140174,-0.112919,83
0.426585,-0.139715,-0.111785,86
0.425945,-0.139419,-0.110751,88
0.425843,-0.139373,-0.109867,88
0.425158,-0.139055,-0.108826,85
0.425155,-0.139056,-0.107972,90
0.424329,-0.138672,-0.106899,89
0.423315,-0.1382,-0.105781,94
0.423025,-0.138067,-0.104857,96
0.422641,-0.137889,-0.10391,98
0.422305,-0.137735,-0.102978,104
0.421781,-0.137492,-0.102,109
0.420783,-0.137028,-0.100904,110
0.420737,-0.137008,-0.100053,104
0.420124,-0.136724,-0.0990608,103
0.419513,-0.13644,-0.0980725,101
0.419281,-0.136334,-0.0971799,105
0.419331,-0.136359,-0.0963573,103
0.418164,-0.135816,-0.0952421,112
0.417795,-0.135645,-0.0943227,107
0.417009,-0.13528,-0.0933069,109
0.416319,-0.13496,-0.0923175,113
0.416048,-0.134835,-0.0914285,119
0.416008,-0.134819,-0.0905944,122
0.415278,-0.13448,-0.0896037,130
0.415056,-0.134378,-0.0887311,134
0.415064,-0.134383,-0.0879114,129
0.414935,-0.134325,-0.0870617,127
0.414531,-0.134139,-0.0861529,125
0.414084,-0.133931,-0.0852367,126
0.413911,-0.133853,-0.0843819,126
0.413785,-0.133796,-0.0835382,123
0.413613,-0.133718,-0.082686,130
0.413034,-0.133449,-0.0817497,130
0.412864,-0.133371,-0.080901,130
0.412967,-0.133422,-0.0801092,132
0.412436,-0.133176,-0.0791891,128
0.412721,-0.133311,-0.078435,132
0.412825,-0.133361,-0.0776445,133
0.412342,-0.133137,-0.0767385,128
0.41213,-0.133041,-0.0758878,140
0.412371,-0.133155,-0.0751253,136
0.412025,-0.132996,-0.0742507,140
0.412492,-0.133216,-0.0735308,144
0.411967,-0.132972,-0.0726248,140
0.411939,-0.132961,-0.0718128,145
0.411686,-0.132845,-0.0709605,139
0.411839,-0.132918,-0.0701824,140
0.411587,-0.132803,-0.0693323,145
0.411606,-0.132813,-0.068531,144
0.411625,-0.132824,-0.0677301,143
0.411824,-0.132919,-0.0669604,148
0.41153,-0.132784,-0.0661066,151
0.411236,-0.132649,-0.0652546,150
0.411885,-0.132954,-0.0645598,153
0.412221,-0.133113,-0.0638117,149
0.412198,-0.133104,-0.0630046,151
0.412085,-0.133054,-0.0621837,149
0.411838,-0.13294,-0.0613426,143
0.412266,-0.133142,-0.0606073,142
0.41229,-0.133155,-0.0598089,151
0.412539,-0.133274,-0.0590446,146
0.412248,-0.13314,-0.0581994,146
0.412228,-0.133132,-0.0573954,146
0.412434,-0.13323,-0.0566244,146
0.412595,-0.133308,-0.0558465,153
0.412396,-0.133217,-0.0550177,155
0.412783,-0.1334,-0.0542711,151
0.412495,-0.133267,-0.0534313,155
0.412613,-0.133324,-0.0526473,155
0.412776,-0.133403,-0.0518692,156
0.41267,-0.133355,-0.0510555,154
0.41297,-0.133497,-0.0502946,154
0.412639,-0.133344,-0.0494533,158
0.4133,-0.133656,-0.0487366,161
0.413648,-0.13382,-0.0479791,165
0.413498,-0.133752,-0.047161,167
0.413258,-0.133642,-0.0463331,168
0.413471,-0.133744,-0.0455588,167
0.41364,-0.133824,-0.0447788,167
0.413718,-0.133863,-0.0439884,168
0.414023,-0.134008,-0.0432227,175
0.413876,-0.133941,-0.0424073,179
0.414001,-0.134002,-0.0416216,176
0.413765,-0.133893,-0.0407981,172
0.413936,-0.133975,-0.0400171,172
0.414063,-0.134036,-0.0392313,173
0.414553,-0.134268,-0.0384804,172
0.415182,-0.134564,-0.0377409,176
0.415174,-0.134562,-0.0369398,179
0.415486,-0.13471,-0.036168,174
0.415616,-0.134772,-0.035379,182
0.415518,-0.134729,-0.0345698,181
0.415512,-0.134728,-0.033769,180
0.415689,-0.134813,-0.0329836,179
0.41573,-0.134834,-0.0321866,183
0.416091,-0.135005,-0.0314148,180
0.415996,-0.134962,-0.0306067,181
0.415993,-0.134963,-0.0298061,185
0.416356,-0.135135,-0.0290322,182
0.416308,-0.135114,-0.028228,180
0.416672,-0.135287,-0.0274524,180
0.416946,-0.135417,-0.0266694,186
0.417589,-0.13572,-0.0259092,188
0.417727,-0.135786,-0.0251151,191
0.417681,-0.135767,-0.0243094,190
0.417866,-0.135855,-0.0235174,187
0.418006,-0.135923,-0.0227223,188
0.417915,-0.135882,-0.0219143,184
0.418241,-0.136037,-0.0211284,189
0.418382,-0.136105,-0.0203321,190
0.418756,-0.136282,-0.0195465,189
0.418713,-0.136264,-0.0187403,191
0.418625,-0.136224,-0.0179324,193
0.418676,-0.13625,-0.0171308,192
0.419006,-0.136406,-0.0163401,192
0.418965,-0.13639,-0.0155342,190
0.419018,-0.136416,-0.0147319,191
0.419629,-0.136704,-0.0139482,196
0.420523,-0.137124,-0.0131712,199
0.420437,-0.137086,-0.0123614,196
0.420633,-0.13718,-0.0115599,198
0.420782,-0.137252,-0.0107564,199
0.421026,-0.137368,-0.00995456,196
0.421271,-0.137484,-0.00915181,197
0.421469,-0.137579,-0.0083472,202
0.421715,-0.137696,-0.00754265,201
0.422623,-0.138123,-0.00674729,200
0.422258,-0.137954,-0.00593128,201
0.422837,-0.138227,-0.00512745,202
0.423229,-0.138413,-0.00431955,200
0.423338,-0.138466,-0.00350801,201
0.423543,-0.138564,-0.00269652,196
0.423605,-0.138595,-0.00188377,197
0.424144,-0.138849,-0.00107127,199
0.424256,-0.138903,-0.000256972,203
0.424225,-0.138891,0.000557364,205
0.424433,-0.138991,0.00137279,208
0.425551,-0.139516,0.00219554,206
0.426002,-0.139729,0.00301679,207
0.425589,-0.139538,0.00383026,207
0.426089,-0.139774,0.00465414,204
0.42611,-0.139785,0.00547279,203
0.426371,-0.13991,0.00629574,204
0.426441,-0.139945,0.00711609,204
0.426753,-0.140092,0.00794196,204
0.427065,-0.140241,0.00876918,200
0.427961,-0.140662,0.00961258,203
0.428861,-0.141085,0.0104598,203
0.428886,-0.141099,0.011285,202
0.428327,-0.140839,0.0120919,198
0.428839,-0.141081,0.0129326,203
0.429159,-0.141233,0.0137686,204
0.429088,-0.141202,0.0145913,207
0.429409,-0.141354,0.0154294,210
0.429634,-0.141461,0.0162648,208
0.429908,-0.141592,0.0171035,208
0.430183,-0.141722,0.0179434,205
0.430803,-0.142015,0.0188012,201
0.431921,-0.14254,0.0196865,204
0.431904,-0.142534,0.0205173,204
0.431738,-0.142459,0.0213403,201
0.431771,-0.142476,0.0221738,198
0.432201,-0.14268,0.0230307,200
0.432086,-0.142628,0.0238567,196
0.432171,-0.14267,0.0246948,200
0.432305,-0.142735,0.0255366,200
0.433088,-0.143103,0.0264222,198
0.432726,-0.142936,0.0272328,197
0.433212,-0.143165,0.0281018,195
0.434552,-0.143795,0.029035,197
0.43449,-0.143768,0.0298693,196
0.434379,-0.143718,0.0306997,190
0.434469,-0.143762,0.0315458,194
0.43456,-0.143807,0.0323924,193
0.434451,-0.143758,0.033223,198
0.434594,-0.143827,0.0340747,194
0.434536,-0.143802,0.0349099,195
0.434478,-0.143777,0.035745,194
0.434472,-0.143776,0.0365847,193
0.434115,-0.143611,0.037392,191
0.434511,-0.143799,0.0382698,189
0.43506,-0.144058,0.0391643,188
0.434804,-0.14394,0.0399813,186
0.43475,-0.143917,0.040818,186
0.434546,-0.143823,0.0416392,186
0.434544,-0.143824,0.0424811,187
0.434441,-0.143779,0.0433125,190
0.434139,-0.143639,0.0441218,194
0.434289,-0.143711,0.0449806,194
0.434389,-0.14376,0.0458347,200
0.434641,-0.143881,0.046707,203
0.434743,-0.14393,0.047563,202
0.434745,-0.143933,0.0484076,206
0.434798,-0.14396,0.0492588,207
0.4347,-0.143916,0.0500918,207
0.434804,-0.143967,0.0509502,208
0.43496,-0.144042,0.0518159,211
0.435116,-0.144118,0.0526826,214
0.435172,-0.144146,0.053537,215
0.432667,-0.142975,0.054048,216
0.432424,-0.142863,0.0548574,217
0.432033,-0.142682,0.0556455,215
0.43204,-0.142687,0.0564885,213
0.432097,-0.142716,0.0573389,216
0.431906,-0.142629,0.0581541,218
0.430923,-0.142171,0.0588524,218
0.431329,-0.142363,0.0597538,220
0.430447,-0.141952,0.060463,220
0.429373,-0.141451,0.0611394,217
0.429138,-0.141343,0.0619418,217
0.4291,-0.141328,0.0627746,216
0.428867,-0.14122,0.0635764,219
0.427705,-0.140678,0.064228,217
0.428304,-0.140961,0.0651626,220
0.42666,-0.140193,0.0657292,222
0.426528,-0.140133,0.0665425,220
0.426396,-0.140074,0.0673558,218
0.42612,-0.139946,0.068144,216
0.425265,-0.139548,0.068831,217
0.424654,-0.139264,0.0695577,213
0.423758,-0.138846,0.0702316,215
0.423105,-0.138542,0.0709459,212
0.423073,-0.13853,0.0717709,213
0.422899,-0.13845,0.0725701,213
0.422964,-0.138482,0.0734134,213
0.422982,-0.138493,0.0742485,214
0.422809,-0.138414,0.0750479,214
0.422066,-0.138068,0.0757373,212
0.421042,-0.13759,0.0763693,210
0.420872,-0.137513,0.0771654,214
0.420656,-0.137414,0.077952,211
0.420204,-0.137204,0.078691,209
0.420225,-0.137216,0.0795242,212
0.42001,-0.137117,0.0803098,213
0.419796,-0.137019,0.0810951,212
0.419348,-0.136811,0.0818311,210
0.418527,-0.136429,0.0824868,208
0.417524,-0.135961,0.0831006,211
0.417314,-0.135864,0.0838816,208
0.417104,-0.135768,0.0846624,206
0.41722,-0.135825,0.0855143,206
0.417012,-0.135729,0.0862951,206
0.416897,-0.135677,0.0870965,203
0.417014,-0.135734,0.0879504,202
0.416947,-0.135705,0.0887631,204
0.416045,-0.135285,0.0893842,199
0.415149,-0.134866,0.0900029,200
0.415128,-0.134859,0.0908239,200
0.414971,-0.134787,0.0916128,201
0.414721,-0.134672,0.0923797,199
0.414703,-0.134666,0.0932015,199
0.414684,-0.134659,0.0940239,203
0.414758,-0.134696,0.0948694,197
0.414465,-0.13456,0.0956249,194
0.414447,-0.134554,0.0964486,196
0.414339,-0.134505,0.0972497,197
0.414322,-0.1345,0.0980743,191
0.414215,-0.134451,0.0988761,195
0.414199,-0.134446,0.0997017,191
0.414368,-0.134527,0.100576,195
0.414261,-0.134479,0.101379,192
0.414339,-0.134518,0.102231,192
0.414325,-0.134514,0.103059,187
0.41445,-0.134574,0.103925,189
0.414529,-0.134613,0.10478,190
0.414194,-0.134458,0.105523,188
0.414136,-0.134433,0.106341,185
0.414538,-0.134624,0.107287,182
0.414527,-0.134621,0.10812,181
0.414655,-0.134683,0.108992,178
0.414875,-0.134788,0.109892,176
0.414865,-0.134785,0.110728,179
0.414763,-0.13474,0.111538,177
0.4148,-0.134759,0.112388,185
0.41493,-0.134822,0.113266,181
0.414875,-0.134799,0.114091,182
0.415192,-0.134949,0.115026,181
0.41523,-0.134969,0.115881,185
0.415502,-0.135098,0.116806,181
0.41517,-0.134945,0.117551,175
0.415071,-0.134901,0.118365,167
0.415344,-0.135031,0.119294,169
0.415292,-0.135008,0.120124,171
0.415845,-0.13527,0.121143,172
0.416167,-0.135423,0.122093,175
0.415743,-0.135226,0.12281,175
0.415926,-0.135314,0.123717,175
0.415642,-0.135183,0.124478,177
0.416013,-0.135359,0.125448,174
0.41587,-0.135294,0.126254,173
0.416382,-0.135536,0.127274,169
0.416521,-0.135604,0.128174,175
0.41666,-0.135671,0.129076,176
0.416753,-0.135717,0.129964,173
0.416799,-0.135741,0.130837,170
0.417269,-0.135963,0.131854,176
0.417977,-0.136297,0.132954,174
0.417742,-0.136189,0.133736,174
0.418027,-0.136325,0.134696,176
0.418598,-0.136594,0.135757,175
0.418363,-0.136486,0.136541,175
0.418698,-0.136646,0.137525,171
0.418843,-0.136716,0.138443,174
0.418799,-0.136698,0.139296,174
0.419375,-0.13697,0.140371,174
0.419332,-0.136952,0.141226,173
0.41948,-0.137023,0.142151,177
0.419724,-0.13714,0.143113,175
0.419969,-0.137257,0.144077,173
0.419927,-0.13724,0.144936,172
0.42027,-0.137402,0.145939,171
0.419941,-0.13725,0.146694,173
0.420428,-0.137481,0.147754,169
0.420484,-0.137509,0.148654,173
0.421119,-0.137809,0.149775,168
0.421031,-0.13777,0.150624,170
0.421523,-0.138003,0.151696,172
0.422942,-0.138671,0.153128,171
0.423001,-0.138701,0.15404,175
0.423061,-0.138731,0.154953,177
0.423415,-0.138899,0.155982,176
0.423524,-0.138953,0.156918,171
0.42383,-0.139099,0.157932,172
0.423843,-0.139107,0.158832,164
0.424053,-0.139207,0.159812,168
0.424361,-0.139354,0.160833,166
0.42472,-0.139525,0.161877,168
0.425278,-0.139789,0.163005,167
0.42569,-0.139984,0.164075,167
0.426202,-0.140227,0.165191,170
0.426567,-0.1404,0.166248,168
0.427033,-0.140621,0.167349,162
0.426851,-0.140537,0.168182,162
0.427469,-0.14083,0.169352,161
0.427788,-0.140982,0.170399,160
0.427857,-0.141016,0.171342,159
0.428228,-0.141193,0.172415,159
0.42855,-0.141346,0.17347,152
0.429025,-0.141571,0.174593,151
0.429299,-0.141702,0.175632,151
0.429472,-0.141785,0.176629,144
0.430819,-0.142419,0.178143,147
0.431148,-0.142576,0.179215,146
0.430864,-0.142445,0.180017,143
0.431399,-0.142699,0.181184,140
0.431834,-0.142905,0.18231,139
0.432477,-0.143209,0.183532,135
0.432451,-0.143199,0.184454,135
0.432528,-0.143237,0.185424,133
0.432864,-0.143397,0.186515,138
0.434659,-0.144242,0.18828,136
0.435001,-0.144404,0.189381,133
0.434662,-0.144248,0.190168,132
0.435372,-0.144583,0.191444,130
0.435506,-0.144648,0.192455,127
0.43522,-0.144517,0.193269,126
0.435618,-0.144706,0.194406,129
0.435385,-0.144599,0.195246,128
0.435942,-0.144862,0.196464,125
0.436396,-0.145078,0.197636,115
0.43611,-0.144946,0.198453,114
0.436354,-0.145063,0.199527,112
0.436651,-0.145205,0.20063,112
0.436737,-0.145247,0.201631,119
0.436559,-0.145166,0.202503,127
0.436592,-0.145184,0.203481,123
0.436892,-0.145327,0.204591,126
0.43698,-0.145371,0.205599,134
0.411939,-0.12892,-0.204132,6
0.414637,-0.130156,-0.204629,6
0.414693,-0.130184,-0.203746,7
0.413801,-0.129778,-0.202373,5
0.414473,-0.130088,-0.201809,6
0.417058,-0.131272,-0.202223,5
0.414633,-0.130166,-0.200073,7
0.419539,-0.132411,-0.201653,5
0.415937,-0.130766,-0.198916,4
0.414711,-0.130208,-0.19739,9
0.417633,-0.131546,-0.197946,6
0.417979,-0.131707,-0.197207,7
0.416598,-0.131077,-0.195612,10
0.418723,-0.132051,-0.195753,8
0.416955,-0.131245,-0.193973,8
0.417829,-0.131647,-0.193494,10
0.41784,-0.131654,-0.192593,11
0.418863,-0.132124,-0.192181,10
0.41873,-0.132066,-0.191209,6
0.419176,-0.132272,-0.190516,7
0.417841,-0.131664,-0.188972,6
0.418767,-0.132089,-0.188509,10
0.420036,-0.132672,-0.188204,10
0.421948,-0.133548,-0.188198,10
0.419771,-0.132555,-0.186269,9
0.419398,-0.132387,-0.185191,12
0.42228,-0.133707,-0.185625,11
0.42049,-0.132891,-0.183891,12
0.420311,-0.132811,-0.182906,13
0.421442,-0.133331,-0.182521,12
0.423119,-0.1341,-0.18238,12
0.422496,-0.133817,-0.181192,16
0.42359,-0.13432,-0.18078,17
0.421989,-0.13359,-0.179157,14
0.424113,-0.134563,-0.179202,14
0.423833,-0.134437,-0.178172,17
0.423504,-0.134289,-0.177123,14
0.423815,-0.134434,-0.176357,15
0.423979,-0.134511,-0.175526,14
0.425526,-0.135221,-0.175297,13
0.424406,-0.134711,-0.173908,15
0.425164,-0.135059,-0.173333,14
0.424885,-0.134934,-0.172311,15
0.425545,-0.135238,-0.171692,19
0.425711,-0.135317,-0.170861,19
0.424299,-0.134673,-0.169365,22
0.426095,-0.135497,-0.16922,22
0.425174,-0.135078,-0.167936,17
0.425687,-0.135315,-0.167252,26
0.426202,-0.135552,-0.166566,27
0.426172,-0.135541,-0.165656,30
0.428083,-0.136417,-0.165538,25
0.428303,-0.13652,-0.164727,25
0.427774,-0.13628,-0.163613,21
0.428494,-0.136612,-0.163003,23
0.427417,-0.136122,-0.161674,20
0.429792,-0.13721,-0.16172,22
0.42911,-0.1369,-0.16055,23
0.429634,-0.137142,-0.159858,21
0.429355,-0.137017,-0.15885,23
0.429427,-0.137052,-0.157981,25
0.430507,-0.137548,-0.157501,24
0.430934,-0.137746,-0.156766,32
0.43116,-0.137851,-0.155953,32
0.431538,-0.138027,-0.155198,26
0.431006,-0.137785,-0.154099,25
0.431435,-0.137984,-0.153364,28
0.43146,-0.137997,-0.152476,31
0.432194,-0.138336,-0.151852,34
0.432983,-0.138699,-0.151246,35
0.432449,-0.138457,-0.150152,33
0.431968,-0.138239,-0.149081,37
0.432654,-0.138555,-0.148435,35
0.433649,-0.139013,-0.147898,33
0.433676,-0.139027,-0.147011,34
