ply
format ascii 1.0
comment Created by CloudCompare v2.11 alpha (Anoia)
comment Created 2025/12/9 17:47
obj_info Generated by CloudCompare!
element vertex 1421
property float x
property float y
property float z
property float scalar_Scalar_field
end_header
0.410213 -0.12074 -0.380863 42 
0.410861 -0.121015 -0.380236 45 
0.410793 -0.120988 -0.379345 50 
0.411061 -0.121103 -0.378577 47 
0.411185 -0.121158 -0.377757 49 
0.411118 -0.121131 -0.376868 45 
0.412492 -0.121712 -0.376495 46 
0.411416 -0.121261 -0.375247 45 
0.412358 -0.12166 -0.374716 49 
0.412532 -0.121736 -0.373913 46 
0.41319 -0.122015 -0.373278 49 
0.413655 -0.122213 -0.372574 45 
0.41388 -0.12231 -0.371786 48 
0.414493 -0.12257 -0.371131 47 
0.414379 -0.122524 -0.370227 51 
0.413975 -0.122356 -0.369226 56 
0.414346 -0.122515 -0.368487 56 
0.414525 -0.122592 -0.367683 56 
0.41519 -0.122874 -0.367041 54 
0.415369 -0.122952 -0.366236 52 
0.415354 -0.122947 -0.365368 54 
0.41568 -0.123087 -0.364611 61 
0.415617 -0.123063 -0.363728 65 
0.41614 -0.123285 -0.363034 63 
0.416127 -0.123281 -0.362167 61 
0.416553 -0.123463 -0.36144 61 
0.416394 -0.123398 -0.360528 56 
0.416772 -0.12356 -0.359785 56 
0.416907 -0.123619 -0.358966 67 
0.416993 -0.123657 -0.358131 67 
0.416835 -0.123592 -0.357223 66 
0.417069 -0.123693 -0.356434 70 
0.416667 -0.123526 -0.355454 71 
0.417048 -0.123688 -0.35471 70 
0.417528 -0.123893 -0.353995 71 
0.417518 -0.123891 -0.353134 69 
0.417706 -0.123972 -0.352331 77 
0.417697 -0.12397 -0.351471 72 
0.418131 -0.124155 -0.350739 74 
0.417583 -0.123926 -0.349725 73 
0.417526 -0.123905 -0.348853 75 
0.418354 -0.124256 -0.348232 65 
0.417856 -0.124048 -0.347237 74 
0.417801 -0.124027 -0.346367 71 
0.417061 -0.123717 -0.345309 79 
0.417008 -0.123697 -0.344443 81 
0.416906 -0.123656 -0.343565 78 
0.417097 -0.123738 -0.342766 77 
0.417337 -0.123842 -0.341981 75 
0.416992 -0.123698 -0.341039 83 
0.417038 -0.12372 -0.340203 91 
0.416841 -0.123639 -0.339304 91 
0.416693 -0.123579 -0.338418 94 
0.416935 -0.123683 -0.337634 89 
0.416934 -0.123684 -0.336788 91 
0.41635 -0.12344 -0.335795 92 
0.416059 -0.12332 -0.334878 94 
0.415479 -0.123077 -0.333891 87 
0.414084 -0.122492 -0.332705 76 
0.413082 -0.122071 -0.331622 74 
0.413227 -0.122135 -0.330823 88 
0.413708 -0.122339 -0.330104 102 
0.413999 -0.122464 -0.329338 114 
0.414051 -0.122488 -0.328515 115 
0.413624 -0.12231 -0.32758 119 
0.413581 -0.122294 -0.326736 122 
0.413204 -0.122137 -0.325817 119 
0.413162 -0.122121 -0.324975 112 
0.412455 -0.121825 -0.323984 127 
0.411893 -0.12159 -0.323029 131 
0.411711 -0.121516 -0.322162 134 
0.410634 -0.121064 -0.321098 130 
0.410032 -0.120812 -0.320143 123 
0.410698 -0.121095 -0.319465 125 
0.40977 -0.120705 -0.318443 131 
0.408799 -0.120299 -0.317417 134 
0.409229 -0.120482 -0.316689 133 
0.408728 -0.120272 -0.315766 138 
0.408553 -0.120201 -0.314913 142 
0.407823 -0.119895 -0.313948 137 
0.407419 -0.119727 -0.313052 140 
0.407617 -0.119812 -0.312278 145 
0.406616 -0.119392 -0.311267 148 
0.405804 -0.119052 -0.310298 141 
0.405635 -0.118983 -0.309457 145 
0.405193 -0.118798 -0.308565 145 
0.404616 -0.118557 -0.307649 149 
0.404223 -0.118393 -0.30677 152 
0.404194 -0.118383 -0.305961 154 
0.403713 -0.118182 -0.30507 153 
0.403549 -0.118115 -0.304238 159 
0.40307 -0.117915 -0.303351 157 
0.402278 -0.117583 -0.302412 160 
0.402162 -0.117536 -0.301593 162 
0.401733 -0.117357 -0.300722 168 
0.401351 -0.117198 -0.299861 169 
0.401415 -0.117227 -0.299077 169 
0.401302 -0.117181 -0.298263 169 
0.401278 -0.117173 -0.297465 170 
0.401166 -0.117128 -0.296653 170 
0.401143 -0.11712 -0.295856 170 
0.400809 -0.116981 -0.295011 169 
0.400654 -0.116918 -0.294195 170 
0.400855 -0.117004 -0.293435 170 
0.400923 -0.117035 -0.292654 172 
0.40117 -0.117141 -0.2919 168 
0.40066 -0.116928 -0.291033 161 
0.400508 -0.116866 -0.290221 161 
0.400489 -0.11686 -0.289429 163 
0.400515 -0.116872 -0.288644 160 
0.400585 -0.116904 -0.287865 166 
0.400479 -0.116861 -0.287062 159 
0.400551 -0.116893 -0.286284 160 
0.400578 -0.116907 -0.2855 159 
0.400429 -0.116846 -0.284693 161 
0.400635 -0.116935 -0.283933 163 
0.400398 -0.116837 -0.283115 162 
0.400738 -0.116982 -0.282372 163 
0.400813 -0.117015 -0.281594 167 
0.400843 -0.11703 -0.280811 166 
0.401052 -0.11712 -0.28005 166 
0.401573 -0.117342 -0.279325 165 
0.401071 -0.117132 -0.278479 166 
0.400703 -0.116979 -0.277651 168 
0.400692 -0.116976 -0.276865 167 
0.401213 -0.117198 -0.276137 166 
0.401336 -0.117252 -0.275365 166 
0.401415 -0.117287 -0.274587 165 
0.40145 -0.117303 -0.273805 168 
0.40144 -0.117301 -0.273019 161 
0.401832 -0.117469 -0.272272 167 
0.402226 -0.117636 -0.271525 177 
0.402128 -0.117597 -0.270729 178 
0.402076 -0.117577 -0.269938 178 
0.401935 -0.11752 -0.26914 179 
0.401661 -0.117406 -0.26833 173 
0.401922 -0.117518 -0.267568 177 
0.401783 -0.117461 -0.266772 182 
0.402046 -0.117574 -0.266009 181 
0.402353 -0.117706 -0.265249 183 
0.402439 -0.117744 -0.264471 185 
0.402346 -0.117706 -0.263679 184 
0.402476 -0.117763 -0.262904 179 
0.4031 -0.118029 -0.262165 185 
0.403323 -0.118124 -0.261394 182 
0.40341 -0.118163 -0.260614 185 
0.403679 -0.118278 -0.259846 187 
0.403723 -0.118299 -0.259062 184 
0.403812 -0.118339 -0.258281 185 
0.403858 -0.11836 -0.257497 188 
0.40467 -0.118704 -0.256759 187 
0.404174 -0.118497 -0.255942 186 
0.404221 -0.118519 -0.255158 191 
0.404178 -0.118502 -0.254368 195 
0.404136 -0.118486 -0.253579 192 
0.404048 -0.118452 -0.252788 190 
0.404097 -0.118474 -0.252004 192 
0.404326 -0.118573 -0.251228 191 
0.404602 -0.118691 -0.250453 192 
0.404923 -0.118828 -0.249679 190 
0.405155 -0.118928 -0.248901 190 
0.40507 -0.118894 -0.248109 191 
0.405168 -0.118937 -0.247325 192 
0.40522 -0.118961 -0.246539 188 
0.406135 -0.11935 -0.245779 192 
0.406143 -0.119355 -0.24499 191 
0.406061 -0.119322 -0.244198 192 
0.40648 -0.119501 -0.243419 192 
0.406718 -0.119603 -0.242634 196 
0.406636 -0.119571 -0.241841 196 
0.406967 -0.119712 -0.241057 199 
0.407161 -0.119796 -0.240269 203 
0.407127 -0.119783 -0.239477 199 
0.407872 -0.1201 -0.238695 197 
0.408114 -0.120204 -0.237905 202 
0.408772 -0.120484 -0.237118 207 
0.408786 -0.120491 -0.236323 206 
0.407972 -0.12015 -0.235524 204 
0.408769 -0.120488 -0.234733 201 
0.4086 -0.120419 -0.233938 201 
0.408754 -0.120486 -0.233144 201 
0.409279 -0.120709 -0.232348 202 
0.409342 -0.120738 -0.231552 207 
0.410985 -0.121433 -0.230744 204 
0.411003 -0.121443 -0.229945 203 
0.411162 -0.121512 -0.229144 200 
0.411088 -0.121483 -0.228345 200 
0.411108 -0.121493 -0.227545 201 
0.411221 -0.121543 -0.226744 200 
0.411476 -0.121652 -0.225939 196 
0.411825 -0.121802 -0.225131 202 
0.412222 -0.121971 -0.224321 200 
0.412245 -0.121983 -0.223518 205 
0.415535 -0.123373 -0.222627 205 
0.41248 -0.122086 -0.221907 208 
0.413683 -0.122596 -0.221067 209 
0.413566 -0.122548 -0.220265 205 
0.414207 -0.122821 -0.219438 205 
0.414233 -0.122834 -0.21863 208 
0.41407 -0.122767 -0.21783 204 
0.41424 -0.122841 -0.217017 201 
0.4146 -0.122995 -0.216194 201 
0.414914 -0.123129 -0.215372 205 
0.415181 -0.123244 -0.214551 206 
0.416646 -0.123864 -0.21367 209 
0.416677 -0.123879 -0.212856 211 
0.417044 -0.124036 -0.212025 213 
0.417028 -0.124031 -0.211212 209 
0.417204 -0.124108 -0.210389 208 
0.417334 -0.124165 -0.209567 205 
0.417415 -0.124201 -0.208748 205 
0.417497 -0.124238 -0.207928 203 
0.417725 -0.124336 -0.207098 204 
0.417857 -0.124393 -0.206274 204 
0.418619 -0.124717 -0.205405 204 
0.419336 -0.125022 -0.204537 204 
0.419715 -0.125184 -0.20369 203 
0.41985 -0.125243 -0.202859 203 
0.419987 -0.125303 -0.202028 203 
0.420123 -0.125363 -0.201196 205 
0.42031 -0.125443 -0.200359 208 
0.420203 -0.1254 -0.199546 203 
0.420685 -0.125606 -0.198682 202 
0.420972 -0.125729 -0.197834 203 
0.421901 -0.126123 -0.196927 203 
0.422736 -0.126478 -0.196024 204 
0.423177 -0.126666 -0.195155 208 
0.42352 -0.126813 -0.194293 207 
0.423664 -0.126876 -0.193448 202 
0.42496 -0.127425 -0.192489 199 
0.424656 -0.127299 -0.191686 202 
0.424703 -0.127321 -0.190848 204 
0.425655 -0.127725 -0.189914 198 
0.425855 -0.127811 -0.189056 197 
0.426005 -0.127877 -0.188203 198 
0.425904 -0.127836 -0.187378 196 
0.426258 -0.127987 -0.1865 194 
0.426107 -0.127926 -0.18568 194 
0.426918 -0.12827 -0.184746 195 
0.427326 -0.128445 -0.183857 194 
0.427938 -0.128706 -0.182942 193 
0.428758 -0.129054 -0.181997 192 
0.428712 -0.129036 -0.181159 186 
0.428257 -0.128846 -0.180372 177 
0.428466 -0.128937 -0.179501 172 
0.428881 -0.129114 -0.178601 174 
0.429298 -0.129292 -0.177699 172 
0.42951 -0.129384 -0.176823 171 
0.429724 -0.129476 -0.175945 176 
0.429989 -0.129591 -0.175059 180 
0.430772 -0.129923 -0.174098 184 
0.431455 -0.130214 -0.173148 187 
0.431777 -0.130352 -0.172247 186 
0.432361 -0.130601 -0.171306 187 
0.43279 -0.130784 -0.170386 187 
0.433221 -0.130968 -0.169463 186 
0.433549 -0.131109 -0.168554 188 
0.434509 -0.131516 -0.167544 186 
0.435421 -0.131904 -0.166538 183 
0.43396 -0.131289 -0.165908 189 
0.434449 -0.131498 -0.164967 182 
0.434203 -0.131396 -0.164145 183 
0.434431 -0.131494 -0.163244 182 
0.435399 -0.131905 -0.162217 182 
0.435471 -0.131938 -0.161339 180 
0.435331 -0.131881 -0.160496 179 
0.435934 -0.132138 -0.159524 181 
0.43622 -0.132261 -0.158605 180 
0.437095 -0.132632 -0.157579 180 
0.43685 -0.132531 -0.156752 179 
0.436872 -0.132542 -0.155876 182 
0.437056 -0.132622 -0.15497 184 
0.437347 -0.132747 -0.154043 185 
0.437586 -0.13285 -0.153123 185 
0.437718 -0.132908 -0.152223 184 
0.437422 -0.132786 -0.151405 179 
0.437395 -0.132776 -0.150535 180 
0.437744 -0.132926 -0.14959 176 
0.437771 -0.13294 -0.148707 172 
0.436996 -0.132614 -0.147986 168 
0.437185 -0.132696 -0.147071 167 
0.436947 -0.132597 -0.146243 159 
0.436923 -0.13259 -0.14537 168 
0.437435 -0.132808 -0.144385 160 
0.437145 -0.132688 -0.143567 163 
0.437606 -0.132884 -0.142589 166 
0.437638 -0.1329 -0.141701 167 
0.437188 -0.132712 -0.140918 166 
0.437651 -0.13291 -0.139935 167 
0.436719 -0.132519 -0.13926 173 
0.436754 -0.132535 -0.138371 171 
0.436521 -0.132439 -0.137543 169 
0.435862 -0.132163 -0.136812 168 
0.436111 -0.13227 -0.135873 167 
0.436094 -0.132265 -0.134995 174 
0.435811 -0.132148 -0.13418 180 
0.436169 -0.132301 -0.133212 181 
0.435779 -0.132139 -0.132422 182 
0.434328 -0.131528 -0.131888 189 
0.434314 -0.131524 -0.131011 194 
0.434088 -0.13143 -0.130185 194 
0.433651 -0.131248 -0.129411 195 
0.433374 -0.131133 -0.128599 191 
0.432623 -0.130818 -0.127907 192 
0.432296 -0.130681 -0.12711 201 
0.431864 -0.130501 -0.12634 202 
0.43159 -0.130388 -0.125531 199 
0.431266 -0.130252 -0.124735 199 
0.431308 -0.130272 -0.123844 197 
0.431298 -0.13027 -0.122967 198 
0.431446 -0.130335 -0.122046 198 
0.430705 -0.130024 -0.121363 195 
0.430383 -0.12989 -0.120569 193 
0.429906 -0.129691 -0.119818 192 
0.428964 -0.129294 -0.119196 192 
0.428594 -0.12914 -0.118419 196 
0.428328 -0.12903 -0.117614 196 
0.428322 -0.12903 -0.116737 193 
0.428006 -0.128898 -0.115947 195 
0.426816 -0.128397 -0.115406 196 
0.427222 -0.128571 -0.114412 192 
0.427166 -0.12855 -0.113548 192 
0.426597 -0.128311 -0.112835 189 
0.425875 -0.128008 -0.112167 185 
0.425616 -0.127901 -0.111365 187 
0.425102 -0.127686 -0.11064 187 
0.424946 -0.127622 -0.109808 187 
0.424536 -0.127451 -0.109054 187 
0.423316 -0.126937 -0.108547 184 
0.423517 -0.127024 -0.107609 185 
0.423212 -0.126897 -0.106825 185 
0.42311 -0.126856 -0.10598 187 
0.422857 -0.126751 -0.105181 181 
0.422604 -0.126647 -0.104383 180 
0.422705 -0.126692 -0.103472 180 
0.422403 -0.126566 -0.10269 178 
0.422454 -0.12659 -0.101794 173 
0.422759 -0.126721 -0.100815 174 
0.42266 -0.126681 -0.0999658 166 
0.422612 -0.126663 -0.0990998 160 
0.42216 -0.126474 -0.0983668 155 
0.422163 -0.126477 -0.0974838 148 
0.422571 -0.126652 -0.0964648 150 
0.422221 -0.126506 -0.0956978 150 
0.423036 -0.126853 -0.0945378 142 
0.423295 -0.126965 -0.0935628 138 
0.423149 -0.126905 -0.0927248 133 
0.422748 -0.126738 -0.0919738 132 
0.423161 -0.126915 -0.0909428 124 
0.42327 -0.126963 -0.0900148 116 
0.42343 -0.127033 -0.0890668 120 
0.423285 -0.126973 -0.0882268 127 
0.422835 -0.126785 -0.0874938 132 
0.423454 -0.12705 -0.0863798 141 
0.423719 -0.127164 -0.0853898 149 
0.423779 -0.127191 -0.0844728 157 
0.423994 -0.127284 -0.0834978 154 
0.424158 -0.127356 -0.0825398 152 
0.42463 -0.127558 -0.0814668 150 
0.424642 -0.127565 -0.0805618 148 
0.425426 -0.127899 -0.0793668 145 
0.425181 -0.127797 -0.0785548 148 
0.42509 -0.127761 -0.0776848 146 
0.425568 -0.127966 -0.0765988 149 
0.425272 -0.127843 -0.0758048 139 
0.425855 -0.128091 -0.0746738 144 
0.426284 -0.128275 -0.0735998 139 
0.426715 -0.12846 -0.0725208 132 
0.42694 -0.128557 -0.0715208 133 
0.426695 -0.128456 -0.0707028 141 
0.426973 -0.128575 -0.0696798 143 
0.427146 -0.128651 -0.0686948 140 
0.427949 -0.128993 -0.0674578 135 
0.428124 -0.129069 -0.0664678 139 
0.428406 -0.129191 -0.0654338 143 
0.429004 -0.129446 -0.0642688 145 
0.428919 -0.129412 -0.0633798 144 
0.42952 -0.129669 -0.0622088 147 
0.429647 -0.129725 -0.0612288 147 
0.430464 -0.130073 -0.0599618 137 
0.430859 -0.130242 -0.0588668 128 
0.431362 -0.130457 -0.0577228 127 
0.431868 -0.130673 -0.0565758 125 
0.432106 -0.130777 -0.0555378 129 
0.431916 -0.130698 -0.0546818 134 
0.431726 -0.13062 -0.0538248 133 
0.432665 -0.13102 -0.0524818 128 
0.433122 -0.131216 -0.0513418 126 
0.433419 -0.131344 -0.0502688 127 
0.433825 -0.131518 -0.0491468 129 
0.433961 -0.131578 -0.0481398 124 
0.434315 -0.13173 -0.0470348 125 
0.435381 -0.132183 -0.0456128 120 
0.436232 -0.132546 -0.0442798 120 
0.436098 -0.132491 -0.0433838 124 
0.436899 -0.132833 -0.0420658 132 
0.43693 -0.132848 -0.0410918 127 
0.437183 -0.132957 -0.0400168 129 
0.437437 -0.133067 -0.0389388 117 
0.43808 -0.133342 -0.0376798 106 
0.439395 -0.133901 -0.0361068 103 
0.440326 -0.134297 -0.0347048 109 
0.439633 -0.134006 -0.0340558 114 
0.440679 -0.134451 -0.0325928 115 
0.441223 -0.134684 -0.0313608 113 
0.4416 -0.134846 -0.0302048 115 
0.441581 -0.13484 -0.0292338 106 
0.442187 -0.135099 -0.0279648 104 
0.442567 -0.135262 -0.0267988 99 
0.443977 -0.135861 -0.0251338 101 
0.443961 -0.135857 -0.0241528 96 
0.444347 -0.136023 -0.0229748 91 
0.445368 -0.136457 -0.0214838 93 
0.446105 -0.136772 -0.0201258 93 
0.391027 -0.116052 -0.430257 7 
0.391882 -0.116422 -0.42982 6 
0.39368 -0.117197 -0.429864 8 
0.392709 -0.116782 -0.428486 10 
0.394019 -0.117348 -0.428274 10 
0.394033 -0.117356 -0.4274 10 
0.395848 -0.118139 -0.427435 5 
0.39321 -0.117006 -0.425228 8 
0.394702 -0.11765 -0.425097 13 
0.396115 -0.11826 -0.424921 11 
0.392986 -0.116916 -0.422492 8 
0.394117 -0.117405 -0.422176 12 
0.396067 -0.118246 -0.422257 11 
0.39554 -0.118021 -0.421121 11 
0.396232 -0.118321 -0.420581 11 
0.398293 -0.11921 -0.420701 11 
0.397578 -0.118905 -0.419476 11 
0.396414 -0.118406 -0.41804 13 
0.399438 -0.119709 -0.418606 14 
0.399132 -0.119579 -0.41758 10 
0.40025 -0.120063 -0.417229 15 
0.397204 -0.118754 -0.414916 10 
0.398175 -0.119174 -0.414497 13 
0.397827 -0.119027 -0.413461 15 
0.39871 -0.119409 -0.412997 14 
0.400884 -0.120346 -0.413125 14 
0.398107 -0.119153 -0.410972 16 
0.399494 -0.119752 -0.410734 14 
0.400245 -0.120078 -0.410202 20 
0.398252 -0.119222 -0.408427 15 
0.399228 -0.119644 -0.407996 17 
0.400713 -0.120285 -0.407791 16 
0.400686 -0.120276 -0.406906 19 
0.401303 -0.120544 -0.406307 20 
0.400954 -0.120395 -0.40528 24 
0.401618 -0.120684 -0.404701 22 
0.401453 -0.120615 -0.403757 19 
0.401012 -0.120427 -0.402695 25 
0.401401 -0.120596 -0.401994 26 
0.402252 -0.120965 -0.40149 25 
0.402504 -0.121075 -0.400728 26 
0.402988 -0.121286 -0.400064 23 
0.402684 -0.121157 -0.399065 27 
0.403448 -0.121488 -0.398518 26 
0.402773 -0.1212 -0.397366 24 
0.404236 -0.121831 -0.397108 27 
0.403559 -0.121542 -0.395958 29 
0.403442 -0.121494 -0.395042 28 
0.403325 -0.121446 -0.394127 32 
0.404464 -0.121938 -0.393726 33 
0.404208 -0.12183 -0.392755 30 
0.404697 -0.122042 -0.392086 30 
0.405188 -0.122256 -0.391417 31 
0.406525 -0.122833 -0.391084 32 
0.40575 -0.122502 -0.389907 38 
0.405868 -0.122555 -0.389088 38 
0.406221 -0.122709 -0.38836 39 
0.406293 -0.122742 -0.387522 43 
0.40759 -0.123302 -0.38716 39 
0.40686 -0.12299 -0.386011 35 
0.407262 -0.123166 -0.385301 38 
0.40776 -0.123382 -0.384625 34 
0.408781 -0.123824 -0.384147 36 
0.408191 -0.123572 -0.383057 35 
0.408312 -0.123626 -0.382238 43 
0.409146 -0.123987 -0.381684 42 
0.409792 -0.124267 -0.381058 44 
0.409581 -0.124178 -0.380113 43 
0.409751 -0.124254 -0.37931 50 
0.409779 -0.124268 -0.378456 52 
0.409998 -0.124364 -0.377671 52 
0.410313 -0.124502 -0.37692 53 
0.41106 -0.124826 -0.376323 55 
0.410754 -0.124696 -0.375349 53 
0.411454 -0.125 -0.374733 50 
0.411148 -0.12487 -0.373761 51 
0.41137 -0.124968 -0.372976 52 
0.412025 -0.125252 -0.37234 53 
0.41244 -0.125433 -0.37162 56 
0.41252 -0.125469 -0.370783 60 
0.41313 -0.125734 -0.370128 57 
0.413549 -0.125916 -0.369406 56 
0.413049 -0.125703 -0.368373 52 
0.413275 -0.125803 -0.367586 51 
0.41355 -0.125923 -0.366815 50 
0.414067 -0.126148 -0.366124 56 
0.414392 -0.12629 -0.365368 57 
0.414183 -0.126202 -0.364437 61 
0.414654 -0.126407 -0.363728 66 
0.415516 -0.12678 -0.363143 67 
0.415503 -0.126777 -0.362276 61 
0.415733 -0.126878 -0.361486 60 
0.416111 -0.127043 -0.360743 60 
0.41561 -0.126829 -0.359724 60 
0.4155 -0.126784 -0.358829 68 
0.415002 -0.126572 -0.357816 72 
0.415867 -0.126946 -0.357223 71 
0.416052 -0.127028 -0.356419 71 
0.416529 -0.127236 -0.355705 71 
0.415982 -0.127002 -0.354681 76 
0.416119 -0.127063 -0.353864 79 
0.416402 -0.127187 -0.35309 70 
0.417127 -0.127501 -0.352446 67 
0.41658 -0.127268 -0.351428 66 
0.416816 -0.127372 -0.35064 66 
0.417151 -0.127518 -0.349879 74 
0.417437 -0.127643 -0.349105 75 
0.416941 -0.127432 -0.348107 71 
0.417081 -0.127494 -0.347292 72 
0.417123 -0.127515 -0.346449 72 
0.416483 -0.127241 -0.345417 73 
0.416819 -0.127388 -0.344658 70 
0.416376 -0.127199 -0.343684 75 
0.416177 -0.127115 -0.342779 78 
0.416173 -0.127116 -0.341928 85 
0.41617 -0.127116 -0.341078 82 
0.416654 -0.127327 -0.340358 83 
0.416408 -0.127223 -0.339444 89 
0.4166 -0.127308 -0.338646 100 
0.416404 -0.127226 -0.337747 98 
0.416403 -0.127227 -0.3369 99 
0.416014 -0.127062 -0.335955 104 
0.416159 -0.127127 -0.335146 98 
0.4165 -0.127275 -0.334386 90 
0.416452 -0.127257 -0.333529 83 
0.416356 -0.127217 -0.332661 62 
0.415244 -0.12674 -0.331546 50 
0.414619 -0.126474 -0.330555 45 
0.413471 -0.125981 -0.329441 64 
0.414097 -0.126253 -0.328753 87 
0.414005 -0.126215 -0.327895 102 
0.413722 -0.126095 -0.326992 103 
0.413775 -0.12612 -0.326169 106 
0.413207 -0.125877 -0.325204 107 
0.413022 -0.1258 -0.324329 115 
0.412647 -0.12564 -0.323413 117 
0.411705 -0.125236 -0.322372 125 
0.411334 -0.125079 -0.321462 125 
0.411342 -0.125084 -0.320636 129 
0.411209 -0.125029 -0.31978 129 
0.410935 -0.124913 -0.318895 126 
0.410004 -0.124514 -0.317873 127 
0.409452 -0.124278 -0.316934 130 
0.409229 -0.124184 -0.316066 129 
0.408588 -0.12391 -0.315114 131 
0.408134 -0.123717 -0.314203 132 
0.407729 -0.123544 -0.313304 141 
0.407187 -0.123312 -0.31238 141 
0.407108 -0.12328 -0.31155 141 
0.406752 -0.123129 -0.310666 144 
0.40626 -0.122919 -0.309758 151 
0.406 -0.122809 -0.308897 150 
0.405282 -0.122502 -0.307951 159 
0.404659 -0.122235 -0.307026 156 
0.404629 -0.122224 -0.306214 156 
0.404373 -0.122116 -0.305361 157 
0.404072 -0.121988 -0.304501 163 
0.403727 -0.121841 -0.303635 157 
0.4037 -0.121832 -0.302827 155 
0.402679 -0.121394 -0.301845 151 
0.402563 -0.121346 -0.301025 158 
0.40164 -0.12095 -0.300067 157 
0.40148 -0.120883 -0.299243 170 
0.401277 -0.120798 -0.298412 165 
0.400985 -0.120674 -0.297568 166 
0.400695 -0.12055 -0.296726 163 
0.400449 -0.120447 -0.295892 163 
0.40016 -0.120324 -0.295053 169 
0.399961 -0.12024 -0.294229 168 
0.399851 -0.120195 -0.293421 163 
0.399742 -0.120149 -0.292613 166 
0.399943 -0.120238 -0.291853 166 
0.400278 -0.120384 -0.291112 168 
0.400214 -0.120359 -0.290312 167 
0.400062 -0.120295 -0.2895 166 
0.39991 -0.120232 -0.288688 163 
0.400247 -0.120379 -0.287946 167 
0.400096 -0.120316 -0.287136 167 
0.399902 -0.120234 -0.28632 170 
0.399841 -0.12021 -0.285524 164 
0.400401 -0.120453 -0.28481 162 
0.40043 -0.120467 -0.284025 157 
0.399926 -0.120252 -0.283172 157 
0.399823 -0.12021 -0.282372 151 
0.399499 -0.120072 -0.281545 153 
0.399795 -0.120201 -0.280795 155 
0.399605 -0.120121 -0.279986 163 
0.399724 -0.120175 -0.279215 162 
0.400287 -0.12042 -0.278494 163 
0.400142 -0.120359 -0.277692 162 
0.400131 -0.120356 -0.276904 159 
0.400119 -0.120353 -0.276118 159 
0.400064 -0.120331 -0.275326 164 
0.400497 -0.12052 -0.274587 164 
0.400709 -0.120613 -0.273823 166 
0.400656 -0.120592 -0.273032 167 
0.400381 -0.120475 -0.272219 173 
0.400683 -0.120607 -0.271464 174 
0.400764 -0.120644 -0.270687 170 
0.400845 -0.120681 -0.269909 172 
0.400971 -0.120738 -0.269136 174 
0.400698 -0.120622 -0.268326 171 
0.400914 -0.120717 -0.26756 172 
0.401042 -0.120774 -0.266787 174 
0.401259 -0.120869 -0.26602 178 
0.401522 -0.120985 -0.265257 178 
0.400984 -0.120754 -0.264428 179 
0.401069 -0.120793 -0.263651 184 
0.402091 -0.121236 -0.262944 186 
0.401686 -0.121063 -0.262128 186 
0.402264 -0.121314 -0.261385 187 
0.401905 -0.121161 -0.260574 186 
0.402172 -0.121278 -0.259807 187 
0.402081 -0.121241 -0.259015 183 
0.402439 -0.121397 -0.258253 192 
0.402528 -0.121438 -0.257472 192 
0.402529 -0.12144 -0.256686 192 
0.402754 -0.121539 -0.255914 190 
0.402711 -0.121522 -0.255125 189 
0.402802 -0.121564 -0.254344 186 
0.402894 -0.121605 -0.253563 186 
0.403077 -0.121686 -0.252786 188 
0.403125 -0.121709 -0.252002 189 
0.403264 -0.121771 -0.251222 185 
0.403089 -0.121697 -0.250428 189 
0.403813 -0.122011 -0.249672 189 
0.403414 -0.121841 -0.248869 189 
0.404185 -0.122176 -0.248111 189 
0.404553 -0.122336 -0.247336 191 
0.404741 -0.122419 -0.246554 196 
0.404884 -0.122483 -0.245769 194 
0.404983 -0.122527 -0.244983 194 
0.40481 -0.122455 -0.244189 194 
0.404865 -0.12248 -0.243401 193 
0.405055 -0.122564 -0.242617 194 
0.405519 -0.122766 -0.241837 198 
0.405939 -0.122949 -0.241055 205 
0.406132 -0.123035 -0.240267 203 
0.406053 -0.123002 -0.239475 206 
0.405883 -0.122931 -0.238681 201 
0.407174 -0.12349 -0.237905 202 
0.407646 -0.123695 -0.237116 204 
0.407338 -0.123564 -0.236319 198 
0.407169 -0.123493 -0.235525 194 
0.407642 -0.1237 -0.234733 196 
0.407842 -0.123787 -0.233939 199 
0.407949 -0.123836 -0.233144 199 
0.408058 -0.123885 -0.232349 197 
0.408443 -0.124053 -0.231551 202 
0.408553 -0.124102 -0.230755 200 
0.408478 -0.124072 -0.229959 201 
0.408543 -0.124102 -0.229162 200 
0.409209 -0.124391 -0.228357 199 
0.409321 -0.124441 -0.227558 199 
0.409759 -0.124632 -0.226753 202 
0.410058 -0.124763 -0.225948 201 
0.410126 -0.124795 -0.225147 202 
0.410474 -0.124947 -0.224339 205 
0.41087 -0.125119 -0.223529 209 
0.411033 -0.125191 -0.222723 204 
0.41115 -0.125244 -0.221918 205 
0.411267 -0.125297 -0.221112 203 
0.412277 -0.125734 -0.220276 203 
0.41127 -0.125302 -0.219507 205 
0.412517 -0.125842 -0.218658 207 
0.413062 -0.126079 -0.217832 204 
0.413089 -0.126093 -0.217024 204 
0.413211 -0.126147 -0.216213 202 
0.413571 -0.126304 -0.21539 202 
0.413694 -0.12636 -0.214576 202 
0.414056 -0.126518 -0.21375 206 
0.414181 -0.126573 -0.212935 207 
0.414449 -0.126691 -0.212111 211 
0.415386 -0.127098 -0.211249 210 
0.415466 -0.127134 -0.210433 207 
0.415834 -0.127295 -0.209599 203 
0.416395 -0.127539 -0.208751 210 
0.416573 -0.127618 -0.207925 206 
0.416607 -0.127634 -0.207108 207 
0.416739 -0.127693 -0.206284 208 
0.416822 -0.127731 -0.205462 208 
0.417582 -0.128061 -0.204592 201 
0.417716 -0.128121 -0.203764 202 
0.418529 -0.128474 -0.202885 202 
0.418714 -0.128555 -0.202051 200 
0.419045 -0.1287 -0.201204 201 
0.41923 -0.128782 -0.200367 200 
0.419368 -0.128844 -0.199534 202 
0.419409 -0.128863 -0.198708 203 
0.419694 -0.128989 -0.19786 202 
0.420079 -0.129157 -0.197002 205 
0.420711 -0.129431 -0.196119 203 
0.421296 -0.129686 -0.195238 203 
0.421735 -0.129877 -0.194369 202 
0.422076 -0.130027 -0.193507 199 
0.422419 -0.130177 -0.192643 201 
0.422465 -0.130199 -0.191808 201 
0.42276 -0.130328 -0.190946 201 
0.423954 -0.130845 -0.189988 196 
0.424603 -0.131128 -0.189083 196 
0.424502 -0.131086 -0.188259 198 
0.424953 -0.131283 -0.187372 199 
0.425004 -0.131307 -0.186529 195 
0.425206 -0.131396 -0.185668 196 
0.42561 -0.131573 -0.184782 195 
0.425663 -0.131597 -0.183936 191 
0.426221 -0.13184 -0.183028 193 
0.426427 -0.131931 -0.182162 192 
0.426938 -0.132154 -0.181255 192 
0.427553 -0.132421 -0.180333 190 
0.427558 -0.132426 -0.179487 182 
0.427717 -0.132496 -0.178621 173 
0.428234 -0.132722 -0.177706 172 
0.428599 -0.132881 -0.176809 178 
0.42948 -0.133264 -0.175838 179 
0.430055 -0.133514 -0.174907 178 
0.430219 -0.133587 -0.174032 180 
0.429713 -0.133371 -0.173252 175 
0.430394 -0.133667 -0.172301 178 
0.430871 -0.133875 -0.171376 180 
0.431402 -0.134106 -0.170441 186 
0.432039 -0.134383 -0.169487 184 
0.431792 -0.134278 -0.168667 184 
0.43217 -0.134444 -0.16775 183 
0.432498 -0.134588 -0.166838 182 
0.433246 -0.134913 -0.165858 181 
0.433787 -0.135148 -0.164907 180 
0.434014 -0.135249 -0.164006 181 
0.433768 -0.135145 -0.163183 182 
0.434471 -0.13545 -0.162199 185 
0.434596 -0.135506 -0.161312 181 
0.434403 -0.135425 -0.160478 179 
0.434635 -0.135527 -0.15957 178 
0.434708 -0.135561 -0.15869 185 
0.434676 -0.135549 -0.157827 187 
0.435386 -0.135858 -0.156829 187 
0.435674 -0.135985 -0.155905 184 
0.435857 -0.136066 -0.155 183 
0.436788 -0.13647 -0.153952 175 
0.436065 -0.13616 -0.153215 171 
0.43593 -0.136104 -0.152367 171 
0.435902 -0.136094 -0.151498 168 
0.436088 -0.136176 -0.150587 172 
0.436275 -0.136259 -0.149675 172 
0.437427 -0.136758 -0.148568 172 
0.436919 -0.136541 -0.147791 171 
0.435879 -0.136094 -0.147126 174 
0.436602 -0.136409 -0.146099 171 
0.436685 -0.136447 -0.145203 168 
0.436984 -0.136578 -0.144261 165 
0.437337 -0.136733 -0.143305 169 
0.43694 -0.136563 -0.142509 174 
0.436597 -0.136417 -0.141701 171 
0.437166 -0.136665 -0.140695 173 
0.438547 -0.137264 -0.139507 173 
0.437019 -0.136606 -0.138962 177 
0.437753 -0.136925 -0.137912 177 
0.437035 -0.136617 -0.13719 177 
0.437393 -0.136774 -0.136223 178 
0.435982 -0.136167 -0.135663 184 
0.435911 -0.136139 -0.134796 184 
0.435628 -0.136018 -0.133979 184 
0.435666 -0.136037 -0.133085 186 
0.435437 -0.13594 -0.132256 186 
0.434464 -0.135522 -0.131606 188 
0.433972 -0.135312 -0.130843 191 
0.434595 -0.135583 -0.129807 199 
0.433362 -0.135053 -0.129228 197 
0.433296 -0.135027 -0.128362 198 
0.433284 -0.135023 -0.127481 201 
0.432797 -0.134815 -0.126722 196 
0.432048 -0.134494 -0.126031 197 
0.431197 -0.134128 -0.125368 197 
0.431029 -0.134058 -0.124531 204 
0.430758 -0.133943 -0.123721 202 
0.430696 -0.133918 -0.122856 202 
0.430268 -0.133736 -0.122088 200 
0.429947 -0.133599 -0.121293 199 
0.429939 -0.133598 -0.120413 198 
0.42967 -0.133484 -0.119605 195 
0.429663 -0.133483 -0.118724 198 
0.429396 -0.13337 -0.117916 196 
0.429026 -0.133212 -0.117136 197 
0.427673 -0.13263 -0.116635 195 
0.427357 -0.132496 -0.115844 196 
0.427301 -0.132473 -0.11498 197 
0.426935 -0.132317 -0.114204 202 
0.426879 -0.132295 -0.11334 198 
0.425285 -0.131609 -0.112924 198 
0.425077 -0.131521 -0.112107 197 
0.424869 -0.131434 -0.11129 193 
0.424509 -0.13128 -0.110518 192 
0.424405 -0.131237 -0.109671 191 
0.423996 -0.131063 -0.108915 191 
0.424146 -0.13113 -0.10799 189 
0.423789 -0.130978 -0.10722 192 
0.422774 -0.130541 -0.106654 186 
0.42247 -0.130412 -0.10587 186 
0.422722 -0.130523 -0.104912 185 
0.422217 -0.130307 -0.104192 180 
0.421562 -0.130026 -0.10352 184 
0.421412 -0.129963 -0.10269 186 
0.421514 -0.13001 -0.101778 178 
0.421213 -0.129882 -0.100995 177 
0.421114 -0.129841 -0.100147 171 
0.421117 -0.129845 -0.0992658 171 
0.42117 -0.12987 -0.0983668 160 
0.421223 -0.129895 -0.0974668 161 
0.421177 -0.129877 -0.0965998 161 
0.421181 -0.129881 -0.0957148 157 
0.421387 -0.129972 -0.0947608 152 
0.421089 -0.129846 -0.0939768 153 
0.42175 -0.130134 -0.0928638 152 
0.421655 -0.130095 -0.0920088 147 
0.421965 -0.130231 -0.0910128 139 
0.421769 -0.130148 -0.0901918 132 
0.422181 -0.130329 -0.0891568 120 
0.421834 -0.130181 -0.0883878 126 
0.421792 -0.130165 -0.0875118 121 
0.421851 -0.130192 -0.0865988 136 
0.422316 -0.130396 -0.0855368 143 
0.422376 -0.130424 -0.0846208 142 
0.422946 -0.130672 -0.0835168 145 
0.424184 -0.13121 -0.0821628 142 
0.423222 -0.130796 -0.0816178 152 
0.423387 -0.130869 -0.0806568 153 
0.423808 -0.131054 -0.0795978 151 
0.423872 -0.131084 -0.0786708 154 
0.42512 -0.131625 -0.0772948 151 
0.424618 -0.13141 -0.0765788 148 
0.425147 -0.131642 -0.0754688 148 
0.4248 -0.131494 -0.0746938 154 
0.425332 -0.131726 -0.0735788 151 
0.425709 -0.131891 -0.0725208 142 
0.426141 -0.13208 -0.0714398 131 
0.426157 -0.132089 -0.0705188 135 
0.426538 -0.132256 -0.0694528 135 
0.42666 -0.132311 -0.0684878 134 
0.426677 -0.132321 -0.0675628 132 
0.427113 -0.132512 -0.0664678 135 
0.427289 -0.13259 -0.0654768 134 
0.427466 -0.132669 -0.0644828 134 
0.42759 -0.132725 -0.0635088 129 
0.427663 -0.132758 -0.0625548 133 
0.42842 -0.133088 -0.0613168 133 
0.42987 -0.133717 -0.0597848 133 
0.429839 -0.133706 -0.0588668 133 
0.429702 -0.133649 -0.0579918 136 
0.430044 -0.133799 -0.0569138 140 
0.431082 -0.13425 -0.0555378 139 
0.431213 -0.134309 -0.0545438 129 
0.431345 -0.134369 -0.0535488 126 
0.431746 -0.134544 -0.0524348 129 
0.431826 -0.134581 -0.0514588 129 
0.432282 -0.134781 -0.0503158 126 
0.433065 -0.135122 -0.0490278 128 
0.433472 -0.1353 -0.0479008 125 
0.434316 -0.135667 -0.0465778 120 
0.434618 -0.1358 -0.0454908 106 
0.434811 -0.135886 -0.0444508 108 
0.435115 -0.13602 -0.0433588 104 
0.436078 -0.136439 -0.0419668 105 
0.43644 -0.136598 -0.0408418 109 
0.436583 -0.136662 -0.0398158 114 
0.437168 -0.136917 -0.0385838 108 
0.438256 -0.13739 -0.0371168 118 
0.438624 -0.137552 -0.0359778 122 
0.439106 -0.137763 -0.0347828 124 
0.439142 -0.13778 -0.0337938 114 
0.440019 -0.138162 -0.0324078 107 
0.440337 -0.138302 -0.0312808 105 
0.4406 -0.138418 -0.0301778 107 
0.441033 -0.138608 -0.0289918 106 
0.441922 -0.138995 -0.0275838 110 
0.443043 -0.139482 -0.0260588 113 
0.442913 -0.139428 -0.0251338 109 
0.444157 -0.139969 -0.0235398 104 
0.443682 -0.139766 -0.0227788 95 
0.444069 -0.139935 -0.0215968 94 
0.445438 -0.14053 -0.0199268 95 
0.392248 -0.120139 -0.431362 10 
0.389956 -0.119134 -0.429295 7 
0.391162 -0.119666 -0.42904 5 
0.391441 -0.119791 -0.428305 7 
0.391189 -0.119682 -0.427298 6 
0.39307 -0.120511 -0.427377 6 
0.392326 -0.120186 -0.426121 4 
0.392562 -0.120292 -0.425363 8 
0.393245 -0.120594 -0.424828 7 
0.393349 -0.120642 -0.424002 7 
0.392739 -0.120376 -0.422823 11 
0.395941 -0.121786 -0.423531 7 
0.395413 -0.121556 -0.42239 8 
0.394303 -0.12107 -0.420967 7 
0.393915 -0.120902 -0.419903 10 
0.394737 -0.121265 -0.419428 9 
0.394438 -0.121136 -0.418409 10 
0.396256 -0.121937 -0.418409 11 
0.394784 -0.121293 -0.416828 11 
0.39561 -0.121658 -0.416349 11 
0.395852 -0.121766 -0.41559 12 
0.396772 -0.122173 -0.415151 14 
0.39584 -0.121765 -0.413839 16 
0.396263 -0.121953 -0.413165 14 
0.39619 -0.121923 -0.412259 17 
0.396976 -0.122271 -0.411752 13 
0.397992 -0.12272 -0.411349 15 
0.398101 -0.12277 -0.410525 18 
0.397755 -0.12262 -0.409495 20 
0.397909 -0.12269 -0.408694 18 
0.398292 -0.12286 -0.407996 19 
0.399131 -0.123231 -0.407503 19 
0.399699 -0.123483 -0.406885 19 
0.398576 -0.122991 -0.405514 18 
0.400379 -0.123786 -0.405443 19 
0.400582 -0.123878 -0.40466 21 
0.399547 -0.123425 -0.403335 25 
0.399841 -0.123556 -0.402595 24 
0.399176 -0.123266 -0.401438 24 
0.401214 -0.124164 -0.401451 21 
0.401649 -0.124357 -0.400768 23 
0.401208 -0.124166 -0.39971 25 
0.401183 -0.124157 -0.398831 26 
0.401804 -0.124432 -0.398225 29 
0.401687 -0.124382 -0.397308 28 
0.401801 -0.124435 -0.396488 27 
0.402423 -0.12471 -0.395881 30 
0.402353 -0.124682 -0.394984 25 
0.403348 -0.125122 -0.394528 28 
0.403278 -0.125093 -0.393631 30 
0.404045 -0.125432 -0.393077 31 
0.404581 -0.12567 -0.392426 30 
0.404744 -0.125744 -0.391624 35 
0.404628 -0.125695 -0.390709 32 
0.404465 -0.125625 -0.389777 33 
0.405096 -0.125905 -0.389162 35 
0.404933 -0.125836 -0.388231 37 
0.405051 -0.12589 -0.387412 37 
0.405779 -0.126211 -0.386831 40 
0.406367 -0.126472 -0.386193 38 
0.406911 -0.126713 -0.385536 41 
0.406324 -0.126458 -0.384445 42 
0.406491 -0.126533 -0.383644 41 
0.407177 -0.126837 -0.383039 43 
0.407062 -0.126788 -0.382131 43 
0.407277 -0.126885 -0.381348 41 
0.407587 -0.127024 -0.380599 43 
0.408088 -0.127246 -0.37992 47 
0.408162 -0.127281 -0.379084 44 
0.408854 -0.127587 -0.378473 43 
0.408408 -0.127393 -0.377447 48 
0.408295 -0.127346 -0.376543 45 
0.409225 -0.127757 -0.376015 49 
0.410159 -0.12817 -0.375485 47 
0.409855 -0.128038 -0.374513 51 
0.410123 -0.128158 -0.373744 56 
0.410727 -0.128426 -0.373093 57 
0.411236 -0.128652 -0.372407 53 
0.411075 -0.128583 -0.371487 52 
0.411538 -0.128789 -0.370783 51 
0.411713 -0.128868 -0.36998 52 
0.411649 -0.128842 -0.369095 51 
0.411777 -0.128901 -0.368276 55 
0.41311 -0.129489 -0.367861 55 
0.412612 -0.129272 -0.366831 54 
0.412549 -0.129247 -0.365948 51 
0.413016 -0.129454 -0.365241 58 
0.41334 -0.129599 -0.364485 56 
0.413907 -0.12985 -0.363807 65 
0.413554 -0.129697 -0.36283 64 
0.413976 -0.129885 -0.362105 67 
0.413866 -0.129839 -0.361208 64 
0.414922 -0.130305 -0.360682 67 
0.414666 -0.130195 -0.359739 57 
0.41514 -0.130405 -0.359026 63 
0.414448 -0.130103 -0.357951 67 
0.415019 -0.130357 -0.357268 71 
0.414765 -0.130247 -0.35633 70 
0.41529 -0.13048 -0.355631 74 
0.415328 -0.130499 -0.354783 70 
0.414978 -0.130347 -0.35382 72 
0.415309 -0.130495 -0.353061 73 
0.415738 -0.130686 -0.352331 73 
0.415876 -0.130748 -0.351513 74 
0.416112 -0.130854 -0.350725 73 
0.415909 -0.130767 -0.349809 72 
0.41595 -0.130787 -0.348965 69 
0.415748 -0.1307 -0.348052 71 
0.416669 -0.131108 -0.347457 71 
0.415979 -0.130806 -0.346408 69 
0.415925 -0.130784 -0.345539 77 
0.415773 -0.13072 -0.344644 82 
0.415866 -0.130763 -0.343817 88 
0.415521 -0.130613 -0.342872 87 
0.415906 -0.130785 -0.342125 97 
0.417368 -0.13143 -0.341665 96 
0.4159 -0.130786 -0.340422 97 
0.416043 -0.130851 -0.33961 102 
0.415458 -0.130596 -0.338608 103 
0.415651 -0.130683 -0.33781 103 
0.416428 -0.131027 -0.337162 106 
0.416086 -0.130879 -0.336226 104 
0.41594 -0.130816 -0.335342 102 
0.415165 -0.130477 -0.334301 107 
0.415553 -0.13065 -0.333553 119 
0.415894 -0.130802 -0.332792 116 
0.415168 -0.130485 -0.33177 109 
0.415558 -0.130659 -0.331022 102 
0.415706 -0.130726 -0.330214 104 
0.415128 -0.130474 -0.329234 111 
0.414072 -0.130011 -0.328143 118 
0.41398 -0.129972 -0.327283 116 
0.413649 -0.129829 -0.326369 115 
0.413367 -0.129707 -0.325468 113 
0.413181 -0.129627 -0.32459 111 
0.413331 -0.129695 -0.323789 120 
0.413146 -0.129616 -0.322913 121 
0.412581 -0.129369 -0.321954 120 
0.411686 -0.128977 -0.320926 137 
0.411126 -0.128733 -0.319975 135 
0.41071 -0.128552 -0.319057 128 
0.409873 -0.128185 -0.318052 125 
0.409601 -0.128068 -0.31717 138 
0.409284 -0.12793 -0.316281 137 
0.409015 -0.127814 -0.315403 141 
0.408559 -0.127615 -0.314488 142 
0.408152 -0.127438 -0.313586 154 
0.407654 -0.127221 -0.312667 153 
0.407204 -0.127025 -0.31176 154 
0.406525 -0.126728 -0.310811 154 
0.406493 -0.126716 -0.309991 158 
0.406185 -0.126582 -0.309118 152 
0.406062 -0.12653 -0.308282 153 
0.405664 -0.126357 -0.307395 154 
0.405177 -0.126144 -0.306494 153 
0.403871 -0.125572 -0.305444 151 
0.403661 -0.125481 -0.3046 155 
0.403316 -0.125331 -0.303732 154 
0.403878 -0.125581 -0.303028 162 
0.403534 -0.125431 -0.302162 159 
0.402829 -0.125123 -0.301236 159 
0.402172 -0.124835 -0.300321 161 
0.401967 -0.124747 -0.299486 166 
0.401539 -0.12456 -0.298614 163 
0.401022 -0.124335 -0.29773 167 
0.401312 -0.124465 -0.296981 169 
0.400307 -0.124024 -0.296021 172 
0.399662 -0.123742 -0.295124 174 
0.400262 -0.124008 -0.294425 169 
0.399176 -0.123532 -0.293462 171 
0.399376 -0.123622 -0.292701 172 
0.399002 -0.123459 -0.291853 173 
0.398982 -0.123453 -0.29106 171 
0.398963 -0.123446 -0.290267 165 
0.398988 -0.123459 -0.28948 164 
0.398837 -0.123395 -0.288669 165 
0.399217 -0.123564 -0.287934 168 
0.399155 -0.123538 -0.287136 170 
0.398741 -0.123358 -0.28629 171 
0.398724 -0.123353 -0.2855 169 
0.398884 -0.123425 -0.284734 168 
0.398825 -0.123401 -0.283938 167 
0.398765 -0.123377 -0.283144 156 
0.399457 -0.123683 -0.282444 157 
0.399398 -0.123659 -0.281649 158 
0.399473 -0.123694 -0.280871 158 
0.399106 -0.123534 -0.280039 157 
0.399446 -0.123686 -0.279293 155 
0.399124 -0.123546 -0.278469 159 
0.399245 -0.123601 -0.277697 163 
0.399277 -0.123618 -0.276914 164 
0.399531 -0.123731 -0.276157 164 
0.399698 -0.123806 -0.275388 169 
0.399599 -0.123765 -0.274592 170 
0.399456 -0.123704 -0.273791 172 
0.39958 -0.12376 -0.273019 173 
0.399881 -0.123895 -0.272263 174 
0.399695 -0.123815 -0.27146 173 
0.399776 -0.123853 -0.270682 177 
0.399945 -0.123929 -0.269913 174 
0.399673 -0.123811 -0.269103 176 
0.399976 -0.123947 -0.268346 173 
0.399837 -0.123887 -0.267549 181 
0.400142 -0.124023 -0.266791 180 
0.400136 -0.124023 -0.266005 182 
0.400132 -0.124023 -0.26522 179 
0.399818 -0.123887 -0.264411 182 
0.399858 -0.123906 -0.26363 180 
0.399988 -0.123965 -0.262857 182 
0.399941 -0.123947 -0.262069 186 
0.400027 -0.123987 -0.261292 188 
0.401536 -0.124653 -0.260614 189 
0.401579 -0.124674 -0.259831 191 
0.4014 -0.124597 -0.259033 189 
0.401133 -0.124481 -0.25823 189 
0.400644 -0.124268 -0.257415 188 
0.401623 -0.124701 -0.256689 197 
0.401803 -0.124782 -0.255914 196 
0.401715 -0.124746 -0.255123 189 
0.401494 -0.12465 -0.254325 188 
0.401764 -0.124771 -0.253554 188 
0.401991 -0.124873 -0.252779 186 
0.402263 -0.124994 -0.252006 187 
0.40258 -0.125136 -0.251234 190 
0.40254 -0.12512 -0.250446 188 
0.402186 -0.124967 -0.249644 184 
0.402281 -0.125011 -0.248862 186 
0.402422 -0.125074 -0.248081 185 
0.402518 -0.125119 -0.247298 190 
0.402569 -0.125143 -0.246513 188 
0.403791 -0.125683 -0.245765 196 
0.403663 -0.125629 -0.244972 196 
0.403672 -0.125635 -0.244184 197 
0.404222 -0.125879 -0.243409 202 
0.404639 -0.126065 -0.242629 206 
0.404649 -0.126071 -0.241839 204 
0.404433 -0.125978 -0.241045 201 
0.40458 -0.126045 -0.240257 198 
0.404682 -0.126092 -0.239469 200 
0.404694 -0.126099 -0.238678 203 
0.40516 -0.126306 -0.237893 207 
0.405491 -0.126454 -0.237105 200 
0.405505 -0.126462 -0.236313 198 
0.406431 -0.126872 -0.235526 198 
0.405898 -0.126639 -0.23473 200 
0.406415 -0.126869 -0.233938 196 
0.406385 -0.126858 -0.233144 198 
0.406539 -0.126927 -0.23235 193 
0.406372 -0.126856 -0.231557 189 
0.406481 -0.126906 -0.230762 191 
0.406407 -0.126875 -0.229969 190 
0.406792 -0.127047 -0.229171 189 
0.406948 -0.127118 -0.228374 189 
0.407151 -0.127209 -0.227576 190 
0.407584 -0.127402 -0.226773 195 
0.407881 -0.127535 -0.225971 198 
0.408687 -0.127892 -0.225157 198 
0.409171 -0.128107 -0.224347 202 
0.409194 -0.128119 -0.223546 199 
0.409263 -0.128152 -0.222745 196 
0.409518 -0.128266 -0.221937 198 
0.409449 -0.128238 -0.221138 201 
0.410218 -0.128579 -0.220312 199 
0.409777 -0.128386 -0.219525 202 
0.409896 -0.128441 -0.21872 202 
0.410809 -0.128845 -0.217882 203 
0.411632 -0.12921 -0.217044 206 
0.41213 -0.129431 -0.216217 205 
0.412299 -0.129508 -0.215402 204 
0.412469 -0.129585 -0.214587 206 
0.41264 -0.129662 -0.213771 208 
0.412764 -0.129719 -0.212957 205 
0.4127 -0.129693 -0.212152 209 
0.413583 -0.130084 -0.211294 208 
0.414805 -0.130624 -0.210414 210 
0.413695 -0.130137 -0.209667 207 
0.41406 -0.1303 -0.208833 209 
0.414808 -0.130632 -0.207974 207 
0.414938 -0.130691 -0.207152 205 
0.415355 -0.130877 -0.20631 205 
0.415439 -0.130916 -0.205489 203 
0.415618 -0.130997 -0.204661 201 
0.417051 -0.13163 -0.20374 204 
0.417717 -0.131926 -0.20287 205 
0.417998 -0.132052 -0.202028 208 
0.418231 -0.132157 -0.201188 211 
0.418173 -0.132133 -0.200371 211 
0.418165 -0.132132 -0.19955 208 
0.418351 -0.132216 -0.198712 207 
0.418587 -0.132322 -0.197868 206 
0.418775 -0.132407 -0.197028 206 
0.419501 -0.132729 -0.196137 201 
0.420084 -0.132988 -0.195257 205 
0.420865 -0.133335 -0.194354 204 
0.420959 -0.133378 -0.193516 204 
0.421153 -0.133465 -0.192668 203 
0.421545 -0.13364 -0.191798 202 
0.421641 -0.133685 -0.190957 199 
0.422581 -0.134101 -0.190025 205 
0.422281 -0.133971 -0.189224 203 
0.423625 -0.134566 -0.188242 202 
0.423325 -0.134436 -0.18744 204 
0.423076 -0.134328 -0.186632 201 
0.423977 -0.134727 -0.185692 203 
0.42448 -0.134951 -0.184794 197 
0.424431 -0.134932 -0.183961 197 
0.424535 -0.134979 -0.183109 194 
0.42494 -0.13516 -0.182218 193 
0.425347 -0.135342 -0.181326 197 
0.426313 -0.13577 -0.180359 192 
0.426673 -0.135931 -0.179467 190 
0.426578 -0.135891 -0.178635 183 
0.42694 -0.136053 -0.17774 180 
0.427202 -0.13617 -0.176858 177 
0.427566 -0.136333 -0.175959 176 
0.427779 -0.136429 -0.175081 181 
0.428505 -0.136751 -0.174127 181 
0.428925 -0.136939 -0.173215 181 
0.429347 -0.137127 -0.172301 181 
0.429461 -0.137179 -0.17143 178 
0.429267 -0.137096 -0.170605 179 
0.429434 -0.137171 -0.169725 176 
0.429601 -0.137247 -0.168844 176 
0.43039 -0.137598 -0.167864 181 
0.431027 -0.137881 -0.166905 183 
0.431302 -0.138004 -0.166001 180 
0.43137 -0.138036 -0.16513 180 
0.431751 -0.138206 -0.164206 183 
0.431716 -0.138193 -0.16335 182 
0.432047 -0.138341 -0.162431 178 
0.432327 -0.138466 -0.161519 180 
0.432398 -0.1385 -0.160643 180 
0.432732 -0.138649 -0.159719 175 
0.432594 -0.138591 -0.158877 174 
0.432983 -0.138764 -0.157941 171 
0.433267 -0.138892 -0.157021 171 
0.434344 -0.139369 -0.155954 172 
0.43442 -0.139405 -0.155069 174 
0.434338 -0.139371 -0.154213 171 
0.435157 -0.139734 -0.153184 176 
0.435023 -0.139677 -0.152336 177 
0.435208 -0.139761 -0.151426 171 
0.435553 -0.139916 -0.150482 170 
0.43558 -0.13993 -0.1496 170 
0.435981 -0.140109 -0.148643 173 
0.435849 -0.140052 -0.147791 173 
0.436734 -0.140445 -0.146731 177 
0.435747 -0.140012 -0.146055 175 
0.436686 -0.140428 -0.144979 177 
0.435914 -0.14009 -0.144261 174 
0.435571 -0.139941 -0.143453 171 
0.435389 -0.139863 -0.142612 173 
0.435315 -0.139832 -0.141748 169 
0.435614 -0.139966 -0.140801 170 
0.435594 -0.139959 -0.139924 173 
0.435895 -0.140095 -0.138974 171 
0.435022 -0.139711 -0.138287 169 
0.43495 -0.139682 -0.137421 174 
0.435572 -0.139959 -0.136395 179 
0.435181 -0.139788 -0.135601 180 
0.435005 -0.139713 -0.134758 179 
0.434775 -0.139614 -0.133928 181 
0.43476 -0.139609 -0.133047 183 
0.434265 -0.139393 -0.132281 185 
0.434038 -0.139295 -0.131452 183 
0.433335 -0.138987 -0.130739 189 
0.433215 -0.138936 -0.129885 191 
0.432779 -0.138746 -0.12911 197 
0.432608 -0.138672 -0.128269 198 
0.432543 -0.138646 -0.127401 198 
0.43232 -0.13855 -0.126574 200 
0.432203 -0.1385 -0.125719 200 
0.432351 -0.138568 -0.124796 203 
0.432182 -0.138495 -0.123954 204 
0.430858 -0.137913 -0.123417 204 
0.430221 -0.137634 -0.122703 203 
0.429481 -0.13731 -0.122018 199 
0.429368 -0.137262 -0.121166 202 
0.429204 -0.137192 -0.120329 206 
0.429092 -0.137145 -0.119476 207 
0.428929 -0.137075 -0.118638 203 
0.427782 -0.136571 -0.118074 206 
0.427104 -0.136274 -0.117383 203 
0.426737 -0.136114 -0.116606 203 
0.426577 -0.136045 -0.115771 201 
0.426417 -0.135977 -0.114936 202 
0.426361 -0.135954 -0.11407 201 
0.426203 -0.135887 -0.113235 201 
0.426044 -0.135819 -0.112399 200 
0.425836 -0.135729 -0.111578 200 
0.42573 -0.135685 -0.110727 196 
0.424448 -0.135121 -0.110228 191 
0.424191 -0.13501 -0.109425 186 
0.423629 -0.134764 -0.108715 188 
0.42317 -0.134563 -0.107974 187 
0.423017 -0.134498 -0.107141 183 
0.42261 -0.134321 -0.106387 184 
0.422003 -0.134055 -0.105696 189 
0.421852 -0.13399 -0.104864 186 
0.421297 -0.133747 -0.10416 185 
0.420795 -0.133528 -0.10344 185 
0.420645 -0.133464 -0.102609 185 
0.420596 -0.133444 -0.101745 185 
0.420497 -0.133403 -0.100897 176 
0.420449 -0.133384 -0.100032 175 
0.420702 -0.133498 -0.0990668 175 
0.420354 -0.133346 -0.0982998 168 
0.420658 -0.133483 -0.0973158 167 
0.420763 -0.133531 -0.0963968 163 
0.420465 -0.133402 -0.0956128 158 
0.420469 -0.133406 -0.0947258 155 
0.420374 -0.133366 -0.0938738 154 
0.420631 -0.133481 -0.0928988 147 
0.420334 -0.133353 -0.0921138 149 
0.420341 -0.133358 -0.0912238 143 
0.421154 -0.133719 -0.0900498 144 
0.421211 -0.133747 -0.0891388 134 
0.42021 -0.133307 -0.0886028 135 
0.420823 -0.133579 -0.0874938 130 
0.421539 -0.133898 -0.0863428 126 
0.421751 -0.133994 -0.0853718 134 
0.422014 -0.134112 -0.0843798 146 
0.421923 -0.134074 -0.0835168 154 
0.421831 -0.134036 -0.0826518 159 
0.422198 -0.1342 -0.0816178 157 
0.422566 -0.134365 -0.0805808 158 
0.422629 -0.134395 -0.0796558 154 
0.422845 -0.134492 -0.0786708 148 
0.422705 -0.134433 -0.0778208 150 
0.423229 -0.134667 -0.0767158 152 
0.423705 -0.134879 -0.0756278 155 
0.423154 -0.134638 -0.0749318 163 
0.423631 -0.134851 -0.0738398 153 
0.424832 -0.135383 -0.0724608 139 
0.424951 -0.135438 -0.0715008 135 
0.425278 -0.135585 -0.0704578 139 
0.425502 -0.135686 -0.0694528 149 
0.425416 -0.13565 -0.0685708 149 
0.425693 -0.135775 -0.0675418 145 
0.425555 -0.135716 -0.0666788 143 
0.42599 -0.135911 -0.0655828 131 
0.426636 -0.136198 -0.0643978 129 
0.426917 -0.136325 -0.0633588 134 
0.42699 -0.136359 -0.0624038 134 
0.42764 -0.136649 -0.0612068 130 
0.42803 -0.136823 -0.0601158 130 
0.428052 -0.136835 -0.0591768 131 
0.428867 -0.137198 -0.0579018 129 
0.429262 -0.137374 -0.0568018 124 
0.429551 -0.137504 -0.0557428 133 
0.429628 -0.13754 -0.0547728 130 
0.430026 -0.137718 -0.0536638 123 
0.430692 -0.138015 -0.0524348 117 
0.430825 -0.138076 -0.0514358 125 
0.431442 -0.138351 -0.0502218 130 
0.431791 -0.138508 -0.0491228 130 
0.433008 -0.139047 -0.0476378 117 
0.432819 -0.138967 -0.0467708 114 
0.433065 -0.139077 -0.0457098 111 
0.433747 -0.139381 -0.0444508 115 
0.433885 -0.139445 -0.0434328 102 
0.434517 -0.139726 -0.0421898 100 
0.435315 -0.140081 -0.0408668 101 
0.436173 -0.140462 -0.0395128 113 
0.43709 -0.14087 -0.0381258 118 
0.437735 -0.141157 -0.0368598 116 
0.437436 -0.141027 -0.0360298 118 
0.437748 -0.141168 -0.0349128 121 
0.43862 -0.141556 -0.0335318 119 
0.439329 -0.141871 -0.0322228 119 
0.440209 -0.142262 -0.0308278 118 
0.440303 -0.142307 -0.0298028 117 
0.440455 -0.142376 -0.0287488 107 
0.441172 -0.142695 -0.0274208 102 
0.44252 -0.143293 -0.0257838 106 
0.442904 -0.143465 -0.0246078 105 
0.443002 -0.143511 -0.0235678 105 
0.442587 -0.14333 -0.0227788 95 
0.443431 -0.143705 -0.0213708 86 
0.444049 -0.143981 -0.0200688 84 
0.39051 -0.122941 -0.430946 6 
0.386757 -0.121259 -0.428119 10 
0.389433 -0.122463 -0.42863 6 
0.388701 -0.122136 -0.427377 8 
0.389812 -0.122637 -0.427072 8 
0.389826 -0.122645 -0.426204 12 
0.392899 -0.124027 -0.426889 10 
0.389986 -0.122722 -0.424537 11 
0.393508 -0.124305 -0.425435 8 
0.392673 -0.123932 -0.424136 6 
0.393581 -0.124341 -0.423711 9 
0.392212 -0.123729 -0.422154 8 
0.392939 -0.124058 -0.421638 10 
0.392286 -0.123767 -0.420442 12 
0.393058 -0.124116 -0.419946 13 
0.393699 -0.124405 -0.419384 10 
0.393446 -0.124294 -0.418387 10 
0.393686 -0.124404 -0.417629 11 
0.394328 -0.124694 -0.417065 12 
0.394389 -0.124724 -0.41622 8 
0.3936 -0.124372 -0.414972 15 
0.392949 -0.124082 -0.413794 11 
0.393857 -0.124492 -0.413354 13 
0.394456 -0.124763 -0.412765 17 
0.394071 -0.124592 -0.411716 16 
0.395119 -0.125064 -0.411334 14 
0.396127 -0.125519 -0.410931 18 
0.395964 -0.125448 -0.409985 17 
0.396118 -0.125519 -0.409185 17 
0.396136 -0.12553 -0.408324 15 
0.397194 -0.126007 -0.407935 21 
0.397712 -0.126242 -0.407298 21 
0.396282 -0.125602 -0.405786 20 
0.39716 -0.125998 -0.405311 21 
0.397678 -0.126233 -0.404673 24 
0.398106 -0.126427 -0.403995 22 
0.399129 -0.126889 -0.403576 23 
0.398555 -0.126633 -0.402455 25 
0.398849 -0.126767 -0.401715 24 
0.399006 -0.12684 -0.400916 23 
0.398844 -0.126769 -0.399979 20 
0.399458 -0.127047 -0.399376 22 
0.398749 -0.126731 -0.398207 24 
0.399501 -0.12707 -0.397661 26 
0.400759 -0.127638 -0.397327 30 
0.400643 -0.127588 -0.396411 28 
0.401171 -0.127827 -0.395765 25 
