0.397638,-0.29361,0.124913,179
0.397881,-0.293837,0.125951,184
0.39764,-0.293617,0.126819,183
0.39735,-0.293353,0.127669,181
0.397352,-0.293358,0.128623,184
0.396726,-0.292782,0.12935,181
0.397842,-0.293816,0.130712,177
0.396828,-0.292883,0.131296,184
0.396735,-0.2928,0.132216,180
0.39645,-0.292539,0.133065,177
0.396696,-0.292769,0.134113,176
0.396508,-0.292598,0.134999,180
0.396416,-0.292517,0.135921,177
0.396567,-0.292659,0.136937,179
0.396622,-0.292713,0.137917,176
0.396726,-0.292812,0.138917,175
0.396879,-0.292956,0.139937,172
0.398005,-0.293998,0.141344,171
0.397138,-0.293201,0.141965,172
0.39739,-0.293436,0.14303,175
0.39857,-0.294529,0.144472,170
0.397653,-0.293685,0.145068,171
0.3982,-0.294194,0.14626,167
0.398799,-0.29475,0.147476,165
0.399007,-0.294945,0.148535,162
0.399167,-0.295096,0.149575,162
0.399673,-0.295566,0.150762,161
0.399588,-0.29549,0.151703,163
0.399997,-0.295871,0.152854,159
0.40011,-0.295979,0.153882,154
0.400373,-0.296225,0.154976,150
0.400886,-0.296701,0.15618,149
0.4014,-0.297179,0.157389,152
0.402067,-0.297798,0.158668,152
0.402587,-0.298281,0.159886,156
0.402254,-0.297976,0.16073,153
0.402775,-0.298461,0.161954,154
0.403248,-0.298901,0.16316,161
0.403319,-0.298969,0.164187,156
0.403643,-0.299271,0.165331,156
0.403968,-0.299575,0.166479,152
0.404345,-0.299926,0.167652,152
0.404622,-0.300185,0.168783,146
0.405667,-0.301153,0.170273,147
0.40523,-0.300753,0.171076,140
0.406795,-0.302202,0.17282,137
0.406562,-0.30199,0.173722,141
0.406022,-0.301493,0.174477,135
0.40682,-0.302234,0.175872,131
0.407261,-0.302644,0.177099,134
0.407547,-0.302912,0.178255,135
0.407523,-0.302893,0.179262,131
0.407863,-0.30321,0.180448,126
0.408204,-0.303528,0.181638,134
0.408234,-0.303559,0.182676,131
0.408264,-0.303589,0.183715,132
0.408399,-0.303717,0.184808,132
0.408221,-0.303556,0.185745,125
0.408984,-0.304265,0.187159,113
0.409858,-0.305074,0.188634,109
0.410154,-0.305352,0.18982,115
0.410294,-0.305483,0.190927,115
0.411441,-0.306547,0.192558,109
0.411796,-0.306878,0.193783,114
0.412206,-0.307259,0.19504,119
0.41251,-0.307543,0.196245,112
0.412868,-0.307878,0.197482,104
0.413282,-0.308264,0.19875,111
0.413536,-0.308502,0.199937,110
0.413791,-0.30874,0.201126,110
0.413993,-0.30893,0.202289,107
0.414087,-0.30902,0.203396,109
0.414128,-0.309061,0.204475,110
0.413844,-0.308802,0.205377,109
0.414373,-0.309294,0.206727,111
0.41485,-0.309738,0.208052,110
0.415111,-0.309982,0.20926,101
0.416248,-0.311036,0.210962,105
0.415144,-0.310019,0.211409,104
0.416393,-0.311176,0.213183,101
0.415944,-0.310766,0.213999,104
0.4161,-0.310913,0.21516,107
0.415872,-0.310705,0.216101,98
0.416578,-0.311361,0.217582,97
0.417178,-0.311918,0.219006,107
0.41684,-0.311609,0.219888,110
0.416888,-0.311657,0.220995,104
0.416662,-0.311451,0.221942,118
0.416711,-0.3115,0.223052,116
0.41621,-0.31104,0.223836,108
0.416867,-0.311651,0.22531,108
0.417583,-0.312316,0.226824,103
0.417469,-0.312214,0.227843,103
0.418523,-0.313191,0.22957,107
0.418521,-0.313193,0.230662,113
0.41824,-0.312937,0.231583,115
0.418071,-0.312784,0.232574,107
0.418238,-0.312941,0.233771,95
0.350974,-0.254159,-0.204944,9
0.349808,-0.253072,-0.203277,8
0.35057,-0.253786,-0.202863,9
0.349446,-0.252739,-0.201233,7
0.350923,-0.254123,-0.201275,9
0.350439,-0.253672,-0.200059,9
0.349843,-0.253119,-0.198778,6
0.350491,-0.253727,-0.198285,6
0.350009,-0.253279,-0.197079,7
0.35096,-0.254171,-0.196773,8
0.350817,-0.25404,-0.195782,8
0.350825,-0.25405,-0.194886,12
0.352656,-0.255765,-0.195116,14
0.350692,-0.253931,-0.193005,13
0.350174,-0.25345,-0.19179,11
0.351087,-0.254307,-0.19145,9
0.351513,-0.254707,-0.190811,13
0.350015,-0.25331,-0.189011,12
0.354165,-0.257192,-0.190607,8
0.351655,-0.254849,-0.188205,9
0.351779,-0.254967,-0.187383,13
0.353617,-0.256689,-0.187575,12
0.353054,-0.256165,-0.186344,12
0.352379,-0.255537,-0.185052,14
0.354031,-0.257084,-0.185121,17
0.352667,-0.255811,-0.183432,15
0.35325,-0.256359,-0.182875,16
0.353758,-0.256837,-0.182272,14
0.35354,-0.256636,-0.181253,20
0.354125,-0.257186,-0.180693,20
0.354559,-0.257594,-0.180044,17
0.354917,-0.257932,-0.179351,13
0.354315,-0.257371,-0.178119,14
0.354634,-0.257673,-0.177405,18
0.353995,-0.257078,-0.176158,16
0.354736,-0.257774,-0.175677,22
0.35498,-0.258004,-0.17492,25
0.355416,-0.258415,-0.174268,19
0.355777,-0.258755,-0.173573,22
0.3561,-0.25906,-0.172856,21
0.355419,-0.258426,-0.171598,20
0.35605,-0.259019,-0.171047,26
0.356258,-0.259216,-0.170268,23
0.356737,-0.259667,-0.169632,26
0.356325,-0.259285,-0.168525,26
0.356727,-0.259663,-0.167847,25
0.357053,-0.259971,-0.167128,23
0.357418,-0.260315,-0.166429,26
0.357394,-0.260295,-0.165528,24
0.358307,-0.261152,-0.165108,25
0.357543,-0.26044,-0.163828,32
0.358065,-0.260931,-0.163206,31
0.359296,-0.262085,-0.16294,29
0.359076,-0.261882,-0.16194,32
0.359801,-0.262563,-0.161413,30
0.359267,-0.262066,-0.160257,33
0.359284,-0.262085,-0.159378,34
0.359655,-0.262435,-0.158673,36
0.35983,-0.262601,-0.157871,37
0.360163,-0.262916,-0.157145,36
0.360774,-0.26349,-0.156553,36
0.360832,-0.263546,-0.155692,33
0.361565,-0.264234,-0.155154,31
0.362021,-0.264664,-0.154482,35
0.36204,-0.264685,-0.153601,38
0.362099,-0.264743,-0.15274,40
0.362238,-0.264875,-0.151917,45
0.362657,-0.26527,-0.151223,46
0.362957,-0.265553,-0.150473,45
0.363579,-0.266138,-0.14987,43
0.363198,-0.265784,-0.148807,46
0.363419,-0.265994,-0.148019,46
0.363641,-0.266204,-0.147231,47
0.364064,-0.266603,-0.146533,49
0.364448,-0.266965,-0.145816,47
0.364995,-0.267479,-0.14517,49
0.365017,-0.267503,-0.144291,55
0.365283,-0.267754,-0.143518,53
0.365914,-0.268347,-0.142904,55
0.365734,-0.268181,-0.141937,53
0.366286,-0.2687,-0.141285,55
0.366431,-0.268839,-0.140458,55
0.367027,-0.269399,-0.139821,55
0.366806,-0.269195,-0.138839,57
0.367198,-0.269565,-0.138114,57
0.367632,-0.269974,-0.137406,56
0.367904,-0.27023,-0.136629,61
0.368011,-0.270334,-0.135783,60
0.368407,-0.270707,-0.135056,65
0.368969,-0.271235,-0.134394,61
0.369119,-0.271379,-0.133564,66
0.369311,-0.271561,-0.132751,59
0.369255,-0.271511,-0.131839,61
0.369655,-0.271888,-0.131107,59
0.370139,-0.272344,-0.130407,69
0.370958,-0.273113,-0.129836,61
0.371195,-0.273338,-0.129036,68
0.370682,-0.27286,-0.127947,66
0.371588,-0.27371,-0.127402,67
0.371743,-0.273858,-0.12657,72
0.371814,-0.273928,-0.125705,74
0.372348,-0.27443,-0.125014,76
0.372336,-0.274422,-0.124118,78
0.373929,-0.275915,-0.123812,74
0.373199,-0.275234,-0.122651,72
0.372724,-0.274793,-0.121588,80
0.372798,-0.274865,-0.120724,79
0.37283,-0.274898,-0.119846,77
0.372905,-0.274971,-0.118984,80
0.372896,-0.274965,-0.118092,89
0.372677,-0.274763,-0.117127,85
0.372543,-0.27464,-0.116194,81
0.372745,-0.274832,-0.115378,83
0.37215,-0.274278,-0.114289,91
0.372144,-0.274274,-0.113403,93
0.371719,-0.27388,-0.112378,91
0.371338,-0.273526,-0.111369,93
0.371291,-0.273484,-0.110474,93
0.37087,-0.273094,-0.109457,95
0.370824,-0.273053,-0.108565,94
0.370034,-0.272316,-0.107433,97
0.369453,-0.271776,-0.106374,98
0.369286,-0.271622,-0.105449,94
0.36916,-0.271507,-0.104538,96
0.368503,-0.270894,-0.103463,109
0.368583,-0.270972,-0.10262,106
0.368623,-0.271012,-0.101764,110
0.368418,-0.270823,-0.100835,109
0.368254,-0.270673,-0.0999196,113
0.368418,-0.270828,-0.0991032,104
0.368296,-0.270717,-0.0982021,104
0.368542,-0.270949,-0.0974099,107
0.368461,-0.270877,-0.0965222,110
0.368096,-0.270538,-0.0955534,102
0.368221,-0.270657,-0.0947267,109
0.368101,-0.270548,-0.0938309,112
0.368023,-0.270477,-0.0929477,112
0.367986,-0.270445,-0.0920769,116
0.36803,-0.270489,-0.0912292,118
0.368645,-0.271067,-0.0905372,124
0.368895,-0.271304,-0.0897438,131
0.368818,-0.271235,-0.0888625,130
0.368946,-0.271357,-0.0880361,129
0.369115,-0.271518,-0.0872204,132
0.368632,-0.271068,-0.0862349,132
0.369046,-0.271459,-0.0854831,129
0.369176,-0.271583,-0.0846571,134
0.369184,-0.271593,-0.0838002,136
0.369314,-0.271718,-0.0829743,134
0.369404,-0.271805,-0.0821382,136
0.369864,-0.272237,-0.0813921,143
0.370407,-0.272749,-0.0806644,140
0.370581,-0.272914,-0.0798461,145
0.369811,-0.272196,-0.0788042,142
0.370149,-0.272515,-0.0780259,150
0.370242,-0.272605,-0.0771894,147
0.370583,-0.272926,-0.0764094,154
0.370101,-0.272479,-0.0754425,147
0.370566,-0.272916,-0.0746895,147
0.370414,-0.272776,-0.0737986,146
0.370633,-0.272984,-0.0729897,151
0.37077,-0.273115,-0.0721625,150
0.370784,-0.273131,-0.0713088,157
0.370798,-0.273147,-0.0704554,160
0.37106,-0.273395,-0.0696538,164
0.371158,-0.273489,-0.0688175,163
0.371215,-0.273545,-0.0679728,164
0.371562,-0.273873,-0.0671862,162
0.37162,-0.27393,-0.0663411,162
0.371018,-0.273369,-0.0653674,167
0.371077,-0.273427,-0.0645242,169
0.371343,-0.273678,-0.0637204,171
0.371403,-0.273737,-0.062877,172
0.371298,-0.273641,-0.0620032,170
0.371112,-0.273469,-0.0611154,168
0.370885,-0.273259,-0.0602216,164
0.371317,-0.273667,-0.059446,169
0.371214,-0.273573,-0.0585752,170
0.370947,-0.273326,-0.057677,169
0.371052,-0.273426,-0.0568433,167
0.372106,-0.274416,-0.0561678,168
0.371881,-0.274208,-0.0552771,165
0.37178,-0.274116,-0.054408,167
0.371762,-0.274102,-0.0535529,160
0.371415,-0.27378,-0.0526467,163
0.371481,-0.273844,-0.051806,165
0.371424,-0.273793,-0.0509467,170
0.371615,-0.273975,-0.0501248,169
0.371847,-0.274195,-0.0493084,170
0.371874,-0.274223,-0.0484614,170
0.371819,-0.274173,-0.047603,173
0.371722,-0.274086,-0.0467394,174
0.371585,-0.27396,-0.045871,171
0.371573,-0.273951,-0.0450202,166
0.371684,-0.274058,-0.044186,166
0.372417,-0.274747,-0.0434311,163
0.371909,-0.274274,-0.0425167,167
0.372105,-0.27446,-0.0416918,170
0.373007,-0.275307,-0.0409514,173
0.37192,-0.274291,-0.0399715,170
0.371951,-0.274324,-0.0391268,177
0.37186,-0.274241,-0.0382682,180
0.371976,-0.274352,-0.0374331,180
0.371555,-0.273961,-0.0365398,182
0.371589,-0.273995,-0.0356967,177
0.371583,-0.273992,-0.0348494,176
0.371576,-0.273988,-0.0340024,177
0.371612,-0.274024,-0.0331597,181
0.371689,-0.274099,-0.032321,182
0.371849,-0.274251,-0.0314897,182
0.372671,-0.275024,-0.0307175,185
0.371923,-0.274326,-0.0298037,182
0.372209,-0.274596,-0.0289817,184
0.372785,-0.275139,-0.0281825,185
0.372576,-0.274945,-0.0273176,189
0.372408,-0.274791,-0.0264572,186
0.372821,-0.27518,-0.0256412,184
0.372945,-0.275299,-0.0248024,185
0.373152,-0.275495,-0.0239688,184
0.373069,-0.27542,-0.0231148,185
0.373069,-0.275423,-0.0222668,189
0.373195,-0.275544,-0.0214266,188
0.37303,-0.275392,-0.0205686,191
0.373032,-0.275397,-0.0197211,192
0.372993,-0.275363,-0.0188714,190
0.37308,-0.275446,-0.0180285,186
0.373083,-0.275452,-0.0171812,193
0.373253,-0.275614,-0.0163417,189
0.373009,-0.275388,-0.0154831,192
0.372931,-0.275317,-0.0146327,191
0.372688,-0.275092,-0.0137763,192
0.372528,-0.274945,-0.0129243,194
0.372576,-0.274993,-0.0120802,191
0.372376,-0.274808,-0.0112281,202
0.372467,-0.274896,-0.0103856,198
0.372557,-0.274983,-0.00954263,201
0.372483,-0.274916,-0.00869527,205
0.37241,-0.27485,-0.00784833,204
0.372006,-0.274475,-0.00699549,204
0.372264,-0.274719,-0.00615567,203
0.372275,-0.274731,-0.0053111,203
0.371873,-0.274358,-0.00446175,203
0.371514,-0.274024,-0.00361483,208
0.37046,-0.273039,-0.00276528,206
0.371005,-0.273552,-0.00192728,208
0.370281,-0.272877,-0.0010848,205
0.369969,-0.272587,-0.0002455,203
0.369942,-0.272564,0.000593296,206
0.369956,-0.27258,0.00143223,210
0.369849,-0.272482,0.0022702,210
0.369742,-0.272385,0.00310765,211
0.369595,-0.27225,0.00394404,210
0.369043,-0.271735,0.00477308,211
0.369344,-0.27202,0.00561551,204
0.369199,-0.271886,0.00644995,204
0.368004,-0.27077,0.00725848,201
0.367861,-0.270638,0.00808895,199
0.36792,-0.270696,0.00892462,195
0.368787,-0.27151,0.0097862,194
0.36808,-0.270851,0.0105985,192
0.367657,-0.270457,0.0114177,194
0.367477,-0.270291,0.0122444,193
0.367658,-0.270463,0.0130853,192
0.368082,-0.270863,0.013938,189
0.368225,-0.271,0.0147798,187
0.368409,-0.271174,0.0156244,188
0.368513,-0.271274,0.016466,191
0.368536,-0.271299,0.0173037,194
0.368843,-0.271589,0.0181579,193
0.368868,-0.271615,0.018997,193
0.368812,-0.271565,0.0198313,192
0.368797,-0.271554,0.020668,196
0.369147,-0.271884,0.0215294,196
0.369255,-0.271988,0.0223758,199
0.369648,-0.272359,0.0232435,197
0.370246,-0.272922,0.0241288,199
0.370561,-0.27322,0.0249952,200
0.371082,-0.27371,0.0258799,196
0.370947,-0.273587,0.0267134,195
0.371264,-0.273887,0.0275848,196
0.371377,-0.273995,0.02844,200
0.371573,-0.274181,0.0293035,201
0.371605,-0.274213,0.030153,206
0.371389,-0.274014,0.0309793,200
0.37171,-0.274318,0.0318571,204
0.371702,-0.274313,0.0327038,202
0.371777,-0.274385,0.0335591,201
0.371852,-0.274459,0.0344151,203
0.372135,-0.274726,0.0352941,204
0.372377,-0.274956,0.0361703,205
0.372372,-0.274953,0.0370198,207
0.372449,-0.275029,0.0378793,208
0.373902,-0.276393,0.0389018,210
0.374275,-0.276745,0.0398017,213
0.374187,-0.276665,0.0406469,206
0.374017,-0.276508,0.0414815,205
0.374224,-0.276705,0.0423639,206
0.374347,-0.276823,0.0432368,208
0.374514,-0.276982,0.0441162,208
0.374723,-0.277181,0.0450026,203
0.374764,-0.277222,0.0458671,202
0.375101,-0.277541,0.0467738,200
0.376584,-0.278933,0.0478473,203
0.375864,-0.278261,0.0486062,203
0.375611,-0.278027,0.0494314,205
0.376377,-0.278747,0.0504098,205
0.376805,-0.279151,0.0513405,202
0.376766,-0.279117,0.0522005,199
0.376983,-0.279323,0.0531014,202
0.377158,-0.27949,0.0539969,197
0.377419,-0.279738,0.0549078,196
0.377639,-0.279946,0.0558135,195
0.378375,-0.280639,0.0568081,198
0.378942,-0.281173,0.0577778,199
0.379382,-0.281588,0.0587285,197
0.379477,-0.281679,0.0596206,199
0.379832,-0.282015,0.0605605,199
0.379928,-0.282108,0.0614552,198
0.380068,-0.282242,0.062359,198
0.381213,-0.283318,0.0634524,196
0.381268,-0.283372,0.0643447,197
0.380666,-0.282811,0.0651112,199
0.382259,-0.284306,0.0663034,202
0.382403,-0.284445,0.0672178,202
0.382505,-0.284543,0.0681247,202
0.38243,-0.284475,0.0689967,199
0.382709,-0.28474,0.0699416,196
0.38268,-0.284715,0.070824,199
0.383005,-0.285023,0.0717815,198
0.383287,-0.28529,0.0727318,204
0.383437,-0.285433,0.0736555,201
0.383365,-0.285368,0.0745319,201
0.383338,-0.285346,0.0754183,202
0.383489,-0.28549,0.0763449,205
0.383597,-0.285594,0.0772628,205
0.383482,-0.285489,0.0781309,200
0.383591,-0.285594,0.0790506,202
0.383789,-0.285783,0.0799922,203
0.38381,-0.285805,0.0808933,204
0.38401,-0.285995,0.0818378,202
0.383853,-0.285851,0.0826976,203
0.383607,-0.285623,0.0835353,200
0.383809,-0.285815,0.0844827,199
0.384772,-0.286721,0.085622,197
0.384931,-0.286873,0.0865637,195
0.385406,-0.287321,0.0875873,195
0.385116,-0.287052,0.0884169,196
0.384917,-0.286868,0.089269,193
0.384763,-0.286726,0.0901326,193
0.38542,-0.287345,0.0912112,193
0.385628,-0.287543,0.0921733,188
0.385837,-0.287742,0.0931373,191
0.386274,-0.288154,0.0941651,192
0.38653,-0.288397,0.095146,197
0.387563,-0.289369,0.0963451,195
0.387914,-0.289701,0.0973585,192
0.388267,-0.290034,0.0983747,192
0.388759,-0.290499,0.0994333,191
0.388746,-0.290489,0.100349,189
0.388871,-0.29061,0.101305,187
0.389321,-0.291034,0.102359,187
0.389726,-0.291417,0.103402,188
0.389854,-0.29154,0.104364,185
0.390588,-0.292231,0.105511,184
0.390578,-0.292224,0.106436,183
0.39141,-0.293007,0.10762,178
0.391823,-0.293398,0.108679,177
0.392238,-0.29379,0.109742,175
0.39308,-0.294583,0.110942,173
0.392884,-0.294401,0.111817,171
0.393636,-0.295109,0.112996,175
0.394774,-0.29618,0.114304,177
0.395104,-0.296492,0.115355,179
0.395483,-0.296851,0.116425,182
0.395527,-0.296895,0.117386,180
0.395668,-0.29703,0.118381,178
0.395569,-0.29694,0.119296,181
0.395614,-0.296985,0.120261,180
0.395468,-0.296851,0.121161,179
0.395707,-0.297078,0.122193,182
0.395754,-0.297125,0.123161,184
0.395802,-0.297173,0.12413,181
0.39585,-0.297221,0.1251,181
0.396044,-0.297406,0.126122,184
0.396383,-0.297727,0.127199,184
0.396336,-0.297686,0.128139,188
0.396193,-0.297555,0.129044,186
0.39639,-0.297742,0.130073,188
0.396587,-0.29793,0.131105,190
0.396542,-0.297891,0.132048,183
0.396401,-0.297761,0.132956,180
0.396648,-0.297996,0.13401,181
0.396653,-0.298004,0.134974,177
0.396464,-0.29783,0.135865,179
0.396519,-0.297884,0.136849,177
0.396769,-0.298121,0.13791,175
0.396776,-0.298131,0.138878,173
0.396978,-0.298324,0.139924,174
0.396986,-0.298335,0.140895,171
0.397044,-0.298391,0.141886,173
0.397004,-0.298357,0.14284,173
0.397307,-0.298644,0.143932,172
0.397415,-0.298748,0.144947,176
0.397279,-0.298624,0.145864,170
0.397829,-0.299143,0.147063,165
0.398332,-0.299618,0.148247,163
0.398197,-0.299494,0.149168,161
0.398505,-0.299786,0.150275,159
0.399458,-0.300683,0.151657,157
0.399472,-0.300699,0.152646,158
0.399487,-0.300716,0.153636,155
0.399998,-0.3012,0.154841,156
0.400114,-0.301311,0.155878,157
0.400629,-0.301797,0.15709,154
0.401096,-0.302239,0.158285,151
0.401214,-0.302352,0.15933,164
0.401584,-0.302702,0.160487,161
0.401552,-0.302676,0.161468,160
0.401722,-0.302838,0.16254,154
0.401792,-0.302907,0.163569,153
0.402874,-0.303925,0.16506,150
0.402288,-0.303378,0.165793,154
0.402461,-0.303543,0.166874,149
0.402837,-0.3039,0.168051,143
0.40352,-0.304544,0.169374,147
0.404105,-0.305095,0.170656,143
0.404436,-0.305409,0.171822,144
0.404614,-0.30558,0.172918,141
0.405256,-0.306185,0.174237,140
0.405385,-0.306309,0.175314,131
0.404999,-0.30595,0.176145,128
0.40518,-0.306123,0.177249,137
0.405517,-0.306442,0.178431,130
0.405389,-0.306326,0.179389,131
0.405676,-0.306598,0.18055,134
0.40643,-0.307309,0.181947,131
0.406719,-0.307583,0.183117,122
0.406801,-0.307664,0.184185,120
0.407145,-0.307989,0.185386,119
0.408223,-0.309004,0.186963,114
0.40815,-0.308939,0.18796,117
0.408867,-0.309614,0.189362,125
0.409481,-0.310194,0.190717,123
0.409568,-0.310279,0.191802,122
0.409603,-0.310315,0.192862,121
0.409903,-0.3106,0.194061,119
0.410258,-0.310936,0.195293,120
0.410934,-0.311574,0.196697,116
0.411292,-0.311913,0.197937,117
0.41133,-0.311952,0.199008,113
0.411315,-0.311941,0.200052,110
0.411783,-0.312383,0.201358,111
0.411286,-0.31192,0.202143,108
0.412077,-0.312667,0.203631,111
0.411795,-0.312405,0.204534,113
0.411997,-0.312598,0.205704,118
0.412201,-0.312792,0.206877,112
0.411704,-0.312329,0.20766,114
0.413205,-0.313741,0.209565,108
0.412761,-0.313327,0.21038,107
0.412317,-0.312915,0.211195,109
0.412849,-0.313417,0.212563,113
0.412676,-0.313258,0.213533,115
0.413101,-0.31366,0.214846,118
0.412875,-0.313452,0.215787,111
0.413792,-0.314316,0.217392,109
0.414332,-0.314825,0.218782,108
0.413723,-0.314257,0.219502,109
0.41388,-0.314408,0.220672,109
0.414257,-0.314765,0.221975,111
0.413869,-0.314404,0.222824,108
0.41359,-0.314146,0.223738,118
0.414242,-0.314761,0.225211,113
0.414347,-0.314863,0.226359,111
0.415114,-0.315586,0.22791,108
0.415387,-0.315846,0.229165,107
0.415827,-0.316262,0.230526,103
0.41588,-0.316316,0.231652,100
0.415546,-0.316006,0.23254,102
0.416322,-0.316737,0.234116,104
0.349988,-0.257877,-0.205614,7
0.350221,-0.258101,-0.204852,8
0.348003,-0.255998,-0.202497,7
0.350119,-0.258009,-0.202961,7
0.348879,-0.256835,-0.201251,8
0.348661,-0.256631,-0.200204,7
0.349684,-0.257605,-0.199952,8
0.348338,-0.25633,-0.198189,7
0.349359,-0.257302,-0.197934,8
0.350197,-0.258101,-0.197557,7
0.3496,-0.257537,-0.196277,11
0.350667,-0.258553,-0.19604,13
0.348828,-0.256809,-0.193991,10
0.351443,-0.259296,-0.19471,8
0.350124,-0.258045,-0.192992,11
0.350284,-0.2582,-0.192189,8
0.350066,-0.257996,-0.191155,11
0.349887,-0.257829,-0.190147,11
0.350538,-0.25845,-0.189642,10
0.349118,-0.257104,-0.187889,10
0.350406,-0.25833,-0.187766,11
0.351362,-0.259242,-0.187439,13
0.351676,-0.259543,-0.186727,13
0.350588,-0.258511,-0.185186,15
0.351241,-0.259135,-0.184675,17
0.351214,-0.259112,-0.183763,15
0.352786,-0.260608,-0.183782,14
0.352644,-0.260475,-0.182801,15
0.35254,-0.26038,-0.181844,16
0.353777,-0.261558,-0.181657,15
0.354019,-0.261791,-0.180896,15
0.35288,-0.260711,-0.179351,19
0.353505,-0.261307,-0.178809,18
0.354247,-0.262015,-0.17833,21
0.353337,-0.261154,-0.176925,18
0.353964,-0.261752,-0.17638,22
0.354207,-0.261986,-0.17562,21
0.353989,-0.261781,-0.174606,25
0.353925,-0.261724,-0.173678,22
0.354785,-0.262543,-0.173254,24
0.354529,-0.262303,-0.172222,24
0.354543,-0.262318,-0.171337,26
0.355174,-0.262921,-0.170784,22
0.356079,-0.263783,-0.170375,24
0.355202,-0.262953,-0.169015,25
0.355681,-0.263411,-0.168377,26
0.355618,-0.263354,-0.167453,25
0.356059,-0.263776,-0.166793,24
0.355842,-0.263572,-0.165789,28
0.357023,-0.264697,-0.165511,27
0.35661,-0.264308,-0.164406,32
0.35811,-0.265736,-0.164283,29
0.356992,-0.264676,-0.162821,32
0.357399,-0.265065,-0.162137,33
0.357415,-0.265083,-0.161255,33
0.357979,-0.265622,-0.160648,35
0.358624,-0.266238,-0.160079,37
0.359113,-0.266705,-0.15943,35
0.358698,-0.266313,-0.158334,34
0.359187,-0.266781,-0.157684,35
0.359521,-0.267101,-0.156955,36
0.359657,-0.267233,-0.156131,41
0.359952,-0.267517,-0.155382,40
0.36001,-0.267574,-0.15452,37
0.360823,-0.268349,-0.154016,39
0.360841,-0.26837,-0.153134,44
0.360622,-0.268164,-0.15214,47
0.361238,-0.268752,-0.151539,41
0.360662,-0.268207,-0.150381,45
0.361358,-0.268871,-0.149814,45
0.362417,-0.269881,-0.149412,46
0.362398,-0.269865,-0.148512,44
0.362779,-0.270231,-0.147794,47
0.3626,-0.270063,-0.146822,50
0.363143,-0.270582,-0.146176,49
0.363527,-0.27095,-0.145457,54
0.364074,-0.271472,-0.144808,51
0.363975,-0.27138,-0.143873,49
0.364118,-0.27152,-0.143045,53
0.364465,-0.271852,-0.142306,51
0.364569,-0.271953,-0.14146,50
0.364795,-0.272171,-0.140667,52
0.3649,-0.272273,-0.139821,53
0.365167,-0.27253,-0.139045,57
0.36617,-0.273486,-0.138578,57
0.36644,-0.273745,-0.137799,55
0.366874,-0.274161,-0.137088,56
0.367064,-0.274344,-0.136274,58
0.367089,-0.274371,-0.135392,62
0.367649,-0.274906,-0.134729,63
0.367717,-0.274973,-0.133864,67
0.367949,-0.275196,-0.133065,64
0.368306,-0.275539,-0.132316,65
0.368333,-0.275567,-0.131435,70
0.368816,-0.276029,-0.130733,65
0.368926,-0.276136,-0.129884,71
0.369411,-0.2766,-0.129181,70
0.369523,-0.276709,-0.128331,70
0.369593,-0.276778,-0.127466,65
0.36983,-0.277007,-0.126665,63
0.370151,-0.277315,-0.125894,73
0.370223,-0.277385,-0.125029,75
0.370462,-0.277615,-0.124227,78
0.370409,-0.277568,-0.123315,76
0.370774,-0.277918,-0.122559,77
0.370889,-0.27803,-0.12171,75
0.371256,-0.278381,-0.120952,74
0.370702,-0.277857,-0.119861,76
0.37065,-0.277811,-0.118954,76
0.370433,-0.277607,-0.117988,72
0.370675,-0.27784,-0.117186,79
0.370499,-0.277676,-0.116238,83
0.370283,-0.277473,-0.115277,88
0.370401,-0.277588,-0.114432,88
0.369895,-0.27711,-0.113375,92
0.369557,-0.276791,-0.112378,91
0.369385,-0.27663,-0.111439,89
0.369462,-0.276707,-0.110584,87
0.368961,-0.276233,-0.109539,95
0.368339,-0.275644,-0.108457,95
0.368499,-0.2758,-0.107633,97
0.368167,-0.275486,-0.106651,99
0.36755,-0.274902,-0.105579,99
0.367465,-0.274825,-0.10468,98
0.366852,-0.274244,-0.103616,103
0.366728,-0.274129,-0.102708,100
0.366645,-0.274053,-0.101815,104
0.36628,-0.273708,-0.100835,106
0.365915,-0.273364,-0.0998582,113
0.365956,-0.273405,-0.0990058,115
0.365916,-0.27337,-0.0981297,116
0.366443,-0.273874,-0.0974219,112
0.365918,-0.273378,-0.0964037,117
0.365879,-0.273344,-0.09553,115
0.366326,-0.273771,-0.0947965,118
0.366046,-0.273507,-0.0938539,116
0.366899,-0.274321,-0.0932335,120
0.366375,-0.273826,-0.0922238,117
0.366379,-0.273832,-0.0913636,123
0.366141,-0.273608,-0.0904373,120
0.366267,-0.273731,-0.0896117,123
0.366514,-0.273969,-0.0888188,121
0.367006,-0.274439,-0.0880902,125
0.366728,-0.274177,-0.0871562,125
0.366572,-0.274032,-0.086256,125
0.367025,-0.274465,-0.0855146,123
0.36691,-0.274358,-0.0846259,127
0.367039,-0.274484,-0.0838002,132
0.366925,-0.274378,-0.0829132,137
0.367055,-0.274505,-0.0820878,136
0.367267,-0.274709,-0.0812822,136
0.367561,-0.27499,-0.0804959,143
0.367692,-0.275118,-0.0796695,150
0.367783,-0.275208,-0.0788333,144
0.367794,-0.27522,-0.0779779,149
0.367968,-0.275388,-0.077161,145
0.36802,-0.275441,-0.0763155,145
0.367746,-0.275183,-0.0753962,148
0.368247,-0.275662,-0.0746528,150
0.368342,-0.275755,-0.0738168,150
0.368192,-0.275615,-0.072927,150
0.368124,-0.275553,-0.0720562,157
0.368586,-0.275995,-0.0713,158
0.36901,-0.276401,-0.0705334,164
0.369229,-0.276612,-0.0697224,163
0.369245,-0.27663,-0.0688684,163
0.368892,-0.276297,-0.0679394,159
0.368744,-0.276159,-0.0670541,161
0.369006,-0.276411,-0.0662514,164
0.369351,-0.276742,-0.0654639,160
0.370109,-0.277465,-0.064755,162
0.370168,-0.277524,-0.063909,170
0.370186,-0.277544,-0.0630553,167
0.370247,-0.277604,-0.0622096,164
0.370142,-0.277507,-0.0613338,169
0.370575,-0.277921,-0.0605559,169
0.370471,-0.277825,-0.0596805,174
0.370574,-0.277926,-0.0588424,170
0.370554,-0.27791,-0.0579826,179
0.370576,-0.277933,-0.0571305,174
0.370227,-0.277604,-0.0562162,170
0.370332,-0.277707,-0.0553791,168
0.370397,-0.277771,-0.0545352,174
0.370256,-0.277639,-0.0536583,169
0.370321,-0.277704,-0.0528149,170
0.37051,-0.277887,-0.0519908,176
0.370783,-0.278149,-0.0511786,180
0.37085,-0.278215,-0.0503345,176
0.371704,-0.27903,-0.0496063,175
0.371772,-0.279098,-0.0487602,173
0.371758,-0.279087,-0.0479022,175
0.371785,-0.279116,-0.0470504,171
0.37198,-0.279303,-0.0462216,175
0.372175,-0.279491,-0.0453921,177
0.372121,-0.279442,-0.044529,177
0.371984,-0.279315,-0.0436558,173
0.371599,-0.278951,-0.0427519,171
0.371505,-0.278865,-0.0418865,172
0.37166,-0.279015,-0.041052,170
0.371899,-0.279245,-0.040227,173
0.372222,-0.279555,-0.0394107,178
0.372296,-0.279628,-0.0385647,179
0.372163,-0.279504,-0.0376953,180
0.37253,-0.279855,-0.0368812,180
0.372939,-0.280248,-0.03607,178
0.372598,-0.279926,-0.0351791,174
0.372967,-0.28028,-0.0343619,178
0.372211,-0.279563,-0.033432,181
0.372205,-0.27956,-0.0325783,177
0.372575,-0.279914,-0.0317599,179
0.372946,-0.28027,-0.0309398,184
0.372608,-0.279951,-0.0300554,187
0.372938,-0.280268,-0.0292302,185
0.37231,-0.279673,-0.0283237,180
0.371975,-0.279357,-0.0274442,181
0.372805,-0.280149,-0.0266575,182
0.372595,-0.279952,-0.0257882,187
0.37276,-0.280112,-0.0249475,188
0.372468,-0.279837,-0.0240738,188
0.372968,-0.280316,-0.0232556,188
0.372969,-0.280319,-0.0224022,188
0.37297,-0.280322,-0.021549,187
0.37318,-0.280525,-0.0207085,192
0.373224,-0.280569,-0.0198574,192
0.373268,-0.280614,-0.0190062,188
0.372895,-0.280262,-0.018133,190
0.373945,-0.281264,-0.0173328,187
0.372569,-0.279957,-0.0164124,188
0.372699,-0.280083,-0.0155666,188
0.372787,-0.28017,-0.0147185,193
0.37271,-0.280098,-0.0138634,193
0.371926,-0.279355,-0.0129825,190
0.371601,-0.279049,-0.0121216,194
0.371649,-0.279097,-0.0112743,192
0.371285,-0.278753,-0.0104147,196
0.37121,-0.278685,-0.0095648,199
0.371012,-0.278499,-0.00871231,205
0.370609,-0.278118,-0.00785639,194
0.370619,-0.27813,-0.00701049,195
0.370752,-0.27826,-0.00616664,201
0.370598,-0.278116,-0.00531806,201
0.370281,-0.277816,-0.00446839,202
0.37021,-0.277752,-0.00362259,201
0.370017,-0.27757,-0.00277635,202
0.369988,-0.277546,-0.00193175,202
0.369879,-0.277444,-0.00108718,202
0.369646,-0.277226,-0.000243305,207
0.369865,-0.277436,0.00060109,202
0.368452,-0.276094,0.00143633,204
0.368264,-0.275918,0.00227522,210
0.368361,-0.276012,0.00311644,215
0.368133,-0.275799,0.00395365,208
0.36819,-0.275855,0.00479444,206
0.367802,-0.275488,0.00562707,205
0.367617,-0.275315,0.00646217,201
0.367554,-0.275258,0.00729932,204
0.367451,-0.275162,0.00813513,203
0.367026,-0.274761,0.00896105,197
0.366965,-0.274705,0.00979645,199
0.367185,-0.274917,0.0106413,203
0.367206,-0.274939,0.01148,200
0.366823,-0.274578,0.0123029,195
0.366925,-0.274677,0.0131443,197
0.366785,-0.274547,0.0139756,194
0.366848,-0.274609,0.0148158,194
0.367031,-0.274786,0.0156624,190
0.366812,-0.274581,0.0164891,191
0.366957,-0.27472,0.0173346,185
0.36694,-0.274707,0.0181718,188
0.367045,-0.27481,0.0190163,187
0.36703,-0.274798,0.0198539,185
0.367136,-0.274901,0.0206995,185
0.367202,-0.274967,0.0215431,190
0.36747,-0.275225,0.0224013,193
0.367538,-0.275292,0.0232465,196
0.367606,-0.275359,0.0240921,192
0.367714,-0.275465,0.0249415,188
0.368636,-0.276345,0.025857,195
0.368746,-0.276453,0.02671,193
0.368735,-0.276445,0.0275534,193
0.368277,-0.276012,0.0283574,193
0.368837,-0.276547,0.0292516,196
0.369235,-0.276929,0.0301339,201
0.369471,-0.277156,0.0310028,202
0.36979,-0.277463,0.0318813,206
0.369741,-0.277419,0.0327245,203
0.369775,-0.277453,0.0335761,203
0.369849,-0.277527,0.0344325,202
0.37013,-0.277797,0.035312,200
0.370824,-0.27846,0.0362391,202
0.371356,-0.278969,0.0371515,208
0.371849,-0.279441,0.0380623,207
0.372219,-0.279796,0.0389612,210
0.372298,-0.279874,0.039827,212
0.372253,-0.279833,0.0406779,211
0.372375,-0.279952,0.0415501,213
0.372414,-0.279992,0.0424124,214
0.372453,-0.280033,0.0432753,210
0.372661,-0.280233,0.0441611,208
0.372785,-0.280354,0.045037,204
0.374002,-0.281515,0.0460663,206
0.373665,-0.281197,0.0468812,204
0.374551,-0.282043,0.0478718,206
0.374679,-0.282168,0.0487554,206
0.37485,-0.282334,0.0496465,208
0.375107,-0.282581,0.0505518,207
0.375152,-0.282626,0.051426,201
0.375155,-0.282632,0.0522941,199
0.375499,-0.282962,0.0532171,199
0.375716,-0.283172,0.0541216,200
0.376704,-0.284115,0.055155,201
0.376924,-0.284327,0.0560649,200
0.376759,-0.284173,0.0569104,200
0.377109,-0.284509,0.0578447,205
0.377633,-0.28501,0.0588118,202
0.378462,-0.285802,0.0598364,204
0.379122,-0.286434,0.0608351,201
0.379567,-0.28686,0.061798,200
0.379445,-0.286747,0.0626582,203
0.379892,-0.287176,0.0636254,199
0.379816,-0.287105,0.064495,193
0.380133,-0.287411,0.0654412,198
0.380277,-0.28755,0.0663551,201
0.380553,-0.287815,0.0672965,201
0.380741,-0.287998,0.0682222,204
0.380931,-0.288181,0.0691495,204
0.381077,-0.288323,0.0700692,205
0.381357,-0.288592,0.071018,200
0.38124,-0.288484,0.0718844,204
0.381388,-0.288628,0.0728077,202
0.381227,-0.288478,0.0736651,201
0.381244,-0.288496,0.074561,199
0.381571,-0.28881,0.0755266,203
0.382121,-0.289337,0.0765445,206
0.382584,-0.289781,0.0775461,203
0.382337,-0.289548,0.0783865,205
0.382846,-0.290036,0.0794028,208
0.382287,-0.289507,0.0801702,205
0.382531,-0.289741,0.0811263,204
0.382597,-0.289807,0.0820415,203
0.383199,-0.290383,0.0830882,203
0.383177,-0.290365,0.0839848,198
0.383066,-0.290262,0.0848595,196
0.382732,-0.289947,0.0856781,193
0.382979,-0.290185,0.0866432,196
0.383317,-0.29051,0.0876333,199
0.383521,-0.290707,0.0885912,199
0.383637,-0.29082,0.0895272,201
0.383618,-0.290805,0.0904289,199
0.384005,-0.291176,0.0914394,199
0.384032,-0.291205,0.0923554,195
0.384196,-0.291363,0.0933091,191
0.385174,-0.292298,0.0944886,193
0.385658,-0.292762,0.0955364,196
0.386692,-0.29375,0.0967417,198
0.386769,-0.293826,0.0976818,201
0.386708,-0.293771,0.0985838,198
0.386603,-0.293674,0.0994729,193
0.386956,-0.294013,0.100496,191
0.38699,-0.294048,0.101427,192
0.387575,-0.294609,0.102522,190
0.387748,-0.294776,0.103498,189
0.387967,-0.294988,0.10449,187
0.388234,-0.295245,0.105497,185
0.389199,-0.296167,0.106721,182
0.389655,-0.296605,0.107793,179
0.389974,-0.296911,0.108825,177
0.390809,-0.29771,0.110023,179
0.39132,-0.298199,0.111122,179
0.391879,-0.298735,0.11224,178
0.392584,-0.29941,0.113409,181
0.392673,-0.299498,0.114381,182
0.393049,-0.299858,0.115449,180
0.393187,-0.299993,0.116441,181
0.393327,-0.300129,0.117434,177
0.393132,-0.299946,0.118317,179
0.393655,-0.300447,0.119442,181
0.394036,-0.300813,0.120523,184
0.39413,-0.300906,0.121507,185
0.393936,-0.300724,0.122393,182
0.394031,-0.300818,0.123379,178
0.393935,-0.300729,0.124299,183
0.394271,-0.301053,0.125373,182
0.394416,-0.301194,0.12638,180
0.394418,-0.301198,0.127338,178
0.394467,-0.301248,0.128314,180
0.394807,-0.301575,0.129397,180
0.394665,-0.301443,0.130304,182
0.394476,-0.301265,0.131194,180
0.394624,-0.301409,0.13221,182
0.394918,-0.301693,0.133283,180
0.394971,-0.301746,0.134266,178
0.394928,-0.301708,0.135214,177
0.395225,-0.301994,0.136293,176
0.395717,-0.302466,0.13745,179
0.395578,-0.302336,0.138364,177
0.396463,-0.303183,0.139681,172
0.39608,-0.302821,0.140501,172
0.396969,-0.303671,0.141827,173
0.397028,-0.30373,0.142825,172
0.397136,-0.303836,0.143844,169
0.397244,-0.303942,0.144865,170
0.39696,-0.303675,0.145727,166
0.397365,-0.304063,0.146871,169
0.397524,-0.304218,0.147917,173
0.397981,-0.304656,0.149088,173
0.397747,-0.304437,0.149973,174
0.398403,-0.305065,0.151233,163
0.398467,-0.305129,0.152246,165
0.398779,-0.30543,0.153367,166
0.398645,-0.305305,0.154297,165
0.398959,-0.305607,0.155422,157
0.398876,-0.305531,0.156376,156
0.39959,-0.306215,0.157681,153
0.400459,-0.307047,0.159059,161
0.400176,-0.30678,0.15993,165
0.400546,-0.307136,0.161093,160
0.400767,-0.307349,0.162191,158
0.401442,-0.307996,0.163497,161
0.40126,-0.307826,0.164417,164
0.401231,-0.3078,0.165407,158
0.401707,-0.308258,0.166631,157
0.401983,-0.308524,0.167765,160
0.40231,-0.308839,0.168926,157
0.402282,-0.308815,0.169923,157
0.402561,-0.309084,0.171064,155
0.402483,-0.309013,0.172039,152
0.40266,-0.309185,0.173137,149
0.402941,-0.309456,0.174286,150
0.402966,-0.309483,0.175314,153
0.4033,-0.309804,0.176493,148
0.40384,-0.310322,0.177776,147
0.40361,-0.310106,0.178684,141
0.403587,-0.310087,0.179693,133
0.404388,-0.310854,0.181114,134
0.404934,-0.311378,0.182413,128
0.40569,-0.312102,0.183821,122
0.405773,-0.312184,0.184894,122
0.405752,-0.312167,0.185915,117
0.405888,-0.3123,0.187017,119
0.406704,-0.313081,0.188471,121
0.406579,-0.312966,0.189444,122
0.406665,-0.313051,0.190526,115
0.407014,-0.313386,0.191747,120
0.407363,-0.313723,0.192972,125
0.407451,-0.31381,0.194061,123
0.40775,-0.314098,0.195265,122
0.408104,-0.314438,0.196499,125
0.407876,-0.314224,0.197425,128
0.408125,-0.314465,0.198607,134
0.408109,-0.314453,0.199649,121
0.408412,-0.314746,0.200865,116
0.408717,-0.315039,0.202085,117
0.408543,-0.314877,0.203043,116
0.408796,-0.315121,0.204238,119
0.409156,-0.315468,0.205496,116
0.409517,-0.315816,0.206757,114
0.409505,-0.315807,0.207811,118
0.409547,-0.315851,0.208896,115
0.410448,-0.316713,0.210472,116
0.411517,-0.317736,0.212149,116
0.410052,-0.316342,0.212378,114
0.410096,-0.316387,0.213471,107
0.410248,-0.316536,0.214628,114
0.410509,-0.316787,0.21585,112
0.410716,-0.316989,0.217043,115
0.410601,-0.316882,0.218049,115
0.41108,-0.317342,0.219406,120
0.411344,-0.317597,0.22064,117
0.411881,-0.318113,0.22204,114
0.412366,-0.318579,0.223412,109
0.411925,-0.318161,0.224229,106
0.412466,-0.318681,0.225641,109
0.412681,-0.318889,0.226858,113
0.412896,-0.319098,0.228077,114
0.413717,-0.319884,0.229672,121
0.412453,-0.318681,0.229984,116
0.413163,-0.319363,0.231515,108
0.412887,-0.319103,0.232437,104
0.412886,-0.319105,0.23353,99
0.346528,-0.259244,-0.204672,7
0.346571,-0.259289,-0.203792,8
0.347812,-0.260489,-0.203696,5
0.348798,-0.261443,-0.203428,10
0.347937,-0.260615,-0.201956,11
0.347943,-0.260624,-0.20105,7
0.347276,-0.259983,-0.199712,8
0.347995,-0.260679,-0.199266,10
0.347066,-0.259786,-0.197767,8
0.347672,-0.260373,-0.197248,10
0.348016,-0.260709,-0.196561,8
0.347425,-0.260141,-0.195285,9
0.347508,-0.260224,-0.194435,5
0.349433,-0.262084,-0.194734,9
0.349858,-0.262497,-0.194091,8
0.350398,-0.26302,-0.193518,8
0.349081,-0.261753,-0.191802,10
0.349354,-0.262019,-0.191066,8
0.349778,-0.262431,-0.190422,11
0.351041,-0.263652,-0.190285,14
0.349797,-0.262455,-0.188629,14
0.350033,-0.262686,-0.18787,14
0.350346,-0.26299,-0.187156,11
0.350015,-0.262674,-0.186059,12
0.350101,-0.262759,-0.18521,14
0.35087,-0.263504,-0.184765,13
0.351337,-0.263958,-0.184139,14
0.350398,-0.263054,-0.182691,17
0.350598,-0.26325,-0.18191,14
0.350382,-0.263045,-0.180889,14
0.350848,-0.263497,-0.180262,12
0.351316,-0.263951,-0.179633,16
0.351823,-0.264443,-0.179026,21
0.353214,-0.265789,-0.178917,22
0.352918,-0.265506,-0.17785,19
0.352011,-0.264634,-0.176444,23
0.352712,-0.265313,-0.17594,23
0.352763,-0.265365,-0.175072,23
0.353313,-0.265899,-0.17448,19
0.353942,-0.266509,-0.17393,22
0.354264,-0.266822,-0.173209,18
0.353238,-0.265834,-0.171753,20
0.353674,-0.266258,-0.171096,21
0.35415,-0.266721,-0.170458,19
0.353856,-0.266439,-0.169406,24
0.354371,-0.26694,-0.168787,24
0.355082,-0.267629,-0.16827,26
0.354594,-0.26716,-0.167118,28
0.355189,-0.267737,-0.166538,25
0.356099,-0.268618,-0.166118,29
0.355491,-0.268034,-0.164908,27
0.355507,-0.268052,-0.164023,28
0.355717,-0.268258,-0.163238,31
0.356356,-0.268877,-0.162672,27
0.356294,-0.26882,-0.161748,25
0.356622,-0.26914,-0.161022,35
0.356913,-0.269423,-0.160275,32
0.357282,-0.269782,-0.159567,39
0.357652,-0.270142,-0.158858,39
0.357159,-0.26967,-0.157722,43
0.357687,-0.270181,-0.15709,40
0.357704,-0.270201,-0.156207,33
0.357958,-0.270449,-0.15544,40
0.358725,-0.271192,-0.154919,39
0.359535,-0.271977,-0.154415,40
0.359514,-0.271959,-0.153511,43
0.359295,-0.271751,-0.152515,44
0.35975,-0.272193,-0.151838,42
0.359849,-0.272291,-0.150992,39
0.360306,-0.272735,-0.150313,40
0.360406,-0.272834,-0.149467,38
0.360785,-0.273203,-0.14875,42
0.361085,-0.273495,-0.147995,42
0.361827,-0.274214,-0.14744,44
0.361848,-0.274237,-0.146556,45
0.361749,-0.274144,-0.145619,49
0.362453,-0.274828,-0.145042,48
0.362234,-0.274618,-0.144051,51
0.362941,-0.275304,-0.143471,52
0.362761,-0.275133,-0.1425,50
0.363593,-0.275939,-0.14197,47
0.36309,-0.275456,-0.140859,51
0.36372,-0.276067,-0.140238,54
0.363622,-0.275975,-0.139304,58
0.364173,-0.27651,-0.138647,57
0.364197,-0.276536,-0.137765,56
0.364628,-0.276955,-0.137054,60
0.364857,-0.277179,-0.136257,62
0.365208,-0.277521,-0.13551,67
0.364989,-0.277312,-0.134528,64
0.365178,-0.277497,-0.133714,66
0.366022,-0.278315,-0.133165,64
0.365844,-0.278146,-0.132201,65
0.366404,-0.278689,-0.131533,64
0.366883,-0.279155,-0.130831,69
0.366499,-0.278787,-0.129787,65
0.367021,-0.279294,-0.1291,68
0.367586,-0.279842,-0.128428,70
0.368028,-0.280272,-0.127706,73
0.368306,-0.280543,-0.126919,72
0.368252,-0.280494,-0.126005,72
0.368655,-0.280886,-0.125265,70
0.369018,-0.281239,-0.124508,65
0.368549,-0.280789,-0.123439,66
0.368788,-0.281022,-0.122636,69
0.368486,-0.280734,-0.121633,68
0.368435,-0.280687,-0.120724,70
0.368425,-0.28068,-0.119831,67
0.368333,-0.280594,-0.118909,74
0.368946,-0.281189,-0.11824,80
0.36815,-0.280423,-0.117069,83
0.368059,-0.280338,-0.116151,80
0.368175,-0.280453,-0.115306,87
0.368292,-0.280568,-0.114461,92
0.367378,-0.279688,-0.113262,92
0.367371,-0.279685,-0.112378,97
0.367201,-0.279523,-0.111439,95
0.367113,-0.279441,-0.110529,92
0.367108,-0.279439,-0.109648,103
0.366981,-0.279319,-0.108727,97
0.366322,-0.278685,-0.107633,94
0.365748,-0.278134,-0.106571,100
0.365989,-0.278369,-0.105775,108
0.365539,-0.277937,-0.104758,102
0.365091,-0.277507,-0.103744,107
0.365049,-0.277469,-0.102861,110
0.364683,-0.277119,-0.101877,109
0.364521,-0.276965,-0.100959,106
0.364521,-0.276968,-0.100092,100
0.364118,-0.276581,-0.0991032,104
0.363918,-0.276391,-0.0981779,111
0.363959,-0.276433,-0.0973262,112
0.36404,-0.276514,-0.0964866,117
0.364002,-0.27648,-0.0956121,114
0.363884,-0.276368,-0.0947151,115
0.363766,-0.276257,-0.0938194,122
0.363889,-0.276379,-0.0929933,126
0.364213,-0.276695,-0.0922238,124
0.364097,-0.276585,-0.0913299,124
0.364664,-0.277135,-0.0906262,131
0.364467,-0.276948,-0.0897108,127
0.364191,-0.276684,-0.0887753,126
0.364678,-0.277158,-0.0880469,123
0.364403,-0.276894,-0.0871134,123
0.364529,-0.277019,-0.0862878,126
0.364576,-0.277067,-0.0854411,130
0.364905,-0.277387,-0.0846675,138
0.365033,-0.277514,-0.0838413,139
0.365041,-0.277524,-0.0829845,140
0.365291,-0.277768,-0.0821886,142
0.365219,-0.277701,-0.0813121,148
0.365268,-0.277752,-0.0804662,147
0.365439,-0.27792,-0.0796499,150
0.36549,-0.277971,-0.0788042,151
0.365581,-0.278062,-0.0779684,149
0.366117,-0.278583,-0.0772369,145
0.366331,-0.278792,-0.0764282,147
0.366383,-0.278845,-0.0755818,150
0.366924,-0.27937,-0.0748461,155
0.366855,-0.279306,-0.0739714,155
0.366746,-0.279203,-0.0730886,151
0.36684,-0.279297,-0.0722514,148
0.36718,-0.279628,-0.071467,152
0.367235,-0.279684,-0.0706204,151
0.367086,-0.279543,-0.069731,150
0.367264,-0.279718,-0.0689108,155
0.367565,-0.280011,-0.0681153,158
0.367011,-0.279478,-0.0671448,159
0.367231,-0.279694,-0.0663329,164
0.367492,-0.279949,-0.0655284,166
0.367714,-0.280166,-0.0647151,164
0.367977,-0.280422,-0.063909,160
0.367791,-0.280245,-0.0630164,163
0.368096,-0.280543,-0.0622173,162
0.368197,-0.280643,-0.0613791,166
0.368176,-0.280625,-0.0605185,165
0.368401,-0.280845,-0.0597026,169
0.368503,-0.280947,-0.0588641,169
0.368647,-0.281089,-0.0580327,172
0.36871,-0.281152,-0.0571868,170
0.368691,-0.281136,-0.0563271,168
0.369042,-0.281478,-0.0555295,169
0.369972,-0.28238,-0.0548254,172
0.369954,-0.282365,-0.0539636,173
0.369978,-0.282391,-0.0531089,172
0.370127,-0.282537,-0.0522737,173
0.370152,-0.282564,-0.0514191,171
0.370053,-0.282472,-0.050546,165
0.369955,-0.28238,-0.0496737,167
0.370106,-0.282528,-0.0488385,173
0.37005,-0.282476,-0.0479732,173
0.370243,-0.282665,-0.0471434,173
0.370436,-0.282855,-0.046313,178
0.370506,-0.282925,-0.045465,175
0.370411,-0.282836,-0.044595,172
0.370316,-0.282747,-0.0437258,171
0.37018,-0.282618,-0.0428521,176
0.370376,-0.28281,-0.0420208,173
0.370324,-0.282763,-0.0411583,178
0.370273,-0.282716,-0.0402964,180
0.370802,-0.28323,-0.0395031,181
0.370751,-0.283184,-0.0386407,186
0.371033,-0.283459,-0.0378161,181
0.370651,-0.283093,-0.0369175,179
0.371266,-0.28369,-0.0361278,179
0.371343,-0.283766,-0.0352788,179
0.371669,-0.284084,-0.0344551,187
0.371955,-0.284363,-0.0336259,186
0.371782,-0.284199,-0.0327509,188
0.371861,-0.284277,-0.0319007,187
0.371731,-0.284155,-0.0310312,185
0.37156,-0.283992,-0.0301588,183
0.371806,-0.284233,-0.0293236,188
0.37197,-0.284394,-0.0284803,187
0.3718,-0.284233,-0.0276092,190
0.371715,-0.284153,-0.0267458,188
0.371671,-0.284114,-0.0258861,188
0.371795,-0.284236,-0.0250391,189
0.371753,-0.284198,-0.0241798,189
0.371503,-0.283959,-0.0233067,191
0.371462,-0.283922,-0.0224486,190
0.371754,-0.284207,-0.021612,193
0.371714,-0.284171,-0.0207538,198
0.371674,-0.284135,-0.019896,198
0.372094,-0.284543,-0.0190639,201
0.373018,-0.285439,-0.0182565,195
0.373022,-0.285445,-0.0173981,199
0.373404,-0.285818,-0.0165578,199
0.373072,-0.2855,-0.0156833,201
0.372532,-0.28498,-0.0148018,200
0.373251,-0.285678,-0.0139735,197
0.371541,-0.284028,-0.0130507,195
0.371215,-0.283716,-0.0121849,196
0.371347,-0.283846,-0.0113357,196
0.371271,-0.283775,-0.0104797,200
0.37074,-0.283264,-0.00961173,195
0.370914,-0.283435,-0.00876387,196
0.370882,-0.283407,-0.00791061,202
0.370519,-0.283058,-0.00705114,198
0.370446,-0.282991,-0.00619844,197
0.370126,-0.282684,-0.00534261,200
0.369479,-0.282061,-0.00448463,202
0.369613,-0.282194,-0.0036371,204
0.369174,-0.281771,-0.00278514,207
0.368899,-0.281509,-0.00193609,207
0.368748,-0.281365,-0.00108863,206
0.368476,-0.281104,-0.000242074,205
0.368571,-0.2812,0.000604483,207
0.368463,-0.281098,0.00145026,210
0.368601,-0.281233,0.00229769,213
0.368208,-0.280856,0.00313976,210
0.368387,-0.281032,0.0039879,211
0.368322,-0.280972,0.00483292,212
0.367972,-0.280636,0.00567218,206
0.367704,-0.28038,0.00651148,206
0.367113,-0.279811,0.00734157,204
0.367091,-0.279792,0.008184,204
0.366503,-0.279226,0.00900968,201
0.365918,-0.278663,0.00983248,203
0.366542,-0.279269,0.0106943,202
0.366038,-0.278785,0.0115174,202
0.365737,-0.278496,0.012346,199
0.365637,-0.278402,0.0131817,197
0.365618,-0.278387,0.0140206,196
0.36552,-0.278294,0.0148558,195
0.365382,-0.278163,0.0156885,192
0.365726,-0.278499,0.0165461,192
0.366031,-0.278796,0.0174034,188
0.365693,-0.278472,0.0182251,190
0.365236,-0.278033,0.0190381,188
0.366144,-0.278914,0.0199349,188
0.366614,-0.27937,0.0208077,191
0.366519,-0.279281,0.0216445,190
0.366545,-0.279309,0.0224896,186
0.366693,-0.279455,0.023344,192
0.366761,-0.279524,0.0241931,192
0.366547,-0.279319,0.0250206,192
0.366777,-0.279544,0.0258832,194
0.366766,-0.279536,0.0267269,194
0.367038,-0.279802,0.0275953,194
0.36719,-0.279951,0.0284545,193
0.367302,-0.280062,0.029311,194
0.367699,-0.280449,0.030195,197
0.367771,-0.280521,0.03105,197
0.367966,-0.280713,0.0319177,198
0.36804,-0.280787,0.0327743,198
0.36885,-0.281573,0.0337083,197
0.368311,-0.281054,0.0345024,199
0.369124,-0.281843,0.0354421,199
0.36953,-0.282238,0.0363404,197
0.369606,-0.282315,0.0372034,199
0.369478,-0.282193,0.0380429,203
0.369844,-0.282551,0.0389414,205
0.370047,-0.282749,0.0398219,204
0.37025,-0.282949,0.0407038,206
0.370371,-0.283068,0.0415765,204
0.370576,-0.283269,0.042461,204
0.371031,-0.283712,0.0433801,208
0.371071,-0.283754,0.0442456,206
0.372282,-0.284927,0.0452732,206
0.372198,-0.284848,0.0461252,205
0.372366,-0.285013,0.0470132,207
0.37266,-0.285301,0.0479208,208
0.372746,-0.285387,0.0487991,204
0.372874,-0.285513,0.0496847,200
0.373129,-0.285762,0.0505907,198
0.373723,-0.28634,0.0515514,198
0.374065,-0.286674,0.0524755,203
0.374664,-0.287256,0.0534431,203
0.374074,-0.286688,0.0542189,202
0.3751,-0.287683,0.0552617,202
0.375363,-0.28794,0.0561806,204
0.375711,-0.28828,0.0571161,203
0.375632,-0.288206,0.0579791,203
0.376026,-0.288589,0.0589258,201
0.37612,-0.288683,0.059821,202
0.377293,-0.289821,0.060914,206
0.377779,-0.290294,0.0618863,203
0.377832,-0.290348,0.0627803,203
0.377929,-0.290445,0.0636832,199
0.378027,-0.290542,0.0645872,198
0.378038,-0.290556,0.0654752,195
0.378355,-0.290865,0.0664242,196
0.378761,-0.29126,0.067393,198
0.378992,-0.291487,0.068329,199
0.379006,-0.291503,0.0692216,199
0.379239,-0.291731,0.0701606,195
0.379254,-0.291748,0.071055,192
0.380237,-0.292703,0.0721572,193
0.379548,-0.292039,0.0729028,196
0.380049,-0.292526,0.073906,195
0.380464,-0.29293,0.0748931,204
0.381057,-0.293507,0.075923,207
0.38112,-0.29357,0.0768359,206
0.381094,-0.293548,0.0777293,206
0.381025,-0.293484,0.0786128,205
0.381311,-0.293764,0.0795801,206
0.381331,-0.293787,0.0804861,210
0.381397,-0.293853,0.0814035,209
0.381329,-0.29379,0.0822894,208
0.38144,-0.2939,0.0832193,209
0.381418,-0.293882,0.0841172,210
0.38153,-0.293993,0.0850492,206
0.381554,-0.294019,0.0859598,206
0.381311,-0.293786,0.0868026,200
0.381469,-0.293942,0.0877486,197
0.381405,-0.293883,0.0886377,196
0.38143,-0.293911,0.0895508,192
0.381635,-0.294111,0.0905122,190
0.381885,-0.294356,0.0914875,191
0.383621,-0.296039,0.092869,192
0.382748,-0.295197,0.0935433,187
0.382866,-0.295314,0.0944886,185
0.382715,-0.295171,0.0953597,190
0.383512,-0.295945,0.0964982,186
0.383316,-0.295758,0.0973585,186
0.384253,-0.296668,0.0985445,191
0.384376,-0.296789,0.0994993,193
0.384635,-0.297043,0.100496,189
0.384759,-0.297166,0.101454,190
0.385158,-0.297555,0.102495,189
0.386201,-0.298567,0.103733,190
0.387112,-0.299452,0.104938,187
0.387194,-0.299534,0.105893,184
0.387601,-0.299931,0.10695,188
0.387592,-0.299925,0.10788,184
0.387816,-0.300144,0.108884,183
0.388273,-0.30059,0.109963,180
0.388825,-0.301127,0.111077,178
0.389756,-0.302031,0.112316,177
0.389844,-0.302119,0.113286,181
0.390309,-0.302572,0.114381,181
0.390398,-0.302662,0.115355,184
0.390394,-0.30266,0.116299,184
0.390579,-0.302842,0.117307,183
0.390812,-0.30307,0.118333,186
0.391235,-0.303484,0.119426,185
0.391328,-0.303576,0.120408,182
0.391468,-0.303715,0.121408,180
0.3918,-0.30404,0.122476,178
0.392086,-0.304319,0.12353,179
0.392086,-0.304322,0.124485,177
0.392229,-0.304464,0.125492,176
0.39223,-0.304467,0.126449,182
0.392279,-0.304518,0.127425,180
0.392377,-0.304615,0.128419,184
0.392523,-0.30476,0.129432,184
0.393825,-0.306024,0.130876,184
0.394458,-0.306639,0.132078,183
0.394317,-0.306506,0.132992,192
0.394565,-0.306748,0.134053,183
0.394327,-0.306521,0.134931,184
0.394381,-0.306577,0.135921,184
0.394436,-0.306633,0.136912,182
0.394443,-0.306643,0.137885,177
0.394791,-0.306982,0.138993,174
0.395042,-0.307229,0.140066,174
0.395148,-0.307334,0.141083,176
0.395255,-0.307441,0.142101,176
0.395655,-0.307832,0.14324,178
0.395616,-0.307797,0.144202,179
0.395725,-0.307905,0.145226,177
0.395687,-0.307871,0.14619,178
0.395747,-0.307933,0.147196,182
0.396251,-0.308423,0.148388,177
0.396411,-0.308582,0.14944,174
0.397066,-0.309219,0.150702,169
0.398122,-0.310244,0.15214,171
0.398037,-0.310165,0.153095,168
0.397506,-0.309654,0.153858,166
0.397919,-0.310057,0.155029,164
0.398184,-0.310316,0.156138,160
0.39855,-0.310674,0.157294,156
0.398367,-0.3105,0.15821,162
0.398485,-0.310617,0.159259,165
0.398503,-0.310638,0.160265,164
0.398822,-0.31095,0.161408,162
0.399142,-0.311263,0.162555,157
0.399513,-0.311626,0.163727,157
0.399383,-0.311502,0.164671,158
0.399706,-0.311818,0.165825,154
0.399778,-0.311891,0.166865,166
0.400001,-0.312111,0.167978,163
