ply
format ascii 1.0
comment Created by CloudCompare v2.11 alpha (Anoia)
comment Created 2025/12/9 17:47
obj_info Generated by CloudCompare!
element vertex 1419
property float x
property float y
property float z
property float scalar_Scalar_field
end_header
0.285132 -0.711671 -0.00226061 115 
0.285398 -0.71186 -0.00116162 120 
0.285665 -0.712049 -5.96188e-05 116 
0.285885 -0.712205 0.00101839 125 
0.285867 -0.712195 0.00196838 123 
0.266107 -0.701454 -0.408713 7 
0.267103 -0.70216 -0.408374 5 
0.271434 -0.705219 -0.409957 3 
0.267678 -0.70257 -0.40687 7 
0.268943 -0.703466 -0.406677 6 
0.266915 -0.702037 -0.404602 6 
0.267137 -0.702196 -0.403815 8 
0.268009 -0.702814 -0.403394 7 
0.266852 -0.702 -0.401829 10 
0.268501 -0.703166 -0.401841 10 
0.267428 -0.702411 -0.40033 6 
0.268343 -0.70306 -0.399927 10 
0.266629 -0.701852 -0.39807 8 
0.269403 -0.703813 -0.398687 7 
0.269542 -0.703914 -0.39785 5 
0.26756 -0.702517 -0.39586 8 
0.268476 -0.703166 -0.39545 10 
0.269831 -0.704126 -0.395273 11 
0.269623 -0.703982 -0.394252 12 
0.270418 -0.704546 -0.393767 11 
0.27021 -0.704401 -0.392747 7 
0.270002 -0.704257 -0.391729 13 
0.269578 -0.70396 -0.390598 9 
0.271291 -0.705172 -0.390591 8 
0.270253 -0.704442 -0.389141 10 
0.27057 -0.704668 -0.3884 11 
0.272424 -0.70598 -0.388452 13 
0.270987 -0.704967 -0.386805 13 
0.271612 -0.705411 -0.38622 16 
0.271011 -0.70499 -0.38501 16 
0.271724 -0.705496 -0.384468 15 
0.272484 -0.706035 -0.383947 13 
0.272233 -0.70586 -0.382916 15 
0.272598 -0.70612 -0.382195 15 
0.27226 -0.705884 -0.381123 17 
0.273286 -0.706611 -0.380728 12 
0.273963 -0.707092 -0.380157 14 
0.27451 -0.70748 -0.37952 17 
0.273859 -0.707023 -0.378298 19 
0.273299 -0.70663 -0.377125 17 
0.27442 -0.707424 -0.376764 19 
0.273947 -0.707093 -0.375636 18 
0.274983 -0.707827 -0.375229 17 
0.273934 -0.707089 -0.373829 23 
0.275325 -0.708074 -0.373587 22 
0.274985 -0.707836 -0.372526 22 
0.275536 -0.708227 -0.371883 23 
0.27524 -0.708021 -0.370845 24 
0.275168 -0.707973 -0.369913 23 
0.276032 -0.708585 -0.369412 18 
0.275871 -0.708474 -0.368439 26 
0.275043 -0.707892 -0.367165 31 
0.275817 -0.708441 -0.366619 30 
0.276326 -0.708803 -0.365951 32 
0.276836 -0.709166 -0.365283 30 
0.277213 -0.709435 -0.364553 33 
0.277322 -0.709514 -0.363703 34 
0.27797 -0.709974 -0.363091 34 
0.27763 -0.709736 -0.362044 27 
0.276798 -0.709151 -0.360787 34 
0.277939 -0.70996 -0.360386 30 
0.277869 -0.709913 -0.359461 32 
0.277576 -0.709708 -0.358441 33 
0.278271 -0.710202 -0.357843 40 
0.278337 -0.710251 -0.356977 42 
0.278764 -0.710555 -0.356262 41 
0.279283 -0.710924 -0.355585 42 
0.279395 -0.711006 -0.354737 45 
0.279916 -0.711376 -0.354058 44 
0.279939 -0.711395 -0.353173 49 
0.280325 -0.71167 -0.352437 49 
0.280757 -0.711978 -0.351718 47 
0.281191 -0.712287 -0.350998 48 
0.281261 -0.712339 -0.350131 46 
0.281559 -0.712552 -0.349356 48 
0.281446 -0.712475 -0.348417 50 
0.281699 -0.712656 -0.347624 48 
0.282045 -0.712903 -0.346866 49 
0.281842 -0.712761 -0.345893 45 
0.282646 -0.713332 -0.345312 54 
0.282902 -0.713516 -0.344517 50 
0.283297 -0.713797 -0.343774 48 
0.283369 -0.713851 -0.342908 54 
0.283489 -0.713938 -0.34206 53 
0.283378 -0.713862 -0.341126 53 
0.284098 -0.714373 -0.340502 54 
0.284403 -0.714591 -0.339722 54 
0.285081 -0.715072 -0.339078 57 
0.285249 -0.715194 -0.338245 56 
0.285557 -0.715414 -0.337463 57 
0.285447 -0.715339 -0.33653 56 
0.285989 -0.715724 -0.335832 60 
0.286486 -0.716078 -0.335115 61 
0.286517 -0.716102 -0.334232 68 
0.286315 -0.715962 -0.333268 64 
0.287329 -0.716681 -0.332728 63 
0.287548 -0.716838 -0.33191 61 
0.287534 -0.71683 -0.331012 60 
0.287989 -0.717155 -0.330274 59 
0.28821 -0.717314 -0.329455 58 
0.288291 -0.717373 -0.328589 57 
0.288702 -0.717666 -0.327833 62 
0.289067 -0.717926 -0.327061 63 
0.289102 -0.717953 -0.326179 68 
0.289421 -0.718181 -0.32539 75 
0.289456 -0.718209 -0.324508 77 
0.289776 -0.718438 -0.323719 73 
0.290192 -0.718734 -0.322959 78 
0.290467 -0.718931 -0.322153 79 
0.29079 -0.719161 -0.321361 84 
0.291352 -0.719561 -0.320644 89 
0.291869 -0.719929 -0.31991 92 
0.291572 -0.719722 -0.318924 86 
0.291994 -0.720022 -0.318159 81 
0.292177 -0.720154 -0.317321 82 
0.292265 -0.720219 -0.316454 79 
0.292114 -0.720115 -0.315516 73 
0.293308 -0.720961 -0.314977 73 
0.292916 -0.720687 -0.313967 69 
0.293054 -0.720787 -0.313115 79 
0.293916 -0.721398 -0.31247 81 
0.294298 -0.72167 -0.311685 83 
0.29468 -0.721943 -0.310899 85 
0.294579 -0.721874 -0.309976 90 
0.295157 -0.722285 -0.309243 85 
0.295201 -0.722319 -0.308361 90 
0.295539 -0.72256 -0.307559 94 
0.295487 -0.722526 -0.30665 92 
0.296167 -0.723009 -0.30594 91 
0.296556 -0.723286 -0.305149 97 
0.296505 -0.723253 -0.30424 99 
0.296994 -0.723601 -0.303473 100 
0.29714 -0.723707 -0.302616 105 
0.296944 -0.723571 -0.30167 111 
0.297288 -0.723816 -0.300864 109 
0.297141 -0.723715 -0.299932 106 
0.297437 -0.723927 -0.299113 108 
0.29793 -0.724278 -0.298342 116 
0.29808 -0.724386 -0.297484 119 
0.297936 -0.724286 -0.296555 117 
0.298234 -0.7245 -0.295733 116 
0.298484 -0.724679 -0.2949 114 
0.298243 -0.724511 -0.293948 117 
0.298642 -0.724796 -0.293149 115 
0.29845 -0.724663 -0.292212 120 
0.298851 -0.724948 -0.291412 120 
0.299203 -0.7252 -0.290599 121 
0.299062 -0.725102 -0.289674 127 
0.299168 -0.72518 -0.288806 129 
0.299176 -0.725188 -0.287915 130 
0.298691 -0.724848 -0.286918 124 
0.298504 -0.724718 -0.285987 129 
0.298612 -0.724797 -0.285121 131 
0.29818 -0.724493 -0.284141 133 
0.298092 -0.724434 -0.283235 130 
0.297908 -0.724306 -0.28231 124 
0.297871 -0.724282 -0.281417 129 
0.297785 -0.724224 -0.280514 132 
0.29726 -0.723856 -0.279524 134 
0.296591 -0.723385 -0.278509 133 
0.296314 -0.723191 -0.277573 132 
0.296037 -0.722998 -0.276639 136 
0.295762 -0.722806 -0.275708 141 
0.295633 -0.722717 -0.274805 141 
0.295359 -0.722526 -0.273877 146 
0.294894 -0.7222 -0.272915 146 
0.29419 -0.721704 -0.271912 153 
0.29349 -0.721211 -0.270914 154 
0.293031 -0.720889 -0.269961 155 
0.292574 -0.720569 -0.269012 151 
0.292451 -0.720484 -0.268123 151 
0.291997 -0.720165 -0.267178 153 
0.291308 -0.719681 -0.266196 155 
0.29067 -0.719231 -0.265226 158 
0.289753 -0.718585 -0.264214 160 
0.289869 -0.71867 -0.263373 162 
0.288864 -0.717962 -0.262354 165 
0.288237 -0.71752 -0.261399 162 
0.28789 -0.717278 -0.26049 164 
0.287868 -0.717265 -0.259632 169 
0.286187 -0.716078 -0.258527 172 
0.285892 -0.715872 -0.257633 173 
0.285506 -0.715601 -0.256729 173 
0.284757 -0.715074 -0.255774 177 
0.284557 -0.714935 -0.2549 173 
0.283949 -0.714507 -0.253971 179 
0.282983 -0.713826 -0.252997 181 
0.282651 -0.713594 -0.252112 184 
0.282636 -0.713585 -0.25127 184 
0.282126 -0.713227 -0.250365 179 
0.281888 -0.713061 -0.249496 181 
0.281874 -0.713053 -0.248657 181 
0.281681 -0.712919 -0.247797 182 
0.281221 -0.712596 -0.246905 183 
0.280141 -0.711835 -0.245944 181 
0.279864 -0.711641 -0.245079 176 
0.279764 -0.711572 -0.244236 176 
0.279577 -0.711442 -0.243384 178 
0.279788 -0.711594 -0.242577 177 
0.278939 -0.710996 -0.241656 178 
0.27893 -0.710992 -0.240827 174 
0.278834 -0.710926 -0.239988 175 
0.279399 -0.711328 -0.239216 173 
0.279171 -0.711169 -0.238365 176 
0.279252 -0.711229 -0.237544 171 
0.278322 -0.710573 -0.23663 164 
0.278009 -0.710354 -0.235776 160 
0.277741 -0.710167 -0.234927 163 
0.278262 -0.710538 -0.234147 168 
0.278258 -0.710537 -0.233321 172 
0.278123 -0.710443 -0.232485 175 
0.278076 -0.710412 -0.231657 176 
0.277854 -0.710258 -0.230815 176 
0.277589 -0.710073 -0.229972 175 
0.277806 -0.710229 -0.229164 180 
0.278287 -0.710571 -0.228374 178 
0.277936 -0.710325 -0.227526 176 
0.278023 -0.710389 -0.226708 178 
0.277892 -0.710298 -0.225876 177 
0.277849 -0.71027 -0.22505 178 
0.277938 -0.710335 -0.224232 181 
0.278729 -0.710897 -0.223453 184 
0.278073 -0.710436 -0.222593 185 
0.278076 -0.71044 -0.22177 184 
0.277948 -0.710352 -0.220941 184 
0.27804 -0.710419 -0.220122 186 
0.277869 -0.710301 -0.219292 185 
0.278005 -0.710399 -0.218475 182 
0.278011 -0.710405 -0.217653 183 
0.278192 -0.710536 -0.216837 183 
0.278067 -0.710449 -0.21601 183 
0.278205 -0.71055 -0.215192 185 
0.279135 -0.71121 -0.214397 188 
0.278703 -0.710907 -0.21356 186 
0.279107 -0.711195 -0.212747 187 
0.279293 -0.711328 -0.211927 189 
0.279126 -0.711213 -0.211098 195 
0.278697 -0.710911 -0.210265 190 
0.279103 -0.711201 -0.209448 192 
0.279202 -0.711273 -0.208625 197 
0.279655 -0.711596 -0.207806 197 
0.279579 -0.711544 -0.206979 198 
0.27968 -0.711618 -0.206155 199 
0.279649 -0.711598 -0.205329 197 
0.279574 -0.711548 -0.204503 200 
0.279544 -0.711529 -0.203677 201 
0.27978 -0.711698 -0.202851 202 
0.279795 -0.711711 -0.202025 203 
0.279723 -0.711662 -0.201199 200 
0.279739 -0.711676 -0.200373 198 
0.279845 -0.711753 -0.199546 195 
0.279906 -0.711799 -0.198719 195 
0.279969 -0.711845 -0.197892 195 
0.28043 -0.712174 -0.197057 195 
0.281383 -0.712851 -0.196211 193 
0.28118 -0.712709 -0.195385 190 
0.280978 -0.712569 -0.194561 192 
0.280954 -0.712554 -0.193732 194 
0.281465 -0.712918 -0.192888 195 
0.281487 -0.712936 -0.192057 198 
0.281554 -0.712986 -0.191225 198 
0.281488 -0.712941 -0.190396 199 
0.281646 -0.713055 -0.18956 198 
0.281625 -0.713043 -0.188729 201 
0.281739 -0.713126 -0.187893 202 
0.281854 -0.713209 -0.187057 202 
0.281924 -0.713261 -0.186221 200 
0.282129 -0.713409 -0.185379 201 
0.282246 -0.713494 -0.18454 203 
0.282363 -0.713579 -0.183701 202 
0.282436 -0.713633 -0.182863 203 
0.282464 -0.713655 -0.182028 199 
0.283574 -0.714443 -0.181127 198 
0.283694 -0.71453 -0.180283 202 
0.283589 -0.714458 -0.179453 203 
0.283259 -0.714227 -0.178638 204 
0.283335 -0.714283 -0.177796 205 
0.284317 -0.71498 -0.176889 207 
0.284713 -0.715263 -0.176021 211 
0.284655 -0.715224 -0.175185 208 
0.284825 -0.715347 -0.174332 207 
0.284996 -0.715471 -0.173477 204 
0.285123 -0.715562 -0.172625 206 
0.285295 -0.715687 -0.171769 201 
0.285834 -0.71607 -0.170879 199 
0.285779 -0.716034 -0.17004 200 
0.285954 -0.71616 -0.16918 203 
0.285443 -0.715801 -0.168384 201 
0.285527 -0.715863 -0.167532 206 
0.286712 -0.716704 -0.166571 205 
0.287121 -0.716995 -0.165683 207 
0.287115 -0.716994 -0.164835 206 
0.287341 -0.717156 -0.163963 205 
0.287152 -0.717025 -0.163134 204 
0.287287 -0.717122 -0.162271 207 
0.287468 -0.717253 -0.161401 207 
0.287696 -0.717417 -0.160524 204 
0.287833 -0.717516 -0.159658 204 
0.288017 -0.717649 -0.158784 206 
0.288109 -0.717716 -0.157921 206 
0.288294 -0.717849 -0.157045 209 
0.289038 -0.718379 -0.156098 209 
0.289272 -0.718547 -0.155213 206 
0.288994 -0.718352 -0.154393 203 
0.290118 -0.71915 -0.153388 205 
0.290167 -0.719188 -0.152522 205 
0.290358 -0.719325 -0.151637 204 
0.290409 -0.719363 -0.15077 204 
0.290695 -0.719568 -0.149869 209 
0.29103 -0.719808 -0.14896 210 
0.291366 -0.720048 -0.148048 202 
0.29194 -0.720457 -0.147099 201 
0.292849 -0.721103 -0.146096 201 
0.292857 -0.721111 -0.145228 199 
0.293103 -0.721288 -0.144321 199 
0.293303 -0.721432 -0.143421 197 
0.293647 -0.721677 -0.142496 201 
0.293848 -0.721823 -0.141593 201 
0.294146 -0.722036 -0.140672 198 
0.295217 -0.722796 -0.13962 198 
0.295664 -0.723115 -0.138669 201 
0.295289 -0.722853 -0.137857 196 
0.295302 -0.722864 -0.136978 195 
0.295219 -0.722808 -0.136116 194 
0.29562 -0.723094 -0.135167 194 
0.295586 -0.723073 -0.134295 199 
0.296232 -0.723533 -0.133298 194 
0.296151 -0.723477 -0.132433 193 
0.296508 -0.723733 -0.131485 194 
0.296964 -0.724058 -0.130516 195 
0.29752 -0.724454 -0.129525 194 
0.297783 -0.724643 -0.128589 192 
0.298244 -0.724972 -0.127611 192 
0.299053 -0.725547 -0.126562 191 
0.298777 -0.725354 -0.125728 189 
0.299144 -0.725617 -0.124763 192 
0.299265 -0.725705 -0.123847 192 
0.299238 -0.725688 -0.122961 191 
0.299409 -0.725812 -0.122032 186 
0.299136 -0.725621 -0.121198 184 
0.299507 -0.725886 -0.120225 186 
0.29978 -0.726081 -0.119271 189 
0.299954 -0.726208 -0.118337 187 
0.300378 -0.72651 -0.117346 183 
0.300156 -0.726356 -0.116499 185 
0.300432 -0.726554 -0.115538 179 
0.299863 -0.726153 -0.11477 181 
0.30004 -0.726281 -0.113831 183 
0.300767 -0.726798 -0.112761 181 
0.300747 -0.726787 -0.111865 179 
0.300827 -0.726846 -0.110944 179 
0.301109 -0.727048 -0.109974 178 
0.299842 -0.726153 -0.10938 178 
0.300023 -0.726284 -0.108434 174 
0.300155 -0.72638 -0.107499 175 
0.300188 -0.726405 -0.106588 174 
0.300022 -0.72629 -0.105727 176 
0.299956 -0.726246 -0.10484 183 
0.299941 -0.726238 -0.10394 185 
0.299428 -0.725877 -0.103169 186 
0.299314 -0.725799 -0.102295 189 
0.298705 -0.72537 -0.101553 187 
0.298345 -0.725118 -0.100746 184 
0.29853 -0.725251 -0.0997926 182 
0.298369 -0.72514 -0.0989326 182 
0.298159 -0.724994 -0.0980856 186 
0.298 -0.724883 -0.0972256 189 
0.297693 -0.724668 -0.0964066 195 
0.297386 -0.724453 -0.0955886 199 
0.297081 -0.724239 -0.0947716 196 
0.296531 -0.723852 -0.0940246 193 
0.295347 -0.723016 -0.0934626 195 
0.295143 -0.722874 -0.0926206 201 
0.294892 -0.722699 -0.0917936 203 
0.294738 -0.722592 -0.0909376 205 
0.294584 -0.722486 -0.0900816 203 
0.293269 -0.721556 -0.0895756 200 
0.293746 -0.721897 -0.0885316 198 
0.292629 -0.721108 -0.0879716 202 
0.292334 -0.720902 -0.0871626 204 
0.291848 -0.72056 -0.0864146 196 
0.291316 -0.720185 -0.0856826 194 
0.291216 -0.720117 -0.0848156 198 
0.290257 -0.71944 -0.0842216 201 
0.289825 -0.719136 -0.0834636 200 
0.289489 -0.718901 -0.0826746 201 
0.289249 -0.718733 -0.0818566 198 
0.288772 -0.718398 -0.0811156 196 
0.288675 -0.718332 -0.0802526 195 
0.288626 -0.718299 -0.0793726 196 
0.287165 -0.717266 -0.0789636 196 
0.286554 -0.716836 -0.0782746 193 
0.286553 -0.716838 -0.0773826 195 
0.286318 -0.716674 -0.0765686 194 
0.286318 -0.716676 -0.0756746 195 
0.285851 -0.716348 -0.0749416 197 
0.285665 -0.716218 -0.0741126 195 
0.284828 -0.715628 -0.0735116 192 
0.284504 -0.715401 -0.0727326 190 
0.28432 -0.715273 -0.0719046 192 
0.283952 -0.715014 -0.0711436 192 
0.283723 -0.714854 -0.0703326 191 
0.283494 -0.714695 -0.0695226 189 
0.28253 -0.714015 -0.0689806 187 
0.282304 -0.713856 -0.0681726 189 
0.282032 -0.713666 -0.0673816 188 
0.281898 -0.713573 -0.0665396 189 
0.281535 -0.713319 -0.0657826 187 
0.28122 -0.713098 -0.0650096 185 
0.280905 -0.712877 -0.0642366 184 
0.280727 -0.712754 -0.0634126 186 
0.280413 -0.712534 -0.0626406 185 
0.280191 -0.712379 -0.0618346 182 
0.278974 -0.711519 -0.0614156 182 
0.278799 -0.711397 -0.0605936 180 
0.27894 -0.7115 -0.0596476 178 
0.279172 -0.711667 -0.0586636 174 
0.278998 -0.711546 -0.0578396 171 
0.279005 -0.711553 -0.0569436 170 
0.278876 -0.711464 -0.0561016 170 
0.278884 -0.711472 -0.0552036 170 
0.278937 -0.711512 -0.0542866 168 
0.279036 -0.711585 -0.0533496 166 
0.279271 -0.711754 -0.0523556 165 
0.278827 -0.711442 -0.0516416 165 
0.279017 -0.711579 -0.0506636 167 
0.278665 -0.711332 -0.0499116 164 
0.278766 -0.711406 -0.0489696 159 
0.279093 -0.71164 -0.0479296 162 
0.279104 -0.71165 -0.0470236 167 
0.279206 -0.711725 -0.0460766 166 
0.279217 -0.711736 -0.0451676 169 
0.279093 -0.71165 -0.0443166 167 
0.279332 -0.711822 -0.0433066 165 
0.278936 -0.711544 -0.0425746 166 
0.279449 -0.71191 -0.0414406 164 
0.279326 -0.711825 -0.0405866 167 
0.278975 -0.711579 -0.0398346 160 
0.280129 -0.7124 -0.0384056 159 
0.27914 -0.711701 -0.0379416 158 
0.2792 -0.711746 -0.0370026 155 
0.279625 -0.71205 -0.0358956 153 
0.279732 -0.712129 -0.0349326 160 
0.279839 -0.712207 -0.0339676 158 
0.279947 -0.712286 -0.0330016 152 
0.280193 -0.712463 -0.0319686 152 
0.280302 -0.712542 -0.0309986 150 
0.280136 -0.712427 -0.0301576 150 
0.280567 -0.712735 -0.0290326 143 
0.280079 -0.712392 -0.0283426 149 
0.28065 -0.712799 -0.0271466 148 
0.280715 -0.712848 -0.0261916 137 
0.281103 -0.713126 -0.0250776 137 
0.281077 -0.71311 -0.0241636 137 
0.281004 -0.713061 -0.0232706 134 
0.281025 -0.713078 -0.0223326 132 
0.281416 -0.713358 -0.0212086 133 
0.281159 -0.713178 -0.0204056 139 
0.281551 -0.713459 -0.0192776 142 
0.281805 -0.713642 -0.0182156 138 
0.281967 -0.713759 -0.0171986 136 
0.281944 -0.713745 -0.0162746 134 
0.28206 -0.71383 -0.0152776 129 
0.282457 -0.714114 -0.0141356 129 
0.282668 -0.714266 -0.0130856 128 
0.282926 -0.714452 -0.0120096 128 
0.282483 -0.71414 -0.0112976 134 
0.282695 -0.714294 -0.0102436 131 
0.282815 -0.714381 -0.00923562 126 
0.283263 -0.714701 -0.00805262 131 
0.284138 -0.715325 -0.00663961 125 
0.28341 -0.714811 -0.00607662 123 
0.283721 -0.715034 -0.00495961 124 
0.284695 -0.715727 -0.00348261 125 
0.284297 -0.715447 -0.00274262 122 
0.283852 -0.715135 -0.00202961 122 
0.283975 -0.715225 -0.00100662 122 
0.284669 -0.715719 0.000331388 117 
0.284984 -0.715945 0.00146438 116 
0.285205 -0.716105 0.00254838 112 
0.267671 -0.706755 -0.41058 7 
0.265217 -0.704995 -0.408224 7 
0.26548 -0.705187 -0.40746 7 
0.269258 -0.707902 -0.408728 3 
0.267824 -0.706875 -0.406977 8 
0.26473 -0.704657 -0.404284 9 
0.26508 -0.70491 -0.403571 5 
0.26728 -0.706492 -0.403908 7 
0.266942 -0.706252 -0.4028 8 
0.267468 -0.706632 -0.402181 5 
0.2683 -0.707232 -0.401732 7 
0.267354 -0.706555 -0.400288 8 
0.266931 -0.706254 -0.39914 5 
0.268411 -0.707319 -0.399046 6 
0.268029 -0.707047 -0.397922 8 
0.27013 -0.708558 -0.398159 9 
0.269177 -0.707877 -0.396723 8 
0.268924 -0.707698 -0.395673 10 
0.269021 -0.70777 -0.394813 11 
0.26704 -0.70635 -0.392839 10 
0.268129 -0.707135 -0.392515 12 
0.26732 -0.706556 -0.391177 9 
0.267503 -0.70669 -0.39037 8 
0.268551 -0.707445 -0.390018 13 
0.271798 -0.709779 -0.390815 6 
0.269399 -0.708059 -0.38865 16 
0.270239 -0.708665 -0.38818 12 
0.271126 -0.709304 -0.387731 10 
0.271094 -0.709284 -0.386805 16 
0.270405 -0.708792 -0.385545 16 
0.270855 -0.709117 -0.384868 13 
0.271174 -0.709349 -0.384124 13 
0.270924 -0.709172 -0.383092 13 
0.269933 -0.708463 -0.381691 16 
0.271038 -0.709258 -0.381341 14 
0.271227 -0.709397 -0.380532 12 
0.272119 -0.71004 -0.38007 15 
0.273325 -0.710908 -0.379759 17 
0.271663 -0.709718 -0.378041 18 
0.272249 -0.710141 -0.377424 21 
0.272088 -0.710028 -0.376444 18 
0.273338 -0.710928 -0.376146 21 
0.273397 -0.710973 -0.375271 19 
0.27275 -0.71051 -0.37406 16 
0.273251 -0.710873 -0.373398 18 
0.273798 -0.711268 -0.372755 25 
0.273018 -0.710711 -0.371489 21 
0.273697 -0.711201 -0.370907 23 
0.273449 -0.711025 -0.369893 23 
0.27413 -0.711516 -0.369309 25 
0.274235 -0.711595 -0.368459 28 
0.273987 -0.711419 -0.367448 27 
0.274715 -0.711944 -0.366881 29 
0.275177 -0.712279 -0.366193 30 
0.275107 -0.712231 -0.365263 29 
0.275705 -0.712663 -0.364632 29 
0.275589 -0.712582 -0.363683 31 
0.276189 -0.713016 -0.363051 32 
0.275316 -0.712391 -0.36177 30 
0.275826 -0.71276 -0.361098 32 
0.275846 -0.712776 -0.360212 35 
0.276357 -0.713146 -0.359538 33 
0.277095 -0.713679 -0.35896 31 
0.277026 -0.713632 -0.358034 35 
0.277586 -0.714037 -0.357377 35 
0.277248 -0.713796 -0.356338 35 
0.277899 -0.714266 -0.355717 36 
0.278146 -0.714446 -0.354925 37 
0.278575 -0.714757 -0.354208 38 
0.278371 -0.714613 -0.353229 43 
0.278846 -0.714957 -0.352529 47 
0.279005 -0.715073 -0.351699 50 
0.279754 -0.715614 -0.351109 53 
0.279505 -0.715437 -0.350113 52 
0.279529 -0.715457 -0.349229 49 
0.280554 -0.716196 -0.348743 47 
0.280169 -0.715922 -0.347696 46 
0.280604 -0.716237 -0.346973 42 
0.280583 -0.716224 -0.346071 40 
0.280655 -0.716278 -0.345206 51 
0.281549 -0.716923 -0.344658 51 
0.281392 -0.716813 -0.343704 55 
0.282382 -0.717526 -0.343188 54 
0.28172 -0.717054 -0.342043 54 
0.282206 -0.717405 -0.341333 51 
0.283293 -0.718188 -0.340846 53 
0.28309 -0.718045 -0.339876 54 
0.283488 -0.718333 -0.339129 60 
0.283933 -0.718655 -0.338398 58 
0.28373 -0.718513 -0.33743 65 
0.283991 -0.718702 -0.336631 59 
0.284299 -0.718926 -0.335848 57 
0.284283 -0.718917 -0.334949 62 
0.284499 -0.719075 -0.334133 63 
0.285273 -0.719634 -0.333513 57 
0.285025 -0.719458 -0.332533 63 
0.285896 -0.720086 -0.331943 63 
0.285602 -0.719877 -0.330947 63 
0.286475 -0.720507 -0.330354 64 
0.286461 -0.7205 -0.329455 75 
0.287198 -0.721031 -0.328811 72 
0.287655 -0.721362 -0.32807 70 
0.287501 -0.721254 -0.327123 64 
0.287818 -0.721484 -0.326334 66 
0.28823 -0.721783 -0.325575 68 
0.288691 -0.722117 -0.324831 71 
0.288632 -0.722077 -0.323917 79 
0.289474 -0.722684 -0.323293 82 
0.289511 -0.722713 -0.32241 81 
0.289263 -0.722538 -0.321436 87 
0.289395 -0.722635 -0.320584 84 
0.289623 -0.722801 -0.319762 86 
0.289852 -0.722968 -0.318939 82 
0.290796 -0.723649 -0.318335 80 
0.291314 -0.724024 -0.317597 77 
0.291401 -0.724089 -0.316728 78 
0.291777 -0.724362 -0.315945 77 
0.29177 -0.724359 -0.315048 79 
0.292243 -0.724702 -0.314292 80 
0.292622 -0.724976 -0.313508 82 
0.292809 -0.725113 -0.312666 81 
0.292948 -0.725216 -0.31181 87 
0.293232 -0.725423 -0.310996 88 
0.293179 -0.725387 -0.310085 93 
0.293175 -0.725386 -0.309189 92 
0.293751 -0.725803 -0.308455 96 
0.29433 -0.726221 -0.307719 94 
0.294327 -0.726222 -0.306823 91 
0.29447 -0.726327 -0.305966 89 
0.295003 -0.726712 -0.305214 90 
0.29544 -0.727029 -0.304435 99 
0.294854 -0.726611 -0.303384 100 
0.295389 -0.726998 -0.302629 103 
0.295243 -0.726895 -0.301695 102 
0.295389 -0.727003 -0.300839 105 
0.295585 -0.727146 -0.299994 107 
0.295831 -0.727325 -0.299162 111 
0.29691 -0.728104 -0.298538 120 
0.29706 -0.728214 -0.297679 119 
0.296474 -0.727795 -0.296639 112 
0.296526 -0.727835 -0.295757 117 
0.296971 -0.728157 -0.29497 118 
0.29732 -0.72841 -0.294159 119 
0.297325 -0.728416 -0.293265 121 
0.297379 -0.728458 -0.292384 122 
0.297188 -0.728323 -0.291446 123 
0.297342 -0.728436 -0.290588 120 
0.296907 -0.728126 -0.289596 125 
0.297111 -0.728275 -0.288751 121 
0.297021 -0.728213 -0.287839 121 
0.297275 -0.728398 -0.287004 117 
0.297382 -0.728478 -0.286137 124 
0.297736 -0.728734 -0.285322 127 
0.296814 -0.728074 -0.284235 134 
0.296629 -0.727943 -0.283307 132 
0.296298 -0.727708 -0.282351 131 
0.296652 -0.727965 -0.281537 135 
0.296518 -0.727871 -0.280623 135 
0.295848 -0.727392 -0.279602 132 
0.295619 -0.727229 -0.278672 132 
0.295536 -0.727172 -0.277773 133 
0.295551 -0.727185 -0.276893 133 
0.294355 -0.726328 -0.275782 134 
0.294082 -0.726134 -0.274851 141 
0.293809 -0.725941 -0.273922 150 
0.293442 -0.725679 -0.272977 148 
0.293268 -0.725556 -0.272069 143 
0.292759 -0.725193 -0.271102 150 
0.291538 -0.724318 -0.270012 149 
0.290988 -0.723925 -0.269045 156 
0.290583 -0.723635 -0.268106 152 
0.289943 -0.723178 -0.267129 154 
0.290105 -0.723297 -0.266291 155 
0.289938 -0.723179 -0.265398 157 
0.289255 -0.722691 -0.264421 161 
0.287876 -0.721702 -0.263335 163 
0.287574 -0.721486 -0.262428 161 
0.287041 -0.721106 -0.261486 159 
0.286556 -0.720759 -0.260554 165 
0.286258 -0.720547 -0.259653 166 
0.286099 -0.720435 -0.258774 169 
0.28571 -0.720158 -0.257863 170 
0.285645 -0.720113 -0.257001 175 
0.284481 -0.719279 -0.255982 180 
0.283824 -0.718809 -0.255041 176 
0.283761 -0.718766 -0.254184 176 
0.283426 -0.718528 -0.253292 177 
0.282866 -0.718127 -0.252371 176 
0.282534 -0.717891 -0.251483 178 
0.282248 -0.717687 -0.250602 177 
0.281783 -0.717355 -0.249701 174 
0.281185 -0.716928 -0.248785 178 
0.280367 -0.716342 -0.247846 181 
0.280265 -0.716271 -0.246996 181 
0.279763 -0.715912 -0.2461 178 
0.279352 -0.715619 -0.245217 180 
0.278854 -0.715263 -0.244326 177 
0.278578 -0.715067 -0.243463 177 
0.278789 -0.715221 -0.242653 181 
0.278956 -0.715343 -0.241839 179 
0.277626 -0.714389 -0.240868 180 
0.277354 -0.714196 -0.240011 181 
0.277741 -0.714476 -0.23922 180 
0.277821 -0.714536 -0.238399 179 
0.277419 -0.71425 -0.237532 176 
0.277501 -0.714311 -0.236711 174 
0.277101 -0.714025 -0.235847 171 
0.276702 -0.713741 -0.234985 172 
0.276828 -0.713834 -0.23417 174 
0.27678 -0.713802 -0.233339 173 
0.276864 -0.713864 -0.23252 177 
0.276817 -0.713832 -0.231691 176 
0.276814 -0.713833 -0.230865 178 
0.276987 -0.713959 -0.230052 175 
0.276592 -0.713678 -0.229198 174 
0.276678 -0.713742 -0.22838 175 
0.276503 -0.713618 -0.227543 176 
0.27742 -0.71428 -0.226779 177 
0.276808 -0.713842 -0.225914 180 
0.276809 -0.713845 -0.22509 181 
0.277116 -0.714068 -0.224283 179 
0.276812 -0.713852 -0.223441 178 
0.27664 -0.71373 -0.222607 182 
0.276992 -0.713986 -0.221801 183 
0.276951 -0.713959 -0.220975 182 
0.276912 -0.713933 -0.220149 185 
0.277003 -0.714001 -0.219329 184 
0.276921 -0.713944 -0.218501 184 
0.276883 -0.713919 -0.217675 182 
0.27667 -0.713768 -0.216844 183 
0.277244 -0.714184 -0.216041 180 
0.277514 -0.71438 -0.215225 183 
0.27739 -0.714293 -0.214396 183 
0.277749 -0.714553 -0.213581 183 
0.277845 -0.714625 -0.212758 187 
0.27781 -0.714602 -0.211932 188 
0.277732 -0.714548 -0.211105 188 
0.27761 -0.714463 -0.210277 191 
0.277752 -0.714567 -0.209454 194 
0.277807 -0.714609 -0.20863 198 
0.277951 -0.714715 -0.207806 198 
0.277963 -0.714726 -0.20698 197 
0.278195 -0.714895 -0.206156 200 
0.27834 -0.715002 -0.205331 200 
0.278222 -0.714919 -0.204504 194 
0.278456 -0.71509 -0.203678 198 
0.278383 -0.715039 -0.202851 199 
0.278486 -0.715116 -0.202024 198 
0.278458 -0.715098 -0.201197 197 
0.27843 -0.71508 -0.20037 196 
0.278579 -0.71519 -0.199542 192 
0.278553 -0.715173 -0.198715 191 
0.278747 -0.715315 -0.197884 189 
0.278986 -0.71549 -0.197053 189 
0.279447 -0.715824 -0.196215 191 
0.279777 -0.716063 -0.195379 192 
0.280064 -0.716272 -0.194542 194 
0.279951 -0.716193 -0.193713 196 
0.279884 -0.716147 -0.192885 197 
0.280217 -0.716389 -0.192044 197 
0.280328 -0.716471 -0.191208 199 
0.280307 -0.716458 -0.190377 195 
0.280375 -0.716509 -0.189543 195 
0.280399 -0.716529 -0.18871 196 
0.280512 -0.716613 -0.187873 197 
0.28076 -0.716794 -0.187029 199 
0.28092 -0.716911 -0.186188 202 
0.28108 -0.717029 -0.185346 197 
0.281913 -0.717631 -0.184469 200 
0.281089 -0.71704 -0.183677 202 
0.282419 -0.717999 -0.182768 202 
0.282583 -0.718119 -0.181921 204 
0.282612 -0.718143 -0.181081 205 
0.282822 -0.718296 -0.180229 204 
0.282807 -0.718288 -0.179391 206 
0.282929 -0.718377 -0.178544 205 
0.28296 -0.718403 -0.177702 206 
0.283083 -0.718493 -0.176854 210 
0.283115 -0.718519 -0.176011 205 
0.283103 -0.718512 -0.175171 204 
0.283273 -0.718637 -0.174317 206 
0.283715 -0.718957 -0.17344 207 
0.284751 -0.719706 -0.172511 206 
0.285153 -0.719997 -0.171632 206 
0.284367 -0.719434 -0.170855 204 
0.284541 -0.719561 -0.169995 205 
0.285401 -0.720183 -0.16907 206 
0.285256 -0.720081 -0.168237 202 
0.285524 -0.720276 -0.167364 204 
0.285563 -0.720307 -0.166512 204 
0.285649 -0.720371 -0.165655 206 
0.285598 -0.720336 -0.164811 204 
0.28596 -0.720599 -0.163924 206 
0.286417 -0.72093 -0.163024 207 
0.286551 -0.721029 -0.162158 205 
0.287195 -0.721495 -0.161234 207 
0.287749 -0.721896 -0.160316 210 
0.288399 -0.722366 -0.159385 211 
0.288444 -0.722401 -0.158523 211 
0.288536 -0.72247 -0.157654 209 
0.288536 -0.722472 -0.156797 207 
0.28849 -0.722441 -0.155945 209 
0.288491 -0.722444 -0.155086 207 
0.288492 -0.722448 -0.154228 203 
0.288868 -0.722721 -0.153319 206 
0.289151 -0.722927 -0.152421 203 
0.289342 -0.723067 -0.151533 204 
0.28958 -0.723241 -0.150638 205 
0.289726 -0.723348 -0.149755 206 
0.290768 -0.7241 -0.148741 205 
0.291057 -0.724311 -0.147832 203 
0.291585 -0.724694 -0.146886 205 
0.291687 -0.72477 -0.146002 202 
0.291885 -0.724914 -0.145103 202 
0.292036 -0.725025 -0.14421 199 
0.292713 -0.725515 -0.143231 201 
0.292626 -0.725455 -0.142373 204 
0.293595 -0.726155 -0.141342 202 
0.294231 -0.726616 -0.140361 202 
0.294194 -0.726591 -0.13949 197 
0.294206 -0.726602 -0.138611 200 
0.294508 -0.726822 -0.137681 200 
0.29486 -0.727078 -0.136741 200 
0.294728 -0.726986 -0.135885 194 
0.294791 -0.727033 -0.134993 189 
0.29529 -0.727395 -0.134022 192 
0.295695 -0.727689 -0.133065 196 
0.296247 -0.728089 -0.132078 196 
0.297096 -0.728702 -0.131032 198 
0.296966 -0.728612 -0.13017 198 
0.297033 -0.728663 -0.129269 196 
0.296709 -0.728432 -0.128445 194 
0.297366 -0.728907 -0.127426 195 
0.297288 -0.728853 -0.126552 197 
0.297603 -0.729083 -0.125598 198 
0.297723 -0.729171 -0.124682 196 
0.297893 -0.729296 -0.123755 194 
0.297866 -0.729279 -0.122868 191 
0.29779 -0.729227 -0.12199 190 
0.297764 -0.729211 -0.121103 189 
0.298035 -0.729409 -0.12015 190 
0.298257 -0.729571 -0.119206 193 
0.29853 -0.72977 -0.118249 190 
0.298358 -0.729649 -0.117391 192 
0.298187 -0.729528 -0.116532 191 
0.298313 -0.729621 -0.115606 185 
0.298638 -0.729858 -0.114633 186 
0.298666 -0.729881 -0.113727 187 
0.299192 -0.730262 -0.112703 189 
0.299122 -0.730214 -0.111818 186 
0.298854 -0.730023 -0.11098 186 
0.298785 -0.729976 -0.110095 187 
0.298866 -0.730037 -0.109173 184 
0.299097 -0.730206 -0.108212 184 
0.29893 -0.730088 -0.10735 185 
0.298863 -0.730043 -0.106463 184 
0.298748 -0.729962 -0.105588 185 
0.298484 -0.729774 -0.104751 182 
0.298667 -0.729909 -0.103798 182 
0.298503 -0.729793 -0.102935 181 
0.29839 -0.729714 -0.10206 178 
0.298277 -0.729635 -0.101183 183 
0.298214 -0.729592 -0.100294 183 
0.297953 -0.729407 -0.0994566 185 
0.298189 -0.72958 -0.0984856 190 
0.297979 -0.729431 -0.0976356 191 
0.296781 -0.728571 -0.0970606 192 
0.296623 -0.728459 -0.0961996 196 
0.296317 -0.728241 -0.0953796 194 
0.296061 -0.72806 -0.0945466 202 
0.295757 -0.727843 -0.0937286 204 
0.294672 -0.727064 -0.0931376 207 
0.294079 -0.726639 -0.0924076 206 
0.293584 -0.726286 -0.0916506 204 
0.293237 -0.726038 -0.0908516 203 
0.292843 -0.725756 -0.0900676 202 
0.292642 -0.725615 -0.0892256 199 
0.291383 -0.72471 -0.0887076 201 
0.290897 -0.724363 -0.0879566 200 
0.290844 -0.724327 -0.0870736 202 
0.290503 -0.724084 -0.0862806 206 
0.290307 -0.723945 -0.0854426 206 
0.290064 -0.723772 -0.0846196 206 
0.290012 -0.723737 -0.0837366 204 
0.289817 -0.7236 -0.0828986 201 
0.288815 -0.72288 -0.0823226 201 
0.288007 -0.722301 -0.0816876 203 
0.287862 -0.722199 -0.0808376 200 
0.287813 -0.722166 -0.0799556 201 
0.287528 -0.721963 -0.0791526 204 
0.286914 -0.721523 -0.0784606 199 
0.285694 -0.720647 -0.0779756 196 
0.285786 -0.720716 -0.0770486 197 
0.284806 -0.720012 -0.0764886 193 
0.284852 -0.720048 -0.0755786 196 
0.284759 -0.719983 -0.0747156 193 
0.284388 -0.719718 -0.0739496 190 
0.283277 -0.71892 -0.0734456 187 
0.283139 -0.718824 -0.0726016 190 
0.282725 -0.718528 -0.0718556 185 
0.282543 -0.718399 -0.0710276 191 
0.282131 -0.718104 -0.0702826 191 
0.281995 -0.718009 -0.0694386 188 
0.281768 -0.717848 -0.0686286 188 
0.280445 -0.716897 -0.0682236 186 
0.280539 -0.716968 -0.0672966 185 
0.280542 -0.716972 -0.0664026 181 
0.279909 -0.716518 -0.0657486 181 
0.279822 -0.716458 -0.0648886 184 
0.279826 -0.716463 -0.0639946 186 
0.279649 -0.716338 -0.0631686 187 
0.279381 -0.716148 -0.0623786 185 
0.278933 -0.715828 -0.0616586 184 
0.278893 -0.715801 -0.0607806 183 
0.27899 -0.715873 -0.0598476 182 
0.278815 -0.71575 -0.0590216 182 
0.278685 -0.715659 -0.0581776 176 
0.277744 -0.714983 -0.0576596 175 
0.277751 -0.714991 -0.0567626 176 
0.278255 -0.715356 -0.0556626 173 
0.277586 -0.714877 -0.0550386 172 
0.277458 -0.714788 -0.0541946 169 
0.277422 -0.714764 -0.0533126 169 
0.27734 -0.714707 -0.0524486 169 
0.278162 -0.715302 -0.0512076 168 
0.277539 -0.714855 -0.0505686 168 
0.277774 -0.715028 -0.0495686 166 
0.277829 -0.71507 -0.0486436 162 
0.278021 -0.71521 -0.0476586 164 
0.277851 -0.71509 -0.0468286 160 
0.277862 -0.715101 -0.0459196 161 
0.277828 -0.715079 -0.0450296 163 
0.277705 -0.714992 -0.0441786 168 
0.278034 -0.715232 -0.0431266 161 
0.278092 -0.715277 -0.0421936 167 
0.278059 -0.715256 -0.0412996 167 
0.278345 -0.715464 -0.0402616 169 
0.278405 -0.71551 -0.0393236 164 
0.278373 -0.71549 -0.0384266 165 
0.278615 -0.715667 -0.0374036 161 
0.278448 -0.715549 -0.0365656 163 
0.278509 -0.715595 -0.0356236 154 
0.278707 -0.71574 -0.0346166 156 
0.278814 -0.71582 -0.0336496 159 
0.278831 -0.715834 -0.0327236 158 
0.278847 -0.715849 -0.0317966 150 
0.279185 -0.716095 -0.0307176 147 
0.279156 -0.716077 -0.0298096 142 
0.278808 -0.715828 -0.0290546 143 
0.279238 -0.716141 -0.0279246 145 
0.279349 -0.716223 -0.0269476 145 
0.27923 -0.71614 -0.0260796 145 
0.279295 -0.71619 -0.0251226 142 
0.279498 -0.716339 -0.0240956 136 
0.279841 -0.716588 -0.0229986 129 
0.279861 -0.716606 -0.0220586 136 
0.280067 -0.716756 -0.0210246 137 
0.280365 -0.716974 -0.0199426 138 
0.280341 -0.716959 -0.0190216 141 
0.280409 -0.717011 -0.0180516 139 
0.280756 -0.717264 -0.0169396 137 
0.280872 -0.71735 -0.0159426 137 
0.280616 -0.717168 -0.0151346 137 
0.280733 -0.717255 -0.0141356 137 
0.281969 -0.718149 -0.0125536 131 
0.281246 -0.71763 -0.0119856 135 
0.281645 -0.71792 -0.0108336 134 
0.281998 -0.718177 -0.00970161 134 
0.282352 -0.718435 -0.00856662 132 
0.282755 -0.718728 -0.00740361 131 
0.282264 -0.718377 -0.00671461 124 
0.282667 -0.71867 -0.00554761 126 
0.282789 -0.718761 -0.00452861 124 
0.283006 -0.71892 -0.00345661 121 
0.283223 -0.719079 -0.00238262 115 
0.283488 -0.719273 -0.00128062 118 
0.283755 -0.719468 -0.000174611 117 
0.284451 -0.719972 0.00117038 118 
0.284338 -0.719894 0.00207138 122 
0.284274 -0.71985 0.00299938 116 
0.263533 -0.705121 -0.408463 6 
0.266367 -0.707168 -0.409204 6 
0.266891 -0.70755 -0.408587 4 
0.265046 -0.70622 -0.406597 6 
0.265825 -0.706785 -0.40613 5 
0.266348 -0.707165 -0.405513 6 
0.267393 -0.707921 -0.405193 5 
0.264988 -0.706189 -0.402906 5 
0.266585 -0.707344 -0.402898 5 
0.269374 -0.709359 -0.403554 10 
0.269425 -0.709398 -0.402661 6 
0.268515 -0.708744 -0.401232 7 
0.269002 -0.709098 -0.400586 6 
0.268618 -0.708823 -0.399455 8 
0.266376 -0.707208 -0.397304 11 
0.266385 -0.707217 -0.3964 7 
0.267688 -0.708161 -0.396203 9 
0.267007 -0.707671 -0.394921 7 
0.26949 -0.709466 -0.395355 7 
0.268107 -0.70847 -0.393697 9 
0.268638 -0.708856 -0.393072 9 
0.270526 -0.710221 -0.393168 10 
0.268919 -0.709064 -0.391402 9 
0.268279 -0.708604 -0.390155 8 
0.270425 -0.710156 -0.390376 10 
0.269431 -0.709441 -0.388945 9 
0.269094 -0.7092 -0.387862 15 
0.270064 -0.709903 -0.387459 17 
0.270864 -0.710483 -0.386963 17 
0.270219 -0.71002 -0.385724 15 
0.27045 -0.710189 -0.384935 11 
0.270506 -0.710232 -0.384058 13 
0.270694 -0.71037 -0.383247 18 
0.271981 -0.711302 -0.382989 17 
0.27072 -0.710394 -0.381451 20 
0.272183 -0.711453 -0.381275 15 
0.272948 -0.712008 -0.380747 16 
0.271682 -0.711096 -0.379217 15 
0.272312 -0.711554 -0.378622 17 
0.271227 -0.710773 -0.377189 15 
0.273136 -0.712154 -0.377214 18 
0.27262 -0.711784 -0.37606 20 
0.273033 -0.712084 -0.375356 20 
0.273181 -0.712193 -0.374524 20 
0.272975 -0.712047 -0.373524 17 
0.272285 -0.711552 -0.372297 20 
0.272698 -0.711852 -0.371592 20 
0.272979 -0.712058 -0.370825 26 
0.272687 -0.71185 -0.36979 23 
0.273853 -0.712694 -0.369432 27 
0.274136 -0.712901 -0.368663 27 
0.274776 -0.713365 -0.368056 26 
0.274215 -0.712963 -0.366901 31 
0.274455 -0.713139 -0.366112 28 
0.274829 -0.713411 -0.365383 34 
0.274759 -0.713363 -0.364453 32 
0.274511 -0.713186 -0.363446 33 
0.274796 -0.713395 -0.362677 37 
0.275394 -0.713829 -0.362044 37 
0.275548 -0.713943 -0.361215 35 
0.276193 -0.714411 -0.3606 35 
0.276303 -0.714493 -0.359751 39 
0.276323 -0.71451 -0.358863 35 
0.277241 -0.715176 -0.358361 35 
0.277442 -0.715323 -0.357549 38 
0.278185 -0.715862 -0.356966 36 
0.27753 -0.715391 -0.355793 33 
0.27859 -0.716159 -0.355341 42 
0.278612 -0.716178 -0.354452 43 
0.277866 -0.715642 -0.353247 42 
0.278431 -0.716052 -0.352585 43 
0.278725 -0.716267 -0.35181 45 
0.278477 -0.71609 -0.350815 52 
0.278772 -0.716306 -0.35004 50 
0.279067 -0.716522 -0.349265 48 
0.279682 -0.716968 -0.348616 47 
0.279752 -0.717021 -0.34775 49 
0.280642 -0.717666 -0.347206 45 
0.280439 -0.717522 -0.346232 46 
0.280556 -0.717609 -0.345383 45 
0.280673 -0.717696 -0.344534 46 
0.280973 -0.717915 -0.343756 50 
0.281457 -0.718268 -0.343048 51 
0.281943 -0.718621 -0.342338 52 
0.281924 -0.71861 -0.341437 49 
0.282411 -0.718964 -0.340725 52 
0.282854 -0.719286 -0.339996 53 
0.282744 -0.719209 -0.339061 56 
0.283234 -0.719566 -0.338347 60 
0.283355 -0.719656 -0.337497 63 
0.283477 -0.719746 -0.336648 62 
0.283368 -0.71967 -0.335715 64 
0.284185 -0.720263 -0.335115 63 
0.284773 -0.72069 -0.33443 64 
0.284015 -0.720144 -0.333268 64 
0.284974 -0.72084 -0.332712 65 
0.285285 -0.721067 -0.331927 60 
0.285317 -0.721093 -0.331044 63 
0.28563 -0.721321 -0.330258 64 
0.28599 -0.721584 -0.329487 64 
0.287384 -0.722593 -0.329065 63 
0.287182 -0.72245 -0.328101 63 
0.287169 -0.722443 -0.327202 63 
0.287486 -0.722674 -0.326412 63 
0.287474 -0.722668 -0.325514 65 
0.287697 -0.722832 -0.324693 70 
0.288394 -0.723338 -0.324024 74 
0.288809 -0.72364 -0.323263 71 
0.288845 -0.723669 -0.322379 72 
0.289309 -0.724007 -0.321631 78 
0.28892 -0.723728 -0.320614 77 
0.290003 -0.724513 -0.320058 81 
0.289756 -0.724336 -0.319086 87 
0.29008 -0.724573 -0.318291 85 
0.290262 -0.724708 -0.317452 85 
0.290684 -0.725015 -0.316685 88 
0.291298 -0.725461 -0.315974 80 
0.291963 -0.725944 -0.315276 80 
0.291764 -0.725802 -0.314321 85 
0.29219 -0.726113 -0.31355 84 
0.29204 -0.726007 -0.31261 86 
0.292323 -0.726214 -0.311796 86 
0.292221 -0.726143 -0.310872 94 
0.292698 -0.72649 -0.310113 94 
0.293128 -0.726803 -0.309338 91 
0.293173 -0.726838 -0.308455 93 
0.293847 -0.727328 -0.307746 89 
0.294184 -0.727573 -0.306942 97 
0.293939 -0.727399 -0.305979 98 
0.294276 -0.727645 -0.305175 97 
0.294226 -0.727611 -0.304266 96 
0.294809 -0.728035 -0.303525 97 
0.294954 -0.728142 -0.302667 98 
0.295149 -0.728285 -0.301822 102 
0.295295 -0.728394 -0.300964 109 
0.295443 -0.728503 -0.300106 115 
0.295639 -0.728647 -0.299261 116 
0.29613 -0.729005 -0.298489 111 
0.296034 -0.728938 -0.297569 115 
0.296576 -0.729332 -0.296807 113 
0.29658 -0.729337 -0.295912 116 
0.296289 -0.729129 -0.294947 120 
0.296833 -0.729525 -0.294182 117 
0.296543 -0.729318 -0.293219 114 
0.296549 -0.729324 -0.292326 115 
0.296751 -0.729473 -0.29148 116 
0.296757 -0.72948 -0.290588 118 
0.295981 -0.728921 -0.289519 134 
0.296723 -0.72946 -0.288795 121 
0.297468 -0.730001 -0.288068 128 
0.296494 -0.7293 -0.286961 125 
0.296846 -0.729557 -0.286147 128 
0.296905 -0.729602 -0.285269 129 
0.296425 -0.729258 -0.284276 131 
0.296338 -0.729197 -0.283369 132 
0.296447 -0.729279 -0.282503 136 
0.29641 -0.729254 -0.281607 137 
0.295983 -0.728948 -0.280633 137 
0.295899 -0.72889 -0.27973 139 
0.295766 -0.728796 -0.278817 130 
0.295245 -0.728422 -0.27783 130 
0.294291 -0.727735 -0.276761 137 
0.294403 -0.727818 -0.275902 137 
0.293599 -0.72724 -0.274869 144 
0.293471 -0.72715 -0.273967 148 
0.293536 -0.727199 -0.273101 149 
0.293121 -0.726902 -0.272148 145 
0.292804 -0.726675 -0.271215 149 
0.292201 -0.726241 -0.270232 154 
0.291315 -0.725604 -0.269203 147 
0.291003 -0.72538 -0.268278 148 
0.290172 -0.724782 -0.267266 152 
0.289627 -0.72439 -0.266307 155 
0.289085 -0.724001 -0.265351 159 
0.288404 -0.723511 -0.264375 153 
0.287401 -0.722789 -0.26335 157 
0.286914 -0.722439 -0.262413 161 
0.286567 -0.72219 -0.2615 164 
0.286452 -0.72211 -0.260625 164 
0.286015 -0.721796 -0.259702 167 
0.28535 -0.721318 -0.258747 172 
0.284871 -0.720974 -0.257823 172 
0.28444 -0.720665 -0.256908 173 
0.283464 -0.719961 -0.255917 175 
0.283218 -0.719786 -0.255034 178 
0.282657 -0.719383 -0.254109 173 
0.282504 -0.719275 -0.253242 175 
0.282533 -0.719298 -0.252401 178 
0.282291 -0.719126 -0.251524 181 
0.28187 -0.718823 -0.250626 182 
0.281585 -0.71862 -0.249747 182 
0.280585 -0.717899 -0.24878 186 
0.280214 -0.717633 -0.247895 183 
0.279755 -0.717304 -0.247001 180 
0.279432 -0.717073 -0.246126 177 
0.278888 -0.716682 -0.245227 177 
0.278523 -0.71642 -0.244351 176 
0.278336 -0.716287 -0.243497 180 
0.278193 -0.716186 -0.242648 183 
0.277436 -0.715641 -0.241735 181 
0.277998 -0.71605 -0.240964 179 
0.277946 -0.716014 -0.240127 176 
0.277279 -0.715534 -0.239229 182 
0.277798 -0.715912 -0.23845 179 
0.276914 -0.715275 -0.237536 179 
0.277039 -0.715368 -0.236719 176 
0.276989 -0.715334 -0.235886 175 
0.276328 -0.714859 -0.235 174 
0.276149 -0.714732 -0.234158 174 
0.276276 -0.714825 -0.233343 175 
0.276403 -0.714919 -0.232527 175 
0.276051 -0.714667 -0.231674 176 
0.276048 -0.714668 -0.230848 179 
0.276133 -0.714731 -0.23003 177 
0.276131 -0.714732 -0.229205 178 
0.276391 -0.714923 -0.228398 177 
0.276652 -0.715114 -0.22759 180 
0.276434 -0.714958 -0.22675 181 
0.275868 -0.714551 -0.225889 178 
0.275956 -0.714617 -0.225071 179 
0.276436 -0.714967 -0.224275 180 
0.27622 -0.714813 -0.223438 181 
0.276048 -0.714691 -0.222605 178 
0.275964 -0.714632 -0.221777 178 
0.27588 -0.714574 -0.220949 180 
0.27645 -0.714988 -0.220153 179 
0.276804 -0.715246 -0.219344 184 
0.276678 -0.715157 -0.218514 185 
0.276596 -0.7151 -0.217686 180 
0.27682 -0.715265 -0.21687 181 
0.277001 -0.715398 -0.216051 181 
0.277008 -0.715405 -0.215226 184 
0.277059 -0.715445 -0.214403 188 
0.276892 -0.715326 -0.213573 185 
0.27677 -0.71524 -0.212745 184 
0.277216 -0.715565 -0.211931 182 
0.277313 -0.715638 -0.211107 187 
0.277367 -0.715679 -0.210283 189 
0.277509 -0.715784 -0.209459 191 
0.277432 -0.715731 -0.208632 195 
0.277532 -0.715805 -0.207808 194 
0.2775 -0.715784 -0.206981 192 
0.277776 -0.715986 -0.206157 199 
0.277965 -0.716125 -0.205332 200 
0.277934 -0.716105 -0.204505 194 
0.277773 -0.715991 -0.203677 195 
0.277876 -0.716067 -0.202851 199 
0.278067 -0.716208 -0.202023 198 
0.278083 -0.716222 -0.201196 191 
0.277967 -0.71614 -0.200369 189 
0.278424 -0.716473 -0.199538 190 
0.278927 -0.716839 -0.198703 185 
0.279166 -0.717015 -0.19787 190 
0.278787 -0.716743 -0.197047 190 
0.279558 -0.717303 -0.196202 193 
0.279756 -0.717448 -0.195367 200 
0.27982 -0.717497 -0.194534 196 
0.279575 -0.717322 -0.193709 197 
0.279507 -0.717275 -0.19288 198 
0.279706 -0.717422 -0.192042 195 
0.280575 -0.718052 -0.191182 197 
0.279885 -0.717556 -0.190373 196 
0.279953 -0.717607 -0.189538 202 
0.280244 -0.71782 -0.188694 200 
0.280358 -0.717904 -0.187856 199 
0.280695 -0.718151 -0.187007 200 
0.281661 -0.718852 -0.186127 199 
0.28097 -0.718355 -0.185324 199 
0.28158 -0.718798 -0.184458 198 
0.281877 -0.719015 -0.183605 201 
0.281995 -0.719103 -0.182761 202 
0.281934 -0.719061 -0.181926 203 
0.281963 -0.719084 -0.181087 201 
0.282218 -0.719271 -0.180232 204 
0.282383 -0.719393 -0.179383 207 
0.282549 -0.719516 -0.178532 204 
0.2824 -0.71941 -0.177702 202 
0.282658 -0.719599 -0.176844 202 
0.282646 -0.719592 -0.176004 202 
0.282859 -0.719749 -0.175147 204 
0.28312 -0.71994 -0.174285 203 
0.283744 -0.720394 -0.173392 202 
0.284782 -0.721147 -0.172462 206 
0.284955 -0.721275 -0.171601 201 
0.284808 -0.721171 -0.170767 203 
0.284845 -0.7212 -0.169917 203 
0.284974 -0.721296 -0.169057 205 
0.285196 -0.721459 -0.168189 208 
0.285372 -0.721589 -0.167323 208 
0.285136 -0.72142 -0.166498 206 
0.285222 -0.721485 -0.165641 206 
0.285446 -0.721649 -0.164768 205 
0.285763 -0.721881 -0.163885 204 
0.285989 -0.722047 -0.163009 206 
0.286123 -0.722146 -0.162143 205 
0.287137 -0.722882 -0.161176 203 
0.287227 -0.72295 -0.160311 205 
0.286947 -0.722749 -0.159489 206 
0.287828 -0.723389 -0.158528 208 
0.28792 -0.723458 -0.15766 206 
0.287966 -0.723494 -0.156797 207 
0.287966 -0.723497 -0.155939 203 
0.2882 -0.723668 -0.15505 203 
0.288155 -0.723638 -0.154197 201 
0.28839 -0.723811 -0.153306 202 
0.288627 -0.723984 -0.152414 202 
0.28863 -0.723989 -0.151553 204 
0.289948 -0.724946 -0.150506 204 
0.289435 -0.724576 -0.149715 204 
0.290666 -0.72547 -0.148672 201 
0.290814 -0.725579 -0.147783 201 
0.29101 -0.725723 -0.146886 202 
0.291111 -0.725799 -0.146002 199 
0.291404 -0.726013 -0.145088 201 
0.292795 -0.727023 -0.143999 203 
0.293428 -0.727483 -0.143025 200 
0.29267 -0.726937 -0.142273 199 
0.29364 -0.727641 -0.141239 200 
0.293651 -0.727652 -0.140361 200 
0.29371 -0.727697 -0.139474 201 
0.293722 -0.727708 -0.138595 200 
0.294072 -0.727964 -0.137656 198 
0.294375 -0.728185 -0.136724 199 
0.294485 -0.728268 -0.135824 198 
0.294403 -0.728211 -0.134958 191 
0.294756 -0.728469 -0.134013 192 
0.29516 -0.728764 -0.133056 190 
0.295128 -0.728743 -0.132179 195 
0.295388 -0.728933 -0.131245 197 
0.296576 -0.729796 -0.130132 195 
0.296693 -0.729883 -0.129222 196 
0.296466 -0.729722 -0.128377 192 
0.296927 -0.730057 -0.127397 196 
0.297291 -0.730323 -0.126434 201 
0.297213 -0.73027 -0.125558 197 
0.297382 -0.730394 -0.124631 196 
0.297996 -0.730841 -0.123611 195 
0.298018 -0.73086 -0.122712 198 
0.297893 -0.730772 -0.121843 194 
0.297719 -0.730648 -0.120986 192 
0.297842 -0.73074 -0.120064 192 
0.297818 -0.730725 -0.119173 194 
0.298041 -0.730889 -0.118227 192 
0.298215 -0.731017 -0.117291 191 
0.298638 -0.731326 -0.116296 191 
0.298467 -0.731205 -0.115436 188 
0.298446 -0.731192 -0.114541 192 
0.298226 -0.731035 -0.113692 186 
0.298354 -0.731131 -0.112761 186 
0.297987 -0.730867 -0.111948 188 
0.299159 -0.731719 -0.110764 188 
0.298892 -0.731527 -0.109925 188 
0.298376 -0.731157 -0.109148 190 
0.298756 -0.731434 -0.108151 186 
0.298738 -0.731424 -0.10725 185 
0.298225 -0.731054 -0.106475 187 
0.298308 -0.731117 -0.105549 186 
0.298292 -0.731108 -0.104648 184 
0.298277 -0.7311 -0.103746 185 
0.298113 -0.730984 -0.102883 185 
0.298099 -0.730976 -0.101981 185 
0.297887 -0.730825 -0.10113 185 
0.297824 -0.730782 -0.10024 188 
0.297465 -0.730524 -0.0994306 189 
0.297304 -0.730411 -0.0985666 191 
0.296552 -0.729868 -0.0978676 191 
0.296344 -0.72972 -0.0970196 194 
0.295841 -0.729359 -0.0962546 197 
0.295536 -0.729141 -0.0954356 198 
0.29533 -0.728994 -0.0945896 202 
0.295321 -0.72899 -0.0936866 202 
0.293993 -0.728031 -0.0931666 205 
0.293159 -0.727429 -0.0925076 204 
0.293879 -0.727953 -0.0913916 203 
0.292658 -0.727072 -0.0908516 201 
0.292457 -0.726929 -0.0900096 204 
0.291968 -0.726577 -0.0892546 203 
0.292106 -0.726679 -0.0883106 200 
0.290945 -0.725841 -0.0877656 201 
0.290221 -0.725319 -0.0870886 203 
0.289929 -0.725111 -0.0862806 203 
0.289781 -0.725006 -0.0854276 204 
0.289872 -0.725074 -0.0844986 208 
0.289725 -0.72497 -0.0836446 203 
0.289007 -0.724452 -0.0829756 201 
0.287771 -0.72356 -0.0824766 202 
0.287532 -0.723389 -0.0816566 201 
0.287293 -0.723219 -0.0808376 202 
0.28682 -0.722879 -0.0800966 203 
0.286489 -0.722642 -0.0793096 199 
0.285971 -0.722269 -0.0785866 193 
0.285175 -0.721695 -0.0779596 197 
0.285221 -0.721731 -0.0770486 197 
0.2855 -0.721936 -0.0760566 195 
0.284335 -0.721094 -0.0755626 193 
0.284335 -0.721097 -0.0746666 196 
0.28401 -0.720864 -0.0738846 192 
0.283872 -0.720766 -0.0730376 194 
0.283456 -0.720467 -0.0722896 195 
0.282579 -0.719835 -0.0717066 195 
0.282213 -0.719572 -0.0709446 193 
0.281663 -0.719176 -0.0702496 193 
0.281711 -0.719214 -0.0693386 191 
0.281301 -0.718919 -0.0685946 189 
0.281121 -0.718791 -0.0677676 188 
0.281078 -0.718763 -0.0668886 188 
0.28099 -0.718701 -0.0660266 186 
0.27999 -0.717979 -0.0655086 185 
0.279448 -0.717589 -0.0648196 183 
0.279044 -0.717299 -0.0640816 183 
0.278958 -0.717239 -0.0632216 185 
0.278736 -0.717081 -0.0624136 187 
0.278832 -0.717153 -0.0614826 188 
0.27843 -0.716865 -0.0607446 187 
0.278255 -0.71674 -0.0599196 180 
0.278352 -0.716813 -0.0589866 180 
0.277952 -0.716525 -0.0582496 179 
0.277553 -0.716239 -0.0575146 177 
0.27783 -0.716442 -0.0565076 175 
0.277567 -0.716254 -0.0557176 170 
0.276945 -0.715806 -0.0550756 181 
0.277088 -0.715912 -0.0541206 177 
0.277231 -0.716018 -0.0531636 167 
0.27697 -0.715831 -0.0523736 169 
0.277881 -0.716494 -0.0510936 165 
0.277439 -0.716176 -0.0503786 167 
0.277223 -0.716022 -0.0495686 170 
0.277233 -0.716032 -0.0486626 167 
0.277514 -0.716238 -0.0476396 169 
0.277616 -0.716314 -0.0466926 168 
0.277356 -0.716129 -0.0459006 163 
0.277729 -0.716402 -0.0448316 172 
0.277605 -0.716315 -0.0439796 169 
0.277346 -0.716129 -0.0431866 164 
0.277269 -0.716075 -0.0423136 164 
0.277508 -0.716251 -0.0412996 170 
0.277657 -0.716362 -0.0403226 168 
0.277399 -0.716177 -0.0395286 171 
0.277685 -0.716387 -0.0384886 163 
0.277654 -0.716367 -0.0375896 163 
0.277714 -0.716413 -0.0366496 155 
0.278002 -0.716624 -0.0356026 159 
0.278108 -0.716704 -0.0346376 162 
0.278352 -0.716884 -0.0336066 160 
0.278323 -0.716865 -0.0327026 152 
0.278203 -0.71678 -0.0318396 154 
0.278174 -0.716762 -0.0309346 148 
0.278511 -0.717009 -0.0298536 150 
0.278803 -0.717223 -0.0287916 146 
0.278867 -0.717272 -0.0278366 149 
0.278886 -0.717288 -0.0269036 147 
0.279043 -0.717404 -0.0259016 149 
0.279338 -0.717621 -0.0248306 146 
0.279036 -0.717405 -0.0240506 142 
