0.488658,0.00602351,0.207237,102
0.488117,0.00607468,0.208015,104
0.488627,0.006022,0.20925,108
0.489139,0.00596911,0.210489,106
0.489984,0.00588335,0.211878,102
0.490501,0.00582997,0.213126,97
0.490954,0.00578297,0.214349,92
0.491274,0.00574896,0.215516,91
0.49113,0.00576094,0.216476,94
0.490055,0.00586482,0.217017,102
0.490642,0.00580449,0.218308,103
0.491966,0.00567128,0.219938,98
0.447889,0.00744991,-0.211953,6
0.445365,0.00771181,-0.209808,7
0.445754,0.00766902,-0.209056,5
0.446308,0.00760894,-0.208382,5
0.445275,0.00771489,-0.20696,5
0.4455,0.00768919,-0.206132,5
0.444473,0.00779457,-0.204721,9
0.44557,0.00767767,-0.2043,9
0.447221,0.00750277,-0.204132,7
0.446351,0.00759167,-0.202799,5
0.444128,0.00782227,-0.200851,5
0.447905,0.00742476,-0.201646,9
0.4483,0.00738135,-0.200893,7
0.445787,0.00764231,-0.198827,8
0.445253,0.00769613,-0.197661,6
0.447174,0.00749293,-0.197596,7
0.447733,0.0074323,-0.196918,9
0.444581,0.00776022,-0.194595,7
0.445514,0.00766036,-0.194087,8
0.445798,0.00762856,-0.193291,8
0.441716,0.00805394,-0.190588,6
0.443497,0.00786532,-0.190451,5
0.444914,0.00771494,-0.19015,7
0.441811,0.00803776,-0.187899,10
0.442949,0.00791659,-0.187477,12
0.440301,0.00819188,-0.185439,12
0.441537,0.00806035,-0.185059,11
0.439488,0.00827293,-0.183289,8
0.43793,0.00843409,-0.181735,7
0.439205,0.00829842,-0.181371,13
0.438226,0.00839897,-0.180066,10
0.436628,0.00856434,-0.17851,14
0.436647,0.00856037,-0.177626,14
0.437602,0.00845828,-0.177127,11
0.4383,0.00838317,-0.176519,17
0.435309,0.00869455,-0.174415,12
0.436051,0.00861471,-0.173829,13
0.435246,0.00869707,-0.17262,15
0.434702,0.00875214,-0.171519,15
0.433699,0.00885523,-0.170239,19
0.433925,0.00882953,-0.16945,18
0.433998,0.00881987,-0.1686,19
0.433766,0.0088423,-0.167631,19
0.433177,0.00890202,-0.166526,18
0.43422,0.00879068,-0.166055,19
0.431804,0.00904196,-0.164249,21
0.431778,0.00904276,-0.163369,21
0.431096,0.00911221,-0.16224,20
0.431121,0.00910763,-0.161383,20
0.430644,0.0091557,-0.160336,24
0.430469,0.00917209,-0.159406,28
0.430045,0.00921466,-0.158384,27
0.431123,0.00909954,-0.157922,25
0.429548,0.00926278,-0.156478,30
0.429227,0.00929455,-0.1555,31
0.428162,0.00940424,-0.154254,35
0.428984,0.00931615,-0.153697,36
0.428813,0.00933208,-0.152779,35
0.427951,0.00942064,-0.151614,32
0.428029,0.00941048,-0.15079,36
0.427762,0.00943654,-0.149843,37
0.428979,0.00930696,-0.149421,35
0.42792,0.00941608,-0.148197,36
0.427655,0.00944201,-0.147255,37
0.429069,0.00929168,-0.146896,33
0.427618,0.00944202,-0.145546,38
0.427453,0.00945746,-0.144642,44
0.428223,0.00937469,-0.144059,38
0.428156,0.00937977,-0.143189,41
0.427499,0.00944679,-0.142122,42
0.428123,0.00937947,-0.141486,43
0.427959,0.00939477,-0.140587,45
0.428337,0.00935318,-0.139869,41
0.428469,0.00933739,-0.139068,43
0.428256,0.00935777,-0.138156,46
0.428586,0.00932122,-0.137421,45
0.428473,0.0093312,-0.136542,43
0.428213,0.00935663,-0.135618,41
0.428248,0.00935102,-0.134789,37
0.42794,0.00938148,-0.133852,44
0.429256,0.00924134,-0.133428,44
0.428651,0.00930294,-0.132399,46
0.429132,0.0092506,-0.13171,49
0.429169,0.0092448,-0.130883,47
0.429404,0.00921823,-0.130117,49
0.429442,0.00921237,-0.12929,44
0.430024,0.00914935,-0.128629,40
0.43031,0.0091174,-0.127878,44
0.430845,0.00905931,-0.1272,42
0.430338,0.00911061,-0.126211,52
0.430824,0.00905767,-0.125518,57
0.430864,0.00905158,-0.124693,55
0.430755,0.00906109,-0.123825,58
0.431342,0.00899753,-0.12316,57
0.430788,0.00905392,-0.122165,57
0.431176,0.00901117,-0.121441,59
0.431168,0.0090101,-0.120605,52
0.431161,0.00900899,-0.119769,55
0.431551,0.00896609,-0.119045,57
0.431992,0.00891785,-0.118334,62
0.431688,0.008948,-0.117417,62
0.432329,0.00887872,-0.11676,65
0.432573,0.00885122,-0.115993,72
0.432467,0.00886037,-0.115132,74
0.432862,0.00881703,-0.114405,71
0.433157,0.00878411,-0.113651,68
0.433103,0.00878791,-0.112805,69
0.433599,0.00873383,-0.112103,63
0.433196,0.00877438,-0.111166,62
0.433193,0.0087728,-0.110335,65
0.43354,0.00873438,-0.109594,67
0.433588,0.00872746,-0.108776,75
0.433637,0.0087205,-0.107959,75
0.434186,0.00866081,-0.107267,78
0.433685,0.00871169,-0.106313,85
0.434386,0.0086361,-0.105657,92
0.434486,0.00862368,-0.104853,91
0.434989,0.00856892,-0.104146,91
0.435594,0.00850341,-0.103463,95
0.435746,0.00848551,-0.102669,97
0.435848,0.00847286,-0.101864,97
0.4358,0.00847609,-0.101024,98
0.436156,0.00843679,-0.100278,97
0.436108,0.00843994,-0.0994385,102
0.436212,0.0084271,-0.0986344,101
0.436468,0.00839825,-0.097865,104
0.436624,0.00837998,-0.0970724,99
0.436629,0.00837763,-0.096246,106
0.437089,0.00832729,-0.095521,105
0.437348,0.00829817,-0.0947504,109
0.437151,0.00831702,-0.0938804,113
0.437767,0.0082504,-0.0931865,108
0.438078,0.00821572,-0.0924259,103
0.438136,0.00820774,-0.091611,106
0.438551,0.00816218,-0.0908712,102
0.439121,0.00810038,-0.0901623,107
0.438925,0.00811911,-0.0892943,110
0.439087,0.00810017,-0.0885005,122
0.439046,0.00810267,-0.0876654,115
0.439669,0.00803518,-0.0869639,113
0.439577,0.00804298,-0.0861188,111
0.440151,0.00798065,-0.0854052,114
0.440317,0.00796138,-0.0846104,117
0.440894,0.00789876,-0.0838947,119
0.440854,0.00790101,-0.0830598,128
0.441176,0.00786527,-0.0822936,131
0.441395,0.00784031,-0.0815075,135
0.441512,0.00782613,-0.080702,141
0.441372,0.00783903,-0.0798496,138
0.441541,0.00781932,-0.0790541,139
0.441711,0.00779955,-0.0782586,131
0.442037,0.0077634,-0.0774903,141
0.442777,0.00768352,-0.076794,141
0.442639,0.00769625,-0.0759429,141
0.442967,0.00765981,-0.0751727,138
0.443452,0.00760685,-0.0744283,136
0.443574,0.0075921,-0.0736216,135
0.443541,0.00759371,-0.0727892,138
0.444081,0.00753499,-0.0720511,141
0.444257,0.00751455,-0.0712525,148
0.444642,0.00747205,-0.0704871,150
0.444507,0.00748446,-0.0696382,150
0.445312,0.00739773,-0.0689372,149
0.444968,0.00743211,-0.0680562,149
0.445147,0.00741133,-0.0672566,151
0.445642,0.00735736,-0.0665041,154
0.445665,0.00735299,-0.0656802,152
0.446688,0.00724338,-0.0650031,156
0.446502,0.00726107,-0.0641475,154
0.446685,0.00723989,-0.0633456,156
0.446975,0.00720752,-0.0625584,158
0.447159,0.00718618,-0.0617559,159
0.447609,0.00713694,-0.0609894,158
0.448006,0.00709313,-0.0602145,159
0.44814,0.00707711,-0.0594033,165
0.448116,0.00707778,-0.058571,163
0.448835,0.00700014,-0.0578356,166
0.448971,0.0069839,-0.0570232,163
0.449161,0.00696198,-0.0562174,165
0.449778,0.00689506,-0.0554643,166
0.449916,0.00687858,-0.0546506,161
0.449789,0.00689016,-0.0538046,163
0.45073,0.00678904,-0.0530862,167
0.451139,0.00674406,-0.0523023,165
0.451173,0.00673857,-0.0514742,163
0.451047,0.00674998,-0.0506282,166
0.451941,0.00665375,-0.0498963,173
0.452354,0.00660829,-0.0491087,178
0.452769,0.0065627,-0.04832,173
0.45259,0.00657966,-0.0474675,170
0.452736,0.00656239,-0.0466494,168
0.453099,0.00652224,-0.0458532,164
0.453896,0.00643622,-0.0450993,163
0.454207,0.00640149,-0.044295,168
0.45452,0.00636664,-0.0434898,167
0.454506,0.00636615,-0.0426531,162
0.45482,0.00633113,-0.0418468,163
0.454591,0.00635348,-0.0409905,164
0.455615,0.00624348,-0.0402463,161
0.45692,0.00610393,-0.0395228,168
0.456086,0.00618996,-0.0386132,172
0.457395,0.00605,-0.0378847,171
0.456781,0.00611291,-0.0369956,169
0.456662,0.00612349,-0.0361482,169
0.457149,0.00607022,-0.0353483,167
0.457803,0.00599932,-0.0345594,159
0.457962,0.00598064,-0.0337318,165
0.457956,0.00597937,-0.032892,159
0.458503,0.0059197,-0.032091,163
0.458056,0.00596497,-0.0312205,164
0.459104,0.00585249,-0.0304508,163
0.459711,0.00578645,-0.029649,167
0.459875,0.00576722,-0.0288174,168
0.460263,0.00572438,-0.0279989,166
0.460429,0.00570497,-0.027166,167
0.460372,0.00570904,-0.0263201,172
0.460372,0.00570716,-0.0254776,171
0.460875,0.00565214,-0.0246619,172
0.461379,0.00559694,-0.0238447,172
0.462335,0.00549407,-0.0230479,171
0.462845,0.00543838,-0.0222265,172
0.463073,0.00541231,-0.0213905,170
0.463246,0.00539211,-0.0205513,171
0.463194,0.00539569,-0.0197021,173
0.463312,0.0053813,-0.0188601,172
0.463601,0.00534892,-0.0180242,175
0.46389,0.00531643,-0.0171874,173
0.46418,0.00528382,-0.0163496,181
0.464302,0.00526909,-0.0155053,179
0.464537,0.00524228,-0.0146641,180
0.464603,0.00523338,-0.0138172,177
0.465752,0.00511008,-0.0129995,176
0.465306,0.00515524,-0.0121374,180
0.466174,0.00506164,-0.0113076,181
0.466358,0.00504029,-0.01046,181
0.466428,0.00503097,-0.00960948,183
0.467014,0.00496703,-0.00876794,180
0.466742,0.00499391,-0.00791061,183
0.466929,0.00497221,-0.00706078,181
0.467059,0.0049565,-0.00620958,182
0.466961,0.00496497,-0.00535558,181
0.467035,0.00495517,-0.00450342,182
0.467225,0.00493315,-0.00365175,181
0.467474,0.00490496,-0.00279967,178
0.467781,0.00487057,-0.00194683,179
0.468204,0.00482387,-0.00109297,185
0.467879,0.00485632,-0.000238181,180
0.467727,0.00487039,0.000615881,175
0.468441,0.00479295,0.00147337,175
0.468927,0.00473969,0.00233207,176
0.468026,0.00483299,0.00318105,175
0.46805,0.00482849,0.00403614,170
0.469232,0.00470163,0.00490528,172
0.469199,0.00470309,0.00576199,174
0.469052,0.00471672,0.0066168,172
0.469195,0.00469965,0.00747623,169
0.468876,0.0047315,0.00832723,169
0.469194,0.0046959,0.00919072,167
0.469281,0.00468471,0.0100501,171
0.469369,0.00467345,0.0109099,174
0.4694,0.00466824,0.0117685,182
0.469548,0.00465067,0.0126307,183
0.46958,0.0046453,0.01349,184
0.469497,0.00465214,0.0143458,192
0.469183,0.00468345,0.0151934,194
0.469101,0.00469013,0.0160483,196
0.46902,0.00469673,0.0169031,199
0.468998,0.00469712,0.01776,199
0.468977,0.00469744,0.018617,199
0.468898,0.00470381,0.0194715,200
0.469168,0.00467332,0.0203418,203
0.469439,0.00464271,0.0212132,208
0.469362,0.00464887,0.0220686,209
0.468996,0.00468563,0.0229091,208
0.467247,0.00486878,0.023675,208
0.467116,0.00488074,0.0245233,210
0.467734,0.00481345,0.0254138,209
0.46697,0.00489227,0.0262258,209
0.467014,0.00488576,0.0270839,210
0.466885,0.00489742,0.0279316,213
0.466585,0.00492722,0.028768,214
0.466516,0.00493264,0.0296187,215
0.466218,0.00496225,0.0304538,212
0.46615,0.00496752,0.031304,213
0.465968,0.00498483,0.032146,213
0.465958,0.00498389,0.0330002,215
0.465778,0.00500104,0.0338416,218
0.464629,0.00512075,0.0346077,215
0.463091,0.00528173,0.0353388,214
0.462858,0.00530445,0.0361703,217
0.462795,0.00530915,0.0370152,216
0.462339,0.00535558,0.0378266,215
0.46239,0.00534819,0.0386807,216
0.462273,0.00535864,0.0395202,218
0.462157,0.00536901,0.0403597,216
0.461311,0.00545669,0.0411315,217
0.459354,0.00566211,0.0417958,218
0.459074,0.00568982,0.0426141,218
0.458851,0.00571155,0.0434372,217
0.458628,0.00573319,0.0442597,219
0.459796,0.00560755,0.0452231,217
0.458463,0.00574688,0.0459321,217
0.457745,0.00582104,0.0467012,217
0.45615,0.0059881,0.0473738,218
0.456207,0.00598012,0.0482212,219
0.455772,0.00602437,0.0490142,217
0.455775,0.00602207,0.0498556,223
0.455561,0.00604292,0.0506721,222
0.455019,0.00609844,0.05145,220
0.454751,0.00612489,0.0522587,214
0.452585,0.00635252,0.052838,212
0.453947,0.00620633,0.053841,215
0.453248,0.00627847,0.0545935,213
0.452985,0.00630447,0.0553986,210
0.451805,0.00642765,0.0560858,209
0.451491,0.00645908,0.0568812,207
0.451177,0.0064904,0.0576759,207
0.451133,0.00649316,0.0585058,206
0.451412,0.00646167,0.0593796,210
0.451262,0.00647571,0.0601958,211
0.450844,0.00651815,0.0609745,206
0.449785,0.00662854,0.0616615,208
0.449424,0.00666494,0.0624447,203
0.448585,0.00675201,0.0631577,203
0.448439,0.0067656,0.0639695,193
0.448293,0.00677912,0.0647814,190
0.448202,0.00678695,0.0656011,189
0.448058,0.00680034,0.0664128,189
0.448073,0.00679679,0.0672491,186
0.447454,0.00686062,0.0679865,187
0.447682,0.0068345,0.0688561,183
0.447805,0.00681953,0.0697102,186
0.447823,0.00681573,0.070548,183
0.447524,0.00684562,0.0713343,186
0.447702,0.00682484,0.0721991,188
0.447456,0.00684898,0.0729939,186
0.44737,0.00685619,0.0738153,185
0.447921,0.00679584,0.074746,188
0.448102,0.00677476,0.075615,189
0.447858,0.00679872,0.0764107,187
0.447934,0.0067888,0.0772625,192
0.44801,0.00677881,0.0781152,195
0.448087,0.00676875,0.0789687,190
0.448164,0.00675863,0.0798231,196
0.448189,0.00675409,0.0806685,192
0.448002,0.00677208,0.0814748,191
0.448134,0.00675613,0.0823411,187
0.44816,0.0067514,0.0831883,187
0.448241,0.00674097,0.0840465,183
0.448322,0.00673046,0.0849055,184
0.448297,0.00673121,0.0857445,184
0.448219,0.00673757,0.0865734,181
0.448195,0.0067382,0.0874133,178
0.448331,0.00672179,0.0882861,181
0.448682,0.00668262,0.0892035,180
0.44866,0.00668307,0.090046,176
0.448745,0.00667211,0.0909113,183
0.449098,0.00663266,0.0918336,183
0.449238,0.00661585,0.0927127,178
0.449164,0.00662176,0.0935472,171
0.449359,0.00659912,0.0944398,171
0.449501,0.00658211,0.0953222,171
0.449644,0.00656502,0.0962058,174
0.449734,0.00655356,0.0970788,177
0.449986,0.00652489,0.0979888,179
0.450454,0.00647317,0.0989492,175
0.449952,0.00652453,0.0996915,183
0.450692,0.00644398,0.100717,174
0.450569,0.00645513,0.101546,176
0.450284,0.00648345,0.102338,175
0.450703,0.00643705,0.103295,179
0.451665,0.0063328,0.104382,184
0.451707,0.00632644,0.105254,181
0.451531,0.00634313,0.106075,175
0.4519,0.00630196,0.107027,178
0.45238,0.00624905,0.108009,180
0.452205,0.00626562,0.108832,181
0.452578,0.00622411,0.10979,179
0.452568,0.00622316,0.110655,180
0.452614,0.00621635,0.111534,175
0.452988,0.00617454,0.112498,182
0.453145,0.00615593,0.113409,180
0.453083,0.00616058,0.114263,179
0.45324,0.00614183,0.115176,179
0.454169,0.00604107,0.116292,176
0.453668,0.00609241,0.117034,177
0.453993,0.00605584,0.117995,176
0.454209,0.00603089,0.118929,177
0.454095,0.00604108,0.119775,178
0.454036,0.00604534,0.120636,174
0.454364,0.00600845,0.121603,175
0.454749,0.00596553,0.122589,171
0.454581,0.00598141,0.123422,171
0.455578,0.00587333,0.124582,171
0.455856,0.0058418,0.125544,171
0.456079,0.0058161,0.126492,173
0.456638,0.00575463,0.127537,172
0.456975,0.00571678,0.128522,169
0.457032,0.00570863,0.129427,166
0.457147,0.00569445,0.13035,168
0.457374,0.00566826,0.131308,168
0.457489,0.00565393,0.132233,166
0.457718,0.00562757,0.133194,167
0.458117,0.00558311,0.134207,163
0.459367,0.00544811,0.13548,162
0.458579,0.00552986,0.136139,160
0.459095,0.00547294,0.137194,162
0.459613,0.00541581,0.138253,163
0.459336,0.00544322,0.139068,161
0.459571,0.00541616,0.140043,157
0.460377,0.00532832,0.141198,156
0.460386,0.00532531,0.142106,158
0.460796,0.00527964,0.143141,159
0.460863,0.00527041,0.14407,160
0.461448,0.00520617,0.145166,157
0.461977,0.00514781,0.146247,161
0.462392,0.00510151,0.147294,162
0.462578,0.00507965,0.148268,161
0.462764,0.00505772,0.149244,160
0.462547,0.0050788,0.150088,152
0.463256,0.00500125,0.15124,152
0.463155,0.00500994,0.152124,151
0.463402,0.00498151,0.153127,148
0.464291,0.00488479,0.154348,148
0.464482,0.00486229,0.155336,145
0.464792,0.00482725,0.156366,137
0.464809,0.00482326,0.157298,138
0.465942,0.00470052,0.158618,138
0.466315,0.00465876,0.159677,135
0.466217,0.00466709,0.160573,139
0.466296,0.00465654,0.161532,136
0.466375,0.00464594,0.162493,141
0.466987,0.00457863,0.163645,141
0.46778,0.00449207,0.164866,145
0.467922,0.00447486,0.165854,142
0.468361,0.00442586,0.166953,141
0.468863,0.00437033,0.168077,137
0.469186,0.00433373,0.169139,137
0.469391,0.00430976,0.170158,132
0.469837,0.00426014,0.171269,130
0.470645,0.00417184,0.172519,130
0.470853,0.0041475,0.173546,128
0.471667,0.00405861,0.174805,122
0.471878,0.00403402,0.175838,120
0.472089,0.00400933,0.176874,128
0.472849,0.00392618,0.178121,123
0.473429,0.00386219,0.179304,125
0.473643,0.00383712,0.180348,117
0.474595,0.00373346,0.181681,110
0.475614,0.00362268,0.183046,109
0.475524,0.00363006,0.183978,110
0.476239,0.00355166,0.185229,104
0.476398,0.00353251,0.186263,96
0.47693,0.00347353,0.187449,98
0.477652,0.00339438,0.188713,102
0.478816,0.0032681,0.190161,100
0.479419,0.0032015,0.191386,93
0.47971,0.00316826,0.192487,91
0.479876,0.00314836,0.193539,90
0.480928,0.00303392,0.194958,81
0.480716,0.00305433,0.195857,82
0.482347,0.00287808,0.197527,80
0.482901,0.00281672,0.198752,76
0.484422,0.00265226,0.200388,82
0.485177,0.00256946,0.201707,88
0.485611,0.00252086,0.202893,92
0.485722,0.00250669,0.203944,92
0.485835,0.00249245,0.204997,89
0.486272,0.00244348,0.206192,83
0.486972,0.00236649,0.207503,91
0.487087,0.00235196,0.208564,88
0.487595,0.00229548,0.209798,90
0.487973,0.00225279,0.210978,91
0.48888,0.00215377,0.212394,93
0.488537,0.00218802,0.21326,98
0.488853,0.00215194,0.21442,99
0.489832,0.00204518,0.21588,94
0.489953,0.00202995,0.216958,89
0.49034,0.00198631,0.218158,81
0.490396,0.001978,0.21921,78
0.447437,0.00398792,-0.211715,5
0.447607,0.00396662,-0.210855,6
0.445091,0.00424777,-0.208719,6
0.444064,0.00436118,-0.2073,5
0.447403,0.00398315,-0.207939,6
0.4473,0.0039927,-0.206953,5
0.446319,0.00410098,-0.20556,4
0.444149,0.00434319,-0.203619,7
0.445461,0.00419336,-0.203298,5
0.44341,0.00442222,-0.201425,8
0.444717,0.00427288,-0.201099,9
0.444077,0.0043429,-0.199881,7
0.448014,0.00389743,-0.200743,7
0.450512,0.00361389,-0.20094,7
0.441531,0.00462344,-0.195967,8
0.445364,0.00418952,-0.196767,6
0.444562,0.00427776,-0.195487,8
0.445549,0.00416449,-0.195004,7
0.444208,0.00431355,-0.19349,9
0.44541,0.00417601,-0.1931,7
0.442674,0.00448216,-0.190985,10
0.443814,0.00435159,-0.190568,11
0.441687,0.00458926,-0.188733,9
0.440639,0.00470529,-0.187373,9
0.440548,0.00471348,-0.186428,11
0.443119,0.00442168,-0.186619,9
0.440843,0.00467605,-0.184744,13
0.441177,0.00463636,-0.183981,13
0.440664,0.00469219,-0.182861,12
0.439257,0.00484869,-0.181371,9
0.439274,0.0048447,-0.18048,9
0.43814,0.00497055,-0.179113,10
0.438471,0.00493113,-0.178355,13
0.438124,0.00496824,-0.177319,14
0.437362,0.00505216,-0.176116,10
0.437641,0.00501864,-0.175339,14
0.436416,0.00515478,-0.173954,13
0.436126,0.00518544,-0.172951,17
0.434655,0.00534933,-0.171478,16
0.434676,0.00534493,-0.170605,20
0.435056,0.00530001,-0.169875,18
0.434771,0.00533025,-0.168882,21
0.434588,0.00534885,-0.167931,14
0.433488,0.00547093,-0.166625,17
0.433256,0.00549502,-0.16566,21
0.43257,0.0055705,-0.164522,25
0.432442,0.00558295,-0.163601,23
0.432314,0.00559534,-0.162682,26
0.432187,0.00560769,-0.161765,22
0.430502,0.0057958,-0.160261,28
0.431029,0.00573438,-0.159594,30
0.430404,0.005803,-0.158496,27
0.429581,0.00589383,-0.157328,26
0.429608,0.00588886,-0.156478,26
0.429237,0.00592877,-0.155482,28
0.428718,0.00598533,-0.154435,27
0.429044,0.00594666,-0.153697,31
0.427736,0.00609227,-0.152369,33
0.427666,0.00609822,-0.151491,39
0.427252,0.00614301,-0.150491,38
0.428218,0.00603211,-0.149983,37
0.427311,0.00613248,-0.148812,38
0.427194,0.0061438,-0.147921,39
0.427667,0.00608851,-0.147238,42
0.427796,0.00607202,-0.146434,41
0.427041,0.00615532,-0.145326,36
0.427907,0.00605559,-0.144777,39
0.427594,0.00608896,-0.143824,38
0.428217,0.00601679,-0.143189,48
0.427806,0.00606123,-0.142205,50
0.427495,0.00609444,-0.141256,47
0.428019,0.00603334,-0.140587,44
0.427414,0.00609973,-0.139544,46
0.427546,0.00608295,-0.138745,48
0.428218,0.00600511,-0.138124,48
0.42781,0.00604926,-0.137149,44
0.428238,0.00599906,-0.136447,40
0.428371,0.0059821,-0.135649,46
0.428554,0.00595954,-0.134867,42
0.428491,0.00596472,-0.134007,43
0.42838,0.0059754,-0.133133,44
0.429204,0.00588043,-0.132553,43
0.429883,0.00580186,-0.131925,42
0.429524,0.00584043,-0.130974,46
0.430849,0.00568887,-0.130542,47
0.42955,0.00583372,-0.129305,54
0.429736,0.00581078,-0.128524,50
0.430269,0.00574869,-0.127848,51
0.430605,0.00570884,-0.127111,55
0.430001,0.00577519,-0.126094,61
0.43108,0.00565132,-0.125577,62
0.43013,0.00575683,-0.124461,60
0.430764,0.0056833,-0.123811,58
0.430606,0.00569919,-0.12293,59
0.430845,0.00567028,-0.122165,54
0.431234,0.00562448,-0.121441,61
0.431028,0.00564588,-0.120549,59
0.431864,0.00554944,-0.119951,65
0.431509,0.00558767,-0.119017,70
0.43195,0.00553599,-0.118306,71
0.431695,0.00556291,-0.117403,68
0.431639,0.0055673,-0.116556,68
0.43238,0.00548173,-0.115925,65
0.432524,0.00546354,-0.115132,69
0.432968,0.00541147,-0.114418,73
0.433413,0.00535926,-0.113704,75
0.432959,0.00540867,-0.112752,71
0.433305,0.00536769,-0.112012,70
0.433151,0.00538312,-0.111141,65
0.432999,0.00539849,-0.110271,63
0.434498,0.00522714,-0.109825,71
0.433294,0.00536138,-0.108687,76
0.434242,0.00525221,-0.108098,78
0.434091,0.00526748,-0.10723,82
0.43374,0.00530531,-0.106313,83
0.434189,0.00525255,-0.105596,84
0.434791,0.00518262,-0.104914,89
0.434791,0.00518071,-0.104085,92
0.435295,0.00512191,-0.103378,90
0.434994,0.00515402,-0.102477,98
0.435448,0.00510078,-0.101757,95
0.435853,0.0050531,-0.101024,95
0.435956,0.00503955,-0.100219,91
0.436262,0.00500311,-0.0994618,95
0.436113,0.005018,-0.0985998,95
0.436218,0.00500429,-0.0977962,99
0.436424,0.00497911,-0.0970156,96
0.43663,0.00495386,-0.0962348,96
0.437496,0.00485403,-0.0955994,103
0.437349,0.00486876,-0.0947393,107
0.437254,0.00487769,-0.0938914,108
0.437311,0.00486937,-0.0930772,112
0.43752,0.00484379,-0.0922959,115
0.438289,0.00475489,-0.0916325,112
0.438297,0.00475216,-0.0908071,116
0.438508,0.00472633,-0.0900246,111
0.438517,0.00472349,-0.0891999,116
0.439086,0.00465715,-0.0884901,111
0.439096,0.0046542,-0.0876654,113
0.43977,0.00457602,-0.0869741,115
0.439985,0.0045498,-0.0861898,114
0.439791,0.00456987,-0.0853248,115
0.440417,0.00449712,-0.0846204,124
0.44048,0.00448811,-0.0838057,134
0.440749,0.00445578,-0.0830305,138
0.440454,0.00448732,-0.0821482,138
0.440929,0.00443164,-0.0814114,137
0.441097,0.00441075,-0.0806164,131
0.441008,0.0044189,-0.0797743,129
0.441126,0.00440371,-0.0789703,136
0.441192,0.00439428,-0.0781571,135
0.441517,0.00435566,-0.0773898,133
0.441636,0.00434028,-0.0765857,136
0.441808,0.004319,-0.0757906,137
0.442703,0.00421574,-0.0751194,144
0.442669,0.00421771,-0.0742876,145
0.442739,0.0042079,-0.0734738,139
0.443275,0.00414522,-0.0727375,140
0.443606,0.00410589,-0.0719658,144
0.443938,0.00406644,-0.0711934,141
0.443958,0.00406225,-0.0703703,141
0.445074,0.00393399,-0.0697208,149
0.444521,0.00399472,-0.0688066,150
0.445326,0.00390162,-0.0681046,151
0.444983,0.00393863,-0.0672247,155
0.445686,0.00385711,-0.0665041,158
0.445867,0.00383474,-0.0657036,154
0.445838,0.00383606,-0.064872,158
0.445968,0.0038195,-0.0640637,160
0.44636,0.00377313,-0.063293,158
0.446649,0.00373855,-0.0625064,162
0.446833,0.00371579,-0.0617045,164
0.446965,0.00369892,-0.0608952,162
0.447414,0.00364615,-0.0601286,160
0.447971,0.00358123,-0.059375,157
0.448317,0.00354011,-0.0585919,165
0.448452,0.0035229,-0.0577804,164
0.448429,0.00352363,-0.0569485,163
0.448618,0.00350028,-0.0561438,166
0.44918,0.00343472,-0.0553849,168
0.449424,0.00340514,-0.0545854,170
0.449297,0.00341768,-0.0537405,170
0.450128,0.00332152,-0.0530101,171
0.450696,0.00325528,-0.0522461,167
0.450677,0.00325559,-0.0514127,166
0.4513,0.00318299,-0.0506524,165
0.451335,0.0031771,-0.0498247,166
0.451425,0.00316506,-0.049003,170
0.451569,0.00314686,-0.0481871,173
0.451767,0.0031225,-0.0473766,170
0.451966,0.00309804,-0.0465657,169
0.45265,0.00301854,-0.0458038,168
0.453283,0.00294486,-0.0450344,166
0.453701,0.0028955,-0.0442418,165
0.453363,0.00293199,-0.0433751,163
0.453242,0.00294385,-0.0425305,161
0.453933,0.00286357,-0.0417615,168
0.454572,0.00278915,-0.0409855,169
0.45505,0.00273299,-0.0401931,174
0.454985,0.0027385,-0.0393519,171
0.455247,0.00270686,-0.038539,166
0.455893,0.00263173,-0.0377572,166
0.455884,0.00263086,-0.03692,162
0.45593,0.00262371,-0.0360874,160
0.45636,0.00257302,-0.0352846,157
0.456846,0.00251595,-0.0344846,159
0.457389,0.00245244,-0.0336872,161
0.457383,0.00245121,-0.0328484,160
0.457873,0.00239367,-0.0320446,165
0.457979,0.00237978,-0.031213,166
0.458306,0.00234076,-0.0303958,166
0.458689,0.00229533,-0.0295811,166
0.459517,0.00219938,-0.028793,169
0.459016,0.00225438,-0.0279214,168
0.459736,0.00217077,-0.0271235,165
0.45979,0.00216265,-0.0262852,170
0.460235,0.00211024,-0.0254684,167
0.460458,0.00208298,-0.0246382,164
0.460627,0.00206195,-0.0238045,162
0.461131,0.00200279,-0.0229869,167
0.461917,0.00191158,-0.022181,175
0.462145,0.00188383,-0.0213468,173
0.462542,0.00183682,-0.0205192,177
0.463222,0.00175764,-0.0197021,177
0.463284,0.00174874,-0.0188578,175
0.463289,0.00174616,-0.0180112,174
0.463691,0.00169861,-0.0171791,176
0.463811,0.00168303,-0.0163359,181
0.464272,0.00162878,-0.0155034,179
0.464281,0.00162589,-0.0146554,178
0.464517,0.00159716,-0.013814,178
0.464697,0.00157477,-0.0129702,178
0.465446,0.00148767,-0.0121402,181
0.465116,0.00152325,-0.0112823,180
0.465983,0.00142285,-0.0104514,182
0.466396,0.00137403,-0.00960836,182
0.466695,0.00133806,-0.00876184,184
0.466709,0.00133452,-0.0079097,184
0.466896,0.00131136,-0.00705997,183
0.466969,0.00130114,-0.00620819,185
0.467043,0.00129084,-0.00535617,180
0.467174,0.00127393,-0.00450438,179
0.467135,0.0012765,-0.003651,176
0.467211,0.00126595,-0.00279832,174
0.467344,0.00124879,-0.00194552,174
0.467249,0.00125765,-0.001092,172
0.46796,0.00117495,-0.000238131,172
0.467521,0.0012229,0.000615251,172
0.468407,0.00112027,0.00147311,175
0.467968,0.00116816,0.00232572,172
0.468107,0.00115046,0.00318153,173
0.468882,0.00106045,0.00404437,172
0.468329,0.00112133,0.00489413,174
0.46847,0.00110335,0.00575152,174
0.468093,0.00114431,0.0066013,169
0.468005,0.00115239,0.00745482,165
0.468609,0.00108171,0.00832159,163
0.467888,0.00116177,0.00916232,168
0.468494,0.00109095,0.0100313,172
0.467947,0.00115118,0.0108736,173
0.468035,0.00113921,0.0117311,172
0.468355,0.00110091,0.0125957,174
0.468156,0.00112156,0.0134456,180
0.468247,0.00110934,0.0143043,182
0.468569,0.00107076,0.0151715,190
0.468661,0.00105834,0.0160315,195
0.468754,0.00104584,0.0168921,196
0.468443,0.00107927,0.0177369,201
0.468999,0.001014,0.018617,200
0.469036,0.00100782,0.0194766,201
0.46815,0.00110674,0.0202943,202
0.469171,0.000988619,0.0211994,206
0.468285,0.00108745,0.0220144,210
0.467749,0.00114656,0.022844,208
0.467156,0.00121199,0.0236689,209
0.467197,0.00120537,0.0245264,206
0.46678,0.00125093,0.0253583,203
0.466593,0.00127026,0.0262022,205
0.466407,0.0012895,0.0270457,207
0.466565,0.00126955,0.0279101,210
0.466495,0.00127559,0.0287607,210
0.465968,0.00133365,0.0295808,209
0.466071,0.00132001,0.0304421,211
0.465831,0.00134532,0.03128,214
0.465821,0.00134453,0.0321337,214
0.465812,0.00134366,0.0329875,216
0.465917,0.00132971,0.0338502,217
0.465623,0.0013612,0.0346827,214
0.463683,0.00158014,0.0353836,215
0.463224,0.00163048,0.0361977,215
0.462428,0.00171915,0.0369824,212
0.462423,0.00171784,0.0378314,215
0.462249,0.00173569,0.038666,214
0.461907,0.00177265,0.0394854,214
0.461735,0.00179031,0.040319,214
0.46106,0.00186532,0.0411057,216
0.460163,0.00196546,0.0418692,216
0.458883,0.00210939,0.0425928,215
0.458771,0.00212023,0.0434263,216
0.458604,0.0021373,0.0442542,216
0.458659,0.00212906,0.0451043,219
0.458494,0.00214598,0.0459321,217
0.457666,0.00223835,0.0466896,220
0.4558,0.00244903,0.0473327,217
0.455638,0.00246554,0.0481553,219
0.455313,0.00250065,0.0489595,217
0.455098,0.00252321,0.0497752,217
0.455102,0.00252082,0.0506156,216
0.455107,0.00251837,0.0514564,217
0.455167,0.00250962,0.052304,219
0.455009,0.00252568,0.0531259,215
0.45252,0.00280745,0.053662,218
0.452203,0.00284163,0.0544592,219
0.451941,0.00286957,0.0552624,215
0.451842,0.00287902,0.0560858,213
0.451958,0.00286387,0.0569371,215
0.453047,0.00273785,0.0579176,213
0.451439,0.0029192,0.0585417,209
0.451396,0.00292225,0.0593723,210
0.45146,0.00291297,0.060218,212
0.45056,0.00301372,0.0609297,208
0.449663,0.00311401,0.0616389,199
0.449996,0.00307419,0.0625211,197
0.44873,0.00321655,0.0631731,194
0.448372,0.00325549,0.063954,192
0.448121,0.00328223,0.0647498,188
0.447817,0.00331492,0.0655372,191
0.447832,0.00331132,0.0663724,189
0.447583,0.00333782,0.0671673,189
0.447335,0.00336423,0.0679617,187
0.447246,0.00337249,0.0687808,186
0.447105,0.00338671,0.0695916,181
0.447017,0.00339484,0.0704108,184
0.446719,0.00342696,0.0711957,182
0.447212,0.00336876,0.0721113,184
0.446598,0.00343688,0.0728432,181
0.446988,0.0033906,0.0737435,180
0.447378,0.00334416,0.0746459,185
0.447346,0.00334589,0.075477,185
0.446628,0.00342587,0.076188,186
0.447496,0.00332499,0.0771779,188
0.447096,0.00336877,0.0779442,187
0.446485,0.0034365,0.0786714,188
0.446615,0.00341986,0.0795321,188
0.447326,0.00333677,0.0805016,189
0.447775,0.0032836,0.0814251,189
0.447801,0.00327875,0.0822709,190
0.447509,0.00331017,0.0830566,184
0.447695,0.00328704,0.0839338,181
0.44751,0.00330622,0.08474,179
0.447591,0.00329507,0.0855982,180
0.447992,0.00324746,0.0865206,182
0.448127,0.00323007,0.087392,182
0.448264,0.0032126,0.0882645,177
0.447921,0.00324975,0.0890403,175
0.448218,0.00321393,0.0899471,170
0.448143,0.00322059,0.0907781,176
0.448442,0.00318458,0.0916878,180
0.448421,0.00318503,0.0925315,174
0.448775,0.00314273,0.0934556,175
0.448755,0.00314305,0.0943012,173
0.448789,0.0031372,0.0951589,172
0.448985,0.00311295,0.0960527,173
0.449181,0.00308861,0.096948,172
0.449003,0.00310703,0.0977608,173
0.4492,0.00308255,0.0986582,174
0.449506,0.00304571,0.0995815,175
0.44949,0.00304558,0.100433,175
0.449636,0.00302698,0.101322,173
0.449836,0.00300215,0.102225,175
0.449984,0.00298338,0.103117,174
0.450455,0.00292754,0.104087,174
0.45158,0.0027972,0.105215,175
0.451513,0.00280286,0.106062,173
0.451555,0.00279605,0.106935,181
0.450947,0.00286356,0.107649,175
0.451479,0.00280087,0.108644,177
0.452121,0.0027255,0.109668,177
0.452057,0.00273087,0.110518,177
0.451885,0.00274862,0.111342,176
0.452148,0.00271652,0.112276,169
0.452413,0.0026843,0.113212,171
0.452242,0.00270191,0.114037,172
0.451962,0.00273192,0.114834,174
0.45272,0.0026433,0.115903,174
0.452933,0.00261698,0.116831,176
0.453202,0.00258428,0.117775,174
0.453307,0.0025703,0.118678,171
0.453522,0.00254369,0.119611,170
0.453574,0.00253585,0.120501,169
0.453846,0.00250277,0.121452,167
0.453843,0.00250109,0.122329,165
0.454282,0.0024489,0.12333,168
0.454115,0.00246602,0.124163,168
0.454279,0.00244521,0.12509,169
0.454611,0.00240534,0.126066,167
0.455498,0.00230187,0.127202,169
0.455388,0.00231249,0.128056,169
0.455946,0.00224671,0.129103,164
0.456282,0.00220622,0.130089,169
0.45662,0.0021656,0.131077,169
0.456455,0.00218242,0.131918,162
0.45657,0.00216721,0.132843,165
0.457696,0.00203643,0.134072,161
0.457701,0.00203386,0.134968,165
0.457875,0.00201191,0.135916,162
0.458107,0.00198343,0.136883,159
0.458,0.00199357,0.137748,158
0.458289,0.00195848,0.138735,162
0.458636,0.0019168,0.139742,154
0.45921,0.00184904,0.140823,154
0.459105,0.00185898,0.141693,155
0.459683,0.00179091,0.142779,154
0.460833,0.00165722,0.144052,151
0.460501,0.00169319,0.144853,153
0.460626,0.00167679,0.145801,159
0.460924,0.00164068,0.146807,161
0.460478,0.00168961,0.147572,161
0.461006,0.00162717,0.148656,159
0.461593,0.00155791,0.149763,156
0.461779,0.00153452,0.150739,166
0.461966,0.00151104,0.151717,156
0.462385,0.00146105,0.152775,158
0.462805,0.00141089,0.153835,157
0.462937,0.00139371,0.1548,151
0.462896,0.00139636,0.155706,152
0.463493,0.00132592,0.156834,153
0.463511,0.00132179,0.157764,156
0.464636,0.00119087,0.159082,153
0.465592,0.00107932,0.160345,152
0.465906,0.00104131,0.161386,147
0.465222,0.0011175,0.162074,145
0.465889,0.00103906,0.163244,142
0.465969,0.00102774,0.164206,144
0.466994,0.000908264,0.165511,140
0.466958,0.000910296,0.166435,136
0.467989,0.000790071,0.16775,134
0.467895,0.00079878,0.168656,131
0.468217,0.000759765,0.169716,128
0.46848,0.000727445,0.170757,129
0.469462,0.00061284,0.172069,131
0.47039,0.000504505,0.173365,132
0.470056,0.000540516,0.174189,129
0.470084,0.000535168,0.175149,129
0.471439,0.000377789,0.176619,119
0.471893,0.00032369,0.177747,111
0.472166,0.000290269,0.178809,116
0.472561,0.000242799,0.179921,121
0.47308,0.000181191,0.181083,117
0.473112,0.000175339,0.182057,111
0.474185,5.02528e-005,0.183443,113
0.474402,2.31269e-005,0.184495,114
0.474682,-1.11413e-005,0.185573,105
0.475457,-0.000102049,0.186852,101
0.476296,-0.000200475,0.188162,97
0.476023,-0.000171354,0.189024,93
0.476867,-0.000270223,0.190342,95
0.477652,-0.00036242,0.19164,99
0.478378,-0.000447868,0.192918,99
0.479737,-0.0006058,0.194461,95
0.479399,-0.000569369,0.195306,93
0.479629,-0.000597943,0.196388,95
0.480682,-0.000720803,0.197817,94
0.480914,-0.00074971,0.198905,91
0.482102,-0.000888108,0.2004,82
0.482913,-0.000983312,0.201741,83
0.484178,-0.00113056,0.20328,87
0.484159,-0.00113076,0.204274,88
0.484464,-0.00116795,0.205408,88
0.485093,-0.00124232,0.206685,88
0.486049,-0.00135422,0.208109,87
0.486228,-0.00137707,0.209196,86
0.48706,-0.00147478,0.210574,85
0.487634,-0.0015429,0.211842,82
0.488211,-0.00161131,0.213114,89
0.488724,-0.00167243,0.214361,96
0.488119,-0.00160546,0.215109,104
0.487714,-0.00156123,0.215946,100
0.488622,-0.00166774,0.217378,88
0.489271,-0.00174448,0.218697,81
0.444826,0.000790412,-0.210455,3
0.446306,0.000609955,-0.210225,5
0.445437,0.000712527,-0.208875,6
0.444356,0.000840739,-0.207428,9
0.442689,0.00103962,-0.205711,5
0.447427,0.000466277,-0.207005,3
0.443351,0.000955554,-0.204166,5
0.445091,0.000743614,-0.204048,7
0.444665,0.000792861,-0.202921,10
0.445597,0.000678378,-0.202422,7
0.447958,0.000391575,-0.202575,4
0.447857,0.000401709,-0.201596,8
0.446387,0.00057681,-0.199997,8
0.442397,0.00105589,-0.197266,9
0.442783,0.00100723,-0.196521,8
0.443116,0.00096495,-0.195752,8
0.443021,0.000974414,-0.194791,8
0.444486,0.000795638,-0.194523,12
0.443582,0.000902575,-0.193205,12
0.442041,0.00108629,-0.191612,9
0.442482,0.0010311,-0.190892,11
0.441482,0.00114958,-0.189544,12
0.441922,0.00109446,-0.188825,11
0.44199,0.00108425,-0.187945,10
0.441898,0.00109327,-0.186997,10
0.441647,0.00112149,-0.185982,8
0.443208,0.000931014,-0.185739,9
0.442369,0.00103019,-0.184475,11
0.442225,0.0010455,-0.183508,12
0.44044,0.00125893,-0.181856,9
0.443004,0.000947409,-0.182023,10
0.440843,0.00120611,-0.180223,12
0.439282,0.00139251,-0.178679,11
0.437993,0.00154597,-0.177255,14
0.437128,0.00164834,-0.17601,12
0.43601,0.00178133,-0.174666,18
0.435463,0.0018453,-0.173558,15
0.434304,0.00198321,-0.172208,15
0.435401,0.00184872,-0.171765,16
0.43532,0.00185657,-0.17085,17
0.434777,0.00192008,-0.169753,19
0.43485,0.00190926,-0.168902,17
0.434208,0.00198481,-0.167771,22
0.434179,0.00198625,-0.166883,22
0.434049,0.00199996,-0.165956,23
0.43392,0.00201361,-0.165031,21
0.432675,0.00216199,-0.163679,19
0.433155,0.00210204,-0.162991,24
0.431915,0.0022497,-0.16165,19
0.431588,0.00228726,-0.160658,22
0.431161,0.00233683,-0.159632,24
0.430286,0.00244058,-0.15844,27
0.430262,0.00244148,-0.157569,32
0.429094,0.00258062,-0.156276,32
0.429469,0.00253339,-0.155555,29
0.428158,0.00268973,-0.154218,30
0.428186,0.00268442,-0.153373,33
0.428659,0.00262533,-0.152689,32
0.429382,0.00253614,-0.152094,34
0.427484,0.00276347,-0.150561,34
0.427661,0.00274017,-0.149773,33
0.427444,0.00276436,-0.148846,38
0.427229,0.00278847,-0.147921,37
0.4278,0.00271759,-0.147272,40
0.427437,0.00275946,-0.146298,34
0.427174,0.00278935,-0.14536,35
0.427009,0.00280732,-0.144457,39
0.426943,0.0028134,-0.14359,41
0.426926,0.00281353,-0.14274,42
0.427252,0.00277222,-0.142007,43
0.426844,0.00281956,-0.141027,44
0.426926,0.00280775,-0.140212,40
0.4274,0.0027486,-0.139528,37
0.427482,0.0027367,-0.138713,43
0.427125,0.00277799,-0.137755,41
0.427698,0.00270686,-0.137102,40
0.427634,0.00271261,-0.136241,42
0.428405,0.00261753,-0.135649,37
0.427362,0.00274169,-0.134476,42
0.429115,0.00252782,-0.134195,45
0.429004,0.00253943,-0.133319,42
0.429138,0.00252123,-0.132522,46
0.429421,0.00248511,-0.131771,48
0.428818,0.00255611,-0.130746,54
0.428757,0.00256158,-0.12989,56
0.429287,0.00249564,-0.129215,55
0.429325,0.00248914,-0.12839,54
0.429363,0.00248259,-0.127565,59
0.431132,0.00226678,-0.127259,57
0.430082,0.00239186,-0.126109,60
0.430468,0.00234335,-0.125387,66
0.429964,0.00240233,-0.124403,70
0.43035,0.00235378,-0.123681,62
0.430045,0.00238876,-0.122759,64
0.430382,0.00234609,-0.122023,58
0.430621,0.00231528,-0.121258,58
0.430861,0.00228441,-0.120493,56
0.430952,0.00227143,-0.119685,64
0.43149,0.00220447,-0.119003,68
0.431434,0.00220938,-0.118155,68
0.431131,0.00224419,-0.117239,72
0.432166,0.00211699,-0.116691,74
0.432409,0.00208569,-0.115925,73
0.432006,0.00213255,-0.114984,73
0.432648,0.00205303,-0.114325,76
0.433591,0.00193696,-0.113744,74
0.432839,0.00202618,-0.112713,78
0.433483,0.00194626,-0.112051,73
0.432981,0.00200516,-0.111089,70
0.433227,0.00197346,-0.110322,71
0.433474,0.00194168,-0.109556,75
0.432974,0.00200038,-0.108599,78
0.43352,0.00193233,-0.107908,83
0.433769,0.00190038,-0.107142,86
0.434168,0.00185019,-0.106412,87
0.434668,0.00178773,-0.105707,88
0.434217,0.00184043,-0.104767,89
0.434568,0.00179609,-0.104025,90
0.43502,0.00173948,-0.103305,90
0.435423,0.00168881,-0.102573,86
0.435676,0.00165629,-0.101805,86
0.435627,0.00166027,-0.100965,97
0.436133,0.00159713,-0.100255,101
0.435784,0.00163761,-0.0993455,103
0.435887,0.00162315,-0.0985421,105
0.435941,0.00161473,-0.0977276,104
0.436097,0.00159406,-0.0969361,100
0.436555,0.00153668,-0.0962122,95
0.43656,0.0015342,-0.0953868,100
0.436666,0.00151944,-0.094584,107
0.436975,0.00148015,-0.0938254,106
0.437133,0.00145914,-0.0930336,100
0.436988,0.0014748,-0.092177,101
0.437755,0.0013801,-0.0915143,102
0.437914,0.00135887,-0.0907219,103
0.438075,0.00133758,-0.0899295,112
0.438134,0.00132851,-0.0891162,113
0.438143,0.00132554,-0.0882929,116
0.439221,0.00119309,-0.087686,111
0.438976,0.00122089,-0.0868106,112
0.439241,0.00118688,-0.0860378,118
0.439558,0.0011466,-0.0852747,129
0.439467,0.00115572,-0.0844314,133
0.439734,0.00112148,-0.0836579,132
0.440053,0.00108095,-0.0828937,128
0.440168,0.00106513,-0.0820902,131
0.440796,0.000987148,-0.0813826,130
0.440451,0.00102708,-0.0804931,125
0.44067,0.000998643,-0.0797086,126
0.441301,0.000920334,-0.0789982,131
0.441419,0.000904149,-0.078194,136
0.441486,0.000894131,-0.0773807,140
0.441863,0.000846619,-0.0766219,144
0.441982,0.000830222,-0.0758175,140
0.442257,0.000795006,-0.0750396,138
0.442636,0.000747167,-0.0742789,138
0.442758,0.000730543,-0.0734738,139
0.443035,0.000695037,-0.0726946,139
0.443003,0.000697088,-0.0718638,138
0.443126,0.000680256,-0.0710589,145
0.443665,0.000613086,-0.0703204,145
0.443686,0.000608672,-0.0694982,146
0.443811,0.000591611,-0.0686927,147
0.444041,0.000561885,-0.0679032,148
0.444739,0.000475268,-0.0671849,154
0.445284,0.000407333,-0.0664411,156
0.445256,0.000408924,-0.0656101,157
0.44575,0.000347064,-0.0648566,157
0.445461,0.000380235,-0.0639878,157
0.446167,0.000292783,-0.0632629,157
0.445826,0.000332231,-0.0623878,154
0.446324,0.000269972,-0.0616313,155
0.44656,0.000239369,-0.0608373,154
0.447166,0.000164023,-0.0600929,156
0.447089,0.000171499,-0.0592551,157
0.447118,0.000166141,-0.0584318,162
0.447463,0.000122397,-0.05765,161
0.448178,3.36827e-005,-0.0569146,162
0.447681,9.21498e-005,-0.0560237,163
0.448187,2.88791e-005,-0.0552597,159
0.448694,-3.45953e-005,-0.0544944,161
0.448674,-3.39574e-005,-0.0536637,162
0.449237,-0.000104137,-0.0529027,164
0.450921,-0.000310483,-0.0522711,166
0.450155,-0.000219333,-0.0513514,168
0.451044,-0.000329089,-0.0506222,171
0.451293,-0.00036124,-0.0498187,170
0.451597,-0.000400001,-0.0490206,169
0.451365,-0.000373798,-0.048164,167
0.45167,-0.000412711,-0.0473653,168
0.451654,-0.000412668,-0.0465323,167
0.451961,-0.000451771,-0.0457326,165
0.452376,-0.00050405,-0.0449427,169
0.45344,-0.000635098,-0.0442153,169
0.453534,-0.000648447,-0.0433907,165
0.453467,-0.000642186,-0.0425508,164
0.453995,-0.000708238,-0.0417665,165
0.4542,-0.000734996,-0.0409511,169
0.454514,-0.000775027,-0.0401449,170
0.454612,-0.0007888,-0.0393189,168
0.454765,-0.00080925,-0.0384974,169
0.45481,-0.000816587,-0.0376666,170
0.45589,-0.000949687,-0.03692,167
0.456046,-0.000970466,-0.0360961,166
0.456475,-0.00102455,-0.0352931,165
0.456578,-0.00103888,-0.0344639,167
0.456845,-0.00107326,-0.0336467,168
0.457058,-0.00110109,-0.0328248,167
0.457218,-0.00112235,-0.0319984,160
0.457818,-0.00119714,-0.0312017,163
0.457814,-0.00119856,-0.0303629,167
0.458582,-0.00129382,-0.029574,168
0.45858,-0.00129539,-0.0287342,168
0.458577,-0.00129703,-0.0278945,165
0.459129,-0.00136593,-0.0270876,161
0.459128,-0.00136774,-0.0262473,164
0.459405,-0.00140327,-0.0254225,164
0.459849,-0.00145916,-0.0246056,167
0.460072,-0.0014882,-0.0237759,165
0.460575,-0.00155118,-0.0229593,165
0.461191,-0.00162795,-0.0221464,167
0.461026,-0.00160988,-0.0212955,169
0.461645,-0.00168696,-0.0204798,171
0.461314,-0.00164863,-0.0196219,169
0.462327,-0.00177368,-0.0188194,170
0.462726,-0.0018241,-0.0179897,171
0.463126,-0.00187468,-0.0171586,175
0.463754,-0.00195288,-0.0163339,179
0.464101,-0.00199698,-0.0154979,182
0.464903,-0.00209637,-0.0146746,179
0.464118,-0.00200297,-0.0138025,178
0.464581,-0.00206117,-0.0129671,179
0.464705,-0.00207817,-0.0121216,178
0.464887,-0.00210216,-0.011277,177
0.465239,-0.00214698,-0.0104355,179
0.465138,-0.00213663,-0.00958374,183
0.46612,-0.00225789,-0.00875168,182
0.466248,-0.00227542,-0.00790243,183
0.466206,-0.00227221,-0.00705033,178
0.467596,-0.00244315,-0.00621588,179
0.466809,-0.00234945,-0.00535381,175
0.466597,-0.00232562,-0.00449955,177
0.466729,-0.00234361,-0.00364836,174
0.467034,-0.0023826,-0.0027975,174
0.467053,-0.00238686,-0.0019447,173
0.467188,-0.00240515,-0.00109195,174
0.46738,-0.00243051,-0.000238634,175
0.467574,-0.00245598,0.000615408,175
0.468805,-0.00260771,0.00147497,180
0.468712,-0.00259838,0.00233057,182
0.467929,-0.00250504,0.00318009,176
0.468645,-0.00259403,0.00404202,179
0.468036,-0.00252189,0.00489065,178
0.468292,-0.00255497,0.00574911,174
0.468664,-0.00260221,0.00661041,176
0.468576,-0.00259341,0.007465,171
0.4682,-0.00254963,0.00831371,171
0.468401,-0.00257607,0.00917341,168
0.468373,-0.00257455,0.0100286,165
0.468172,-0.00255209,0.0108794,165
0.468203,-0.00255775,0.0117358,172
0.46858,-0.00260561,0.0126024,178
0.468208,-0.00256233,0.0134474,181
0.468299,-0.00257527,0.0143062,182
0.468332,-0.00258129,0.0151635,190
0.467905,-0.00253131,0.0160043,193
0.468459,-0.00260061,0.016881,192
0.467688,-0.00250875,0.0177069,196
0.468819,-0.0026484,0.0186097,201
0.468856,-0.00265487,0.019469,197
0.472096,-0.00305116,0.0204748,199
0.468875,-0.00266103,0.0211857,201
0.470248,-0.00283012,0.0221117,207
0.468319,-0.00259724,0.0228736,203
0.468706,-0.0026463,0.0237515,201
0.467192,-0.00246399,0.0245264,201
0.466546,-0.00238727,0.0253452,206
0.466474,-0.00238042,0.0261955,206
0.466231,-0.00235277,0.0270353,205
0.465932,-0.00231828,0.0278708,203
0.466205,-0.00235343,0.0287423,204
0.465907,-0.0023191,0.0295771,208
0.46561,-0.00228491,0.030411,206
0.465542,-0.00227859,0.03126,210
0.46576,-0.00230708,0.0321296,213
0.465751,-0.00230787,0.0329833,215
0.464944,-0.00221161,0.033777,214
0.464595,-0.00217104,0.0346033,213
0.462778,-0.00195163,0.035312,214
0.462265,-0.00189105,0.03612,209
0.462146,-0.00187853,0.0369591,210
0.462197,-0.00188663,0.0378123,215
0.462305,-0.00190167,0.0386709,215
0.462076,-0.0018757,0.0395003,216
0.461791,-0.001843,0.0403241,216
0.459444,-0.00155894,0.0409562,216
0.459553,-0.00157411,0.0418115,218
0.458996,-0.0015082,0.0426034,220
0.458828,-0.00148972,0.0434317,217
0.458606,-0.00146459,0.0442542,213
0.457943,-0.00138571,0.0450312,216
0.457118,-0.00128702,0.045789,215
0.457559,-0.00134275,0.0466779,216
0.455859,-0.00113752,0.0473386,217
0.455698,-0.00111973,0.0481613,220
0.455537,-0.00110203,0.0489838,217
0.455268,-0.00107111,0.0497938,216
0.455217,-0.00106688,0.0506282,216
0.455058,-0.00104943,0.05145,217
0.453542,-0.000866547,0.0521103,219
0.455015,-0.001048,0.0531259,219
0.45242,-0.000733545,0.0536488,215
0.45205,-0.000690332,0.0544391,212
0.452004,-0.000686579,0.0552692,216
0.451904,-0.000676343,0.0560927,215
0.45159,-0.000639976,0.0568882,213
0.451653,-0.000649545,0.0577326,215
0.451448,-0.000626442,0.0585417,211
0.451297,-0.00060997,0.0593577,210
0.451469,-0.000632845,0.060218,213
0.451159,-0.000596883,0.0610119,210
0.449567,-0.000404704,0.0616238,207
0.448941,-0.00033027,0.0623685,207
0.449539,-0.000405094,0.0632889,209
0.448702,-0.000304884,0.0640008,207
0.450475,-0.000522987,0.0650987,203
0.447513,-0.000163631,0.0654894,193
0.447369,-0.000148021,0.0662998,191
0.447385,-0.000151794,0.0671346,189
0.447137,-0.000123459,0.0679287,191
0.446837,-8.87925e-005,0.0687139,180
0.446065,3.45429e-006,0.0694228,180
0.44624,-1.97788e-005,0.0702827,181
0.446416,-4.3107e-005,0.0711439,182
0.446329,-3.444e-005,0.0719625,179
0.445928,1.26073e-005,0.0727284,178
0.445528,5.95146e-005,0.0734934,183
0.445863,1.67751e-005,0.0743835,180
0.446409,-5.17872e-005,0.0753121,184
0.44622,-3.06174e-005,0.076114,184
0.446348,-4.80338e-005,0.0769718,180
0.445844,1.14849e-005,0.0777174,187
0.446235,-3.81279e-005,0.0786237,181
0.446259,-4.29098e-005,0.0794646,179
0.446072,-2.20698e-005,0.0802671,183
0.446308,-5.26823e-005,0.0811483,188
0.44723,-0.000167213,0.0821608,185
0.447415,-0.000191694,0.0830364,186
0.447177,-0.000164557,0.0838317,188
0.447363,-0.000189177,0.0847091,183
0.447127,-0.000162168,0.0855045,183
0.447102,-0.000161073,0.0863416,179
0.447714,-0.000237689,0.0873068,181
0.448062,-0.000282139,0.0882214,180
0.447773,-0.000248815,0.0890077,179
0.447539,-0.000222067,0.0898046,176
0.447623,-0.000234274,0.0906674,174
0.448027,-0.000285507,0.0915982,173
0.447793,-0.000258914,0.092396,172
0.448252,-0.000316853,0.0933415,168
0.448179,-0.000309866,0.0941745,172
0.448053,-0.00029644,0.0949962,169
0.448354,-0.000335143,0.0959118,171
0.448656,-0.000373982,0.0968294,168
0.448906,-0.000406421,0.0977369,174
0.44921,-0.00044552,0.0986582,172
0.449033,-0.000425822,0.0994717,166
0.449071,-0.000432359,0.100334,167
0.449324,-0.000465162,0.101248,164
0.449201,-0.000452187,0.102075,169
0.449617,-0.000504847,0.103028,166
0.44971,-0.000518249,0.103908,172
0.449536,-0.000498877,0.104725,168
0.449577,-0.000505838,0.105593,170
0.449834,-0.000539168,0.106514,171
0.450145,-0.000579204,0.107451,171
0.450134,-0.000579804,0.10831,178
0.450988,-0.000686153,0.109384,177
0.450708,-0.000653825,0.110178,177
0.451023,-0.000694341,0.111122,176
0.451014,-0.00069522,0.111985,172
0.451766,-0.000789087,0.113044,174
0.451704,-0.000783466,0.113896,172
0.452296,-0.00085781,0.114919,175
0.452235,-0.000852311,0.115774,176
0.452284,-0.000860215,0.116657,179
0.45277,-0.000921641,0.117659,179
0.452929,-0.000943094,0.118575,177
0.452815,-0.000931147,0.119418,178
0.452866,-0.000939345,0.120307,173
0.453192,-0.000981135,0.121271,171
0.453354,-0.00100291,0.122193,166
0.453681,-0.00104496,0.123161,168
0.45423,-0.00111412,0.124194,167
0.454119,-0.00110249,0.125044,169
0.454339,-0.00113141,0.125987,173
0.454339,-0.0011334,0.126869,167
0.454727,-0.0011828,0.127864,168
0.454783,-0.0011917,0.128765,168
0.454784,-0.00119389,0.12965,165
0.455508,-0.00128439,0.130749,167
0.456179,-0.00136847,0.131836,169
0.456127,-0.00136408,0.13271,167
0.456577,-0.00142122,0.133736,165
0.457085,-0.00148542,0.134782,164
0.456866,-0.00146065,0.135609,168
0.457658,-0.00155947,0.136745,169
0.45772,-0.00156915,0.137661,164
0.457952,-0.00159955,0.13863,160
0.457847,-0.0015887,0.139496,156
0.457798,-0.00158479,0.14038,157
0.458144,-0.00162922,0.141389,159
0.458436,-0.00166689,0.142382,158
0.458898,-0.00172548,0.143433,159
0.458851,-0.00172182,0.144322,154
0.459088,-0.0017529,0.145303,156
0.459952,-0.00186066,0.146491,153
0.459508,-0.00180843,0.147254,159
0.459976,-0.00186772,0.148316,157
0.461075,-0.00200426,0.149591,157
0.460974,-0.00199396,0.15047,155
0.461102,-0.00201177,0.151427,159
0.461691,-0.00208592,0.152541,158
0.461879,-0.00211099,0.153521,156
0.462125,-0.00214321,0.154523,146
0.462141,-0.00214729,0.155448,145
0.462967,-0.00225048,0.156653,146
0.463159,-0.002276,0.157642,150
0.463003,-0.00225902,0.158511,141
0.463427,-0.0023131,0.159585,143
0.463737,-0.00235312,0.16062,147
0.464339,-0.00242898,0.161762,144
0.464535,-0.00245503,0.162761,143
0.464614,-0.00246685,0.16372,141
0.465397,-0.00256483,0.164935,130
0.466242,-0.00267047,0.166177,129
0.466737,-0.00273321,0.167294,133
0.466879,-0.00275271,0.168285,137
0.466962,-0.00276504,0.169255,130
0.467342,-0.00281371,0.170336,131
0.467664,-0.00285528,0.171399,133
0.467631,-0.00285332,0.17233,135
0.468371,-0.00294614,0.173554,133
0.468816,-0.00300278,0.17467,126
0.470102,-0.00316247,0.176111,124
0.470011,-0.00315343,0.177027,131
0.47022,-0.00318127,0.178061,126
0.470913,-0.0032683,0.179284,125
0.47258,-0.00347467,0.180892,130
