ply
format ascii 1.0
comment VCGLIB generated
element vertex 945
property float x
property float y
property float z
property float nx
property float ny
property float nz
property uchar red
property uchar green
property uchar blue
property uchar alpha
element face 0
property list uchar int vertex_indices
end_header
-2.633845 3.544408 2.642938 0 0 0 145 139 127 255 
-0.2865374 3.7218 2.409614 0 0 0 146 137 130 255 
-2.145105 -0.08078489 4.595274 0 0 0 174 158 137 255 
-0.5797729 5.304659 1.452766 0 0 0 173 164 149 255 
-0.3291915 1.235058 3.58756 0 0 0 187 134 164 255 
0.1700627 5.006714 1.860403 0 0 0 176 167 152 255 
-2.076523 3.573944 2.546687 0 0 0 163 156 146 255 
1.425261 4.594503 2.151913 0 0 0 127 124 119 255 
1.17837 3.922594 2.384695 0 0 0 147 135 121 255 
0.8411211 3.764416 2.541733 0 0 0 110 103 95 255 
1.213025 5.417879 1.451149 0 0 0 156 148 142 255 
-1.485986 3.030721 3.045027 0 0 0 84 79 76 255 
-1.545628 4.888537 1.64372 0 0 0 177 167 157 255 
1.454277 4.934052 1.949648 0 0 0 150 142 131 255 
-0.550781 0.4641298 4.297561 0 0 0 132 123 116 255 
-1.557694 0.5252238 4.316239 0 0 0 193 184 177 255 
-0.326134 5.337795 1.40997 0 0 0 131 118 109 255 
0.6903661 1.158823 3.996166 0 0 0 192 180 168 255 
-0.3016334 3.740136 2.356165 0 0 0 148 132 116 255 
-0.5956461 5.342573 1.427727 0 0 0 132 118 105 255 
0.7299864 5.433289 1.415707 0 0 0 107 98 91 255 
-0.1535337 1.486336 3.591935 0 0 0 193 194 173 255 
-0.9940849 3.04791 2.970248 0 0 0 132 124 121 255 
0.619375 5.201484 1.593944 0 0 0 176 167 158 255 
-2.249758 2.561449 3.210071 0 0 0 136 128 115 255 
-2.892047 5.775072 1.24157 0 0 0 147 134 117 255 
2.010019 3.814089 2.416057 0 0 0 105 97 94 255 
-1.703184 4.930884 1.713726 0 0 0 170 159 153 255 
-0.1175293 3.650913 2.442963 0 0 0 136 131 125 255 
-0.6752672 0.6523048 1.946919 0 0 0 86 88 83 255 
0.08971445 5.423411 1.391523 0 0 0 109 99 89 255 
-0.3064813 1.065132 3.249775 0 0 0 152 154 148 255 
-2.446369 3.527775 2.666847 0 0 0 192 185 175 255 
-0.2927221 2.530092 3.365063 0 0 0 156 148 145 255 
-1.262474 3.082249 2.990554 0 0 0 94 89 85 255 
1.96669 -0.8635591 5.143522 0 0 0 229 214 195 255 
0.9117194 2.635986 3.167262 0 0 0 174 165 160 255 
-3.762028 1.046914 4.048933 0 0 0 172 160 144 255 
-0.2021384 2.65952 3.101427 0 0 0 191 182 167 255 
0.03410611 3.671822 2.517573 0 0 0 135 128 122 255 
-1.458781 3.571504 2.452092 0 0 0 161 158 153 255 
-2.573564 2.410902 3.22604 0 0 0 156 149 139 255 
-0.4206674 5.180807 1.690524 0 0 0 164 155 148 255 
0.3381199 4.278546 2.004974 0 0 0 175 165 153 255 
-2.881322 2.847633 2.98895 0 0 0 180 165 142 255 
-0.7437849 2.525154 3.274143 0 0 0 115 110 106 255 
-3.245777 2.417076 3.214142 0 0 0 154 142 130 255 
-0.7728197 3.466297 2.507337 0 0 0 176 168 155 255 
-0.8154442 2.53932 3.248434 0 0 0 171 167 158 255 
1.660532 -1.031327 5.159575 0 0 0 219 203 178 255 
-0.5454533 3.086545 2.797022 0 0 0 207 202 198 255 
-2.008045 1.003241 3.999894 0 0 0 180 169 154 255 
-0.5074315 3.621528 2.441756 0 0 0 146 138 127 255 
2.593908 -0.5587323 4.841575 0 0 0 209 193 170 255 
-2.526358 3.486501 2.712449 0 0 0 175 168 160 255 
1.073982 2.750658 3.065602 0 0 0 181 174 168 255 
-2.442266 2.999053 2.824514 0 0 0 116 107 100 255 
-0.7141486 3.591994 2.445151 0 0 0 145 138 128 255 
1.97571 1.11009 3.987743 0 0 0 196 191 187 255 
1.668197 -0.4221937 4.701263 0 0 0 211 195 172 255 
-3.045045 2.587557 3.130157 0 0 0 116 106 94 255 
-1.729015 2.679 3.123188 0 0 0 92 90 91 255 
-1.323374 -2.551895 5.832876 0 0 0 164 143 112 255 
-2.259355 3.50086 2.691926 0 0 0 147 142 133 255 
-1.473861 2.441728 3.348557 0 0 0 134 125 115 255 
-0.1450012 2.817037 2.958758 0 0 0 166 157 149 255 
-0.9974293 2.755677 3.074923 0 0 0 178 170 159 255 
2.042839 1.434037 3.772781 0 0 0 199 183 158 255 
-2.486417 2.682793 3.172747 0 0 0 168 163 159 255 
-1.263531 -2.486298 5.801735 0 0 0 203 200 195 255 
1.089861 -1.548698 5.315114 0 0 0 191 174 154 255 
-0.6636958 0.5784081 1.477489 0 0 0 211 207 198 255 
-0.5886874 1.320984 3.659208 0 0 0 196 198 195 255 
0.7606132 -1.919902 5.842527 0 0 0 0 0 0 255 
0.3813619 1.022532 4.188265 0 0 0 159 147 123 255 
-3.863051 -1.963767 5.711745 0 0 0 0 0 0 255 
1.662157 3.989528 2.331001 0 0 0 0 0 0 255 
0.8431899 -1.215595 5.375341 0 0 0 0 0 0 255 
-2.318095 3.751033 2.384428 0 0 0 109 104 100 255 
-2.566422 3.751421 2.431841 0 0 0 179 172 162 255 
-0.2626047 3.928202 2.181739 0 0 0 142 135 127 255 
-1.660648 3.917691 2.368247 0 0 0 134 125 110 255 
-2.13998 4.121687 2.369691 0 0 0 160 150 138 255 
-1.775449 3.983577 2.339359 0 0 0 162 155 139 255 
1.62248 4.2071 2.28759 0 0 0 180 174 162 255 
-2.079406 3.972183 2.260107 0 0 0 178 170 159 255 
-1.445895 -0.8269184 4.875515 0 0 0 214 205 196 255 
2.39139 0.3298549 4.398754 0 0 0 188 172 147 255 
-0.2243815 4.118014 2.160478 0 0 0 165 158 148 255 
-2.495822 3.976884 2.266104 0 0 0 114 104 95 255 
-1.776274 3.843627 2.399416 0 0 0 161 149 132 255 
-0.3231623 1.214419 3.522155 0 0 0 223 220 209 255 
1.100146 4.196759 2.137111 0 0 0 126 121 115 255 
0.8634029 4.18668 2.127407 0 0 0 122 113 104 255 
1.336427 4.232686 2.15889 0 0 0 0 0 0 255 
-1.217929 4.091611 2.295507 0 0 0 149 143 131 255 
-0.5456033 1.330142 3.747769 0 0 0 58 67 85 255 
-0.3356923 4.144539 2.159412 0 0 0 176 170 161 255 
-1.793617 4.151704 2.294657 0 0 0 111 102 95 255 
-2.144701 4.142288 2.223916 0 0 0 125 114 104 255 
-2.706382 1.89876 3.550245 0 0 0 159 146 130 255 
-2.108386 4.179976 2.251672 0 0 0 107 95 83 255 
-3.232172 1.666204 3.757355 0 0 0 128 111 95 255 
-0.4007221 1.077108 3.338186 0 0 0 228 168 167 255 
1.118984 4.390489 2.079221 0 0 0 103 93 83 255 
-3.569429 2.671143 3.001502 0 0 0 161 149 133 255 
-2.048952 6.654108 0.7611956 0 0 0 102 89 73 255 
-0.7411802 4.967639 1.619132 0 0 0 158 151 140 255 
-1.20703 4.817001 1.629562 0 0 0 158 146 132 255 
-0.421888 1.573728 4.235149 0 0 0 229 181 218 255 
0.3530462 3.718546 2.545108 0 0 0 126 118 107 255 
-0.7727685 3.237423 2.695656 0 0 0 145 137 126 255 
0.1206246 -1.237147 5.342617 0 0 0 137 127 115 255 
-1.778337 4.576662 1.866388 0 0 0 160 150 138 255 
-1.971861 4.289205 2.203452 0 0 0 177 168 159 255 
-2.019269 1.463377 3.874323 0 0 0 108 104 103 255 
-1.595341 3.642315 2.412538 0 0 0 92 88 85 255 
-0.2521556 3.947211 2.182391 0 0 0 99 89 87 255 
-2.193277 2.860384 3.015223 0 0 0 173 164 155 255 
0.6464584 -0.3597028 4.852859 0 0 0 171 166 160 255 
-2.198467 3.960025 2.25661 0 0 0 119 109 97 255 
1.561529 4.548646 2.199183 0 0 0 130 125 121 255 
-0.5672358 0.7533909 2.630514 0 0 0 143 145 146 255 
-0.6741905 1.630121 3.487413 0 0 0 118 123 119 255 
-1.537645 3.389003 2.583924 0 0 0 160 148 134 255 
-1.069049 3.451449 2.550683 0 0 0 0 0 0 255 
0.7833315 0.9856831 4.141875 0 0 0 142 135 136 255 
-3.984684 -2.074777 5.919886 0 0 0 134 131 126 255 
-0.01192765 -0.2599745 4.78693 0 0 0 141 131 121 255 
3.659947 -1.260253 5.470768 0 0 0 164 160 157 255 
-0.3063154 0.7737419 1.613555 0 0 0 0 0 0 255 
-1.720141 3.214634 2.907714 0 0 0 113 115 114 255 
1.059958 -1.141592 5.206292 0 0 0 0 0 0 255 
-3.138309 -1.484239 5.462081 0 0 0 195 191 182 255 
1.000423 0.614799 4.203621 0 0 0 185 173 157 255 
0.271617 -0.6259521 4.895096 0 0 0 209 201 198 255 
2.772631 0.08545104 4.496695 0 0 0 206 201 197 255 
1.401399 -1.491926 5.384172 0 0 0 212 196 173 255 
-0.3821312 1.106166 2.276898 0 0 0 82 68 53 255 
-3.231816 -0.116387 4.620484 0 0 0 137 133 130 255 
-1.412818 1.757749 3.704794 0 0 0 164 157 149 255 
-0.1330521 1.54634 3.563826 0 0 0 130 78 80 255 
-3.246829 -0.1319416 4.654121 0 0 0 137 133 130 255 
-1.468344 -2.329996 5.733829 0 0 0 180 175 169 255 
1.730032 0.6846008 4.193344 0 0 0 199 191 188 255 
-2.349139 1.357021 3.880817 0 0 0 138 128 119 255 
-1.641711 0.4076366 4.443723 0 0 0 151 151 149 255 
1.485225 3.275413 2.902587 0 0 0 108 96 84 255 
-3.503722 0.2797503 4.600108 0 0 0 181 178 173 255 
-3.521905 0.2639735 4.643294 0 0 0 181 178 173 255 
-2.186504 0.5748073 4.32133 0 0 0 185 182 177 255 
2.226369 -0.4738529 4.670835 0 0 0 172 158 129 255 
2.045475 -0.7394866 5.051692 0 0 0 189 171 147 255 
1.850954 0.9448177 4.010045 0 0 0 172 164 161 255 
-0.2556553 3.151122 2.730857 0 0 0 167 159 150 255 
-1.38883 1.101835 4.111182 0 0 0 146 142 139 255 
-1.840395 1.372167 3.91275 0 0 0 188 181 171 255 
1.346341 2.434129 3.304738 0 0 0 183 174 169 255 
-0.4421669 1.670693 3.250041 0 0 0 161 97 124 255 
-0.4426174 1.670194 3.248803 0 0 0 161 97 124 255 
1.508207 1.158029 3.978474 0 0 0 167 167 165 255 
-1.368875 -2.258306 5.685106 0 0 0 216 212 203 255 
0.7659385 4.395724 2.040158 0 0 0 95 86 80 255 
-1.857787 2.173504 3.396993 0 0 0 186 179 171 255 
-0.6507379 0.8350607 1.997702 0 0 0 204 208 209 255 
-3.022599 2.165457 3.358866 0 0 0 195 190 182 255 
0.6302809 2.429403 3.419527 0 0 0 111 111 113 255 
-4.429617 3.481795 2.302814 0 0 0 155 148 141 255 
-1.325736 2.309345 3.452339 0 0 0 164 160 157 255 
-2.199459 1.985029 3.56747 0 0 0 180 176 167 255 
1.164116 2.613428 3.181806 0 0 0 168 158 156 255 
0.6995069 2.586196 3.251583 0 0 0 115 111 110 255 
2.603353 -0.190072 4.507586 0 0 0 200 184 159 255 
-2.573066 2.410944 3.227416 0 0 0 156 149 139 255 
-0.7431313 2.524506 3.279289 0 0 0 115 110 106 255 
-1.803631 3.844793 2.333917 0 0 0 161 154 142 255 
1.293313 2.81811 3.002449 0 0 0 162 158 155 255 
-0.5764724 1.296465 3.687585 0 0 0 172 158 132 255 
-2.422581 2.574004 3.245906 0 0 0 130 123 115 255 
-0.1412819 2.813458 2.985388 0 0 0 166 157 149 255 
-2.232367 3.810374 2.351036 0 0 0 0 0 0 255 
-1.6687 3.477788 2.540494 0 0 0 150 138 126 255 
-1.102195 2.94515 3.034562 0 0 0 125 118 108 255 
-2.4242 2.956074 2.838649 0 0 0 128 119 110 255 
-1.907984 -0.1872565 4.671193 0 0 0 182 169 153 255 
-2.438167 3.000173 2.815617 0 0 0 116 107 100 255 
-1.343861 3.075433 3.002903 0 0 0 104 103 101 255 
-0.3125966 0.6755801 2.582926 0 0 0 157 114 126 255 
1.86294 3.302213 2.879842 0 0 0 138 130 127 255 
-2.565545 3.368353 2.772171 0 0 0 179 173 161 255 
-1.698146 -0.5980597 4.881605 0 0 0 113 112 109 255 
1.685968 2.229201 3.4074 0 0 0 148 136 114 255 
-2.679559 3.385256 2.729244 0 0 0 164 157 147 255 
-2.470096 4.760923 1.802694 0 0 0 120 111 104 255 
-0.715123 3.592212 2.44555 0 0 0 145 138 128 255 
-1.520875 3.662915 2.402719 0 0 0 160 155 149 255 
0.8470668 0.3502136 4.303002 0 0 0 187 175 153 255 
-2.37141 3.63653 2.510043 0 0 0 177 170 160 255 
-1.640139 3.688484 2.396237 0 0 0 164 161 154 255 
-0.3533758 0.5937762 2.457245 0 0 0 110 46 56 255 
1.884666 3.994623 2.364969 0 0 0 140 136 127 255 
-2.143564 3.745157 2.379734 0 0 0 103 96 90 255 
-0.004772338 -1.088017 5.272086 0 0 0 193 180 164 255 
-2.566727 3.751211 2.43149 0 0 0 179 172 162 255 
-2.478476 4.246567 2.22848 0 0 0 118 109 102 255 
-1.743174 3.991543 2.350077 0 0 0 130 120 108 255 
0.4516963 -0.4865503 4.876756 0 0 0 176 168 157 255 
-0.1257626 0.8836825 2.51158 0 0 0 158 155 135 255 
-0.3356557 4.135736 2.123067 0 0 0 176 170 161 255 
1.301797 -0.8882397 4.953981 0 0 0 195 180 161 255 
-1.260611 4.1246 2.29057 0 0 0 145 136 127 255 
1.760212 4.376698 2.319057 0 0 0 102 93 84 255 
-3.288089 1.070611 4.061006 0 0 0 0 0 0 255 
-1.273058 -0.3788168 4.738321 0 0 0 214 205 196 255 
-2.111337 4.319608 2.184329 0 0 0 172 163 154 255 
-1.800319 2.955533 3.015945 0 0 0 190 185 179 255 
-0.6260511 4.618561 1.709438 0 0 0 124 111 102 255 
-0.8122963 4.509478 1.812974 0 0 0 180 170 158 255 
-2.615688 0.3814488 4.331944 0 0 0 177 166 160 255 
0.9602389 2.466754 3.354637 0 0 0 151 143 132 255 
2.506817 4.231441 2.340236 0 0 0 105 98 90 255 
1.355183 4.842937 1.914466 0 0 0 145 136 127 255 
0.5323305 2.768473 3.076073 0 0 0 162 146 130 255 
-1.053429 4.793999 1.612862 0 0 0 151 141 131 255 
0.9021059 2.323706 3.555128 0 0 0 0 0 0 255 
-0.8140652 4.806203 1.596221 0 0 0 138 127 109 255 
2.305058 4.334875 2.328879 0 0 0 122 109 100 255 
-1.217141 4.80023 1.62254 0 0 0 134 122 110 255 
-3.709131 1.888587 3.490138 0 0 0 133 124 112 255 
-1.917909 1.695237 3.741163 0 0 0 94 89 85 255 
-2.022253 -0.3612262 4.810931 0 0 0 215 208 200 255 
-0.3978547 4.668665 1.729932 0 0 0 175 166 156 255 
-1.476538 4.811564 1.669794 0 0 0 121 111 101 255 
-0.3995339 4.568061 1.774333 0 0 0 124 115 108 255 
0.2798522 -1.285598 5.424963 0 0 0 198 187 169 255 
-1.556028 4.815649 1.676959 0 0 0 113 100 91 255 
1.303982 5.084473 1.826837 0 0 0 141 132 123 255 
-0.6480511 0.5029929 1.961609 0 0 0 183 179 168 255 
1.6729 2.824293 3.010988 0 0 0 0 0 0 255 
2.546616 4.244338 2.345128 0 0 0 110 103 96 255 
-1.635616 4.968287 1.65143 0 0 0 101 87 76 255 
-0.4096841 1.634576 3.183769 0 0 0 106 70 82 255 
-3.987556 1.318151 3.828813 0 0 0 178 166 150 255 
0.621412 5.15027 1.627692 0 0 0 174 170 161 255 
0.7874793 5.078537 1.679042 0 0 0 196 188 177 255 
-0.9031918 1.085627 4.222122 0 0 0 172 163 154 255 
-1.343629 5.228701 1.604867 0 0 0 131 121 111 255 
-0.6891848 0.5995055 1.923169 0 0 0 126 131 125 255 
-2.403354 2.024423 3.562001 0 0 0 127 124 118 255 
-2.009431 5.794765 1.096421 0 0 0 123 112 106 255 
0.5171733 3.849505 2.392425 0 0 0 143 127 104 255 
0.767166 5.351357 1.50533 0 0 0 115 106 97 255 
0.8324501 5.392949 1.572717 0 0 0 154 146 135 255 
-4.236469 1.898029 3.278993 0 0 0 122 112 100 255 
0.6946409 4.607005 2.003653 0 0 0 0 0 0 255 
1.253078 -1.408225 5.353244 0 0 0 227 212 193 255 
1.868987 4.041889 2.402675 0 0 0 0 0 0 255 
1.88158 4.595521 2.104065 0 0 0 108 101 95 255 
-1.587879 5.83171 1.025509 0 0 0 159 151 148 255 
-1.604954 4.418504 1.973955 0 0 0 183 174 165 255 
-2.16736 0.565927 4.308716 0 0 0 0 0 0 255 
-3.854783 1.805155 3.519858 0 0 0 153 150 143 255 
0.6167625 4.59842 1.933151 0 0 0 0 0 0 255 
1.112337 4.56626 2.076792 0 0 0 104 94 84 255 
-1.62487 4.461737 1.952807 0 0 0 166 158 147 255 
-0.2214851 -0.08522509 4.662488 0 0 0 203 190 173 255 
1.194055 4.676203 2.055095 0 0 0 127 118 111 255 
-0.1198174 4.559002 1.851098 0 0 0 128 120 109 255 
-0.5425542 4.408435 1.877666 0 0 0 186 177 168 255 
-0.3244769 4.546837 1.798468 0 0 0 159 152 142 255 
-2.668428 0.4458337 4.358696 0 0 0 178 168 158 255 
1.886684 1.796482 3.504479 0 0 0 142 135 127 255 
-3.406666 -0.5471187 4.974216 0 0 0 0 0 0 255 
-1.47331 2.407755 3.365304 0 0 0 47 43 39 255 
-2.247968 4.494173 2.054063 0 0 0 158 148 136 255 
-3.129926 1.555909 3.809898 0 0 0 70 66 54 255 
1.114689 4.065027 2.416497 0 0 0 0 0 0 255 
1.475106 3.382875 2.866968 0 0 0 135 122 105 255 
-0.8526274 4.526516 1.754104 0 0 0 179 170 156 255 
1.513998 2.094792 3.45478 0 0 0 206 203 198 255 
-0.9579129 4.541201 1.777646 0 0 0 170 166 157 255 
1.055711 4.294618 2.128676 0 0 0 96 91 87 255 
0.3493995 3.169779 2.732639 0 0 0 172 165 155 255 
1.263615 4.751413 2.013589 0 0 0 153 144 135 255 
-0.6291057 -0.4096363 4.816031 0 0 0 223 211 197 255 
0.967588 4.651959 2.039342 0 0 0 120 107 98 255 
0.5121601 4.697977 1.93121 0 0 0 154 147 139 255 
-1.679239 0.4791754 4.394488 0 0 0 195 192 187 255 
-0.5317672 4.616512 1.716701 0 0 0 184 174 163 255 
-0.9382022 4.595331 1.725989 0 0 0 138 129 122 255 
-2.715154 -1.013083 5.107888 0 0 0 157 141 115 255 
-1.943276 0.6868713 4.326676 0 0 0 174 169 164 255 
-1.379236 4.592547 1.777746 0 0 0 146 136 126 255 
-0.3874229 4.654686 1.741083 0 0 0 135 127 116 255 
-2.100026 2.136099 3.479465 0 0 0 171 168 163 255 
-1.062425 4.612872 1.724337 0 0 0 140 130 120 255 
3.303818 -0.05895435 4.56459 0 0 0 190 187 182 255 
0.7443629 4.796362 1.937576 0 0 0 131 120 114 255 
-0.4062858 4.685599 1.734007 0 0 0 134 124 115 255 
-0.5074692 4.686413 1.693983 0 0 0 121 109 95 255 
0.0003563533 4.766883 1.850968 0 0 0 125 117 107 255 
-1.732461 4.64235 1.801148 0 0 0 136 126 116 255 
1.266155 4.887517 1.937856 0 0 0 167 160 149 255 
-3.690557 1.524084 3.648492 0 0 0 0 0 0 255 
0.5820359 -1.044531 5.2274 0 0 0 0 0 0 255 
-1.411693 4.66873 1.728935 0 0 0 162 150 138 255 
-0.2997566 4.777566 1.74486 0 0 0 153 146 136 255 
-2.900185 2.989811 2.795587 0 0 0 114 98 85 255 
-2.107411 4.680947 1.8424 0 0 0 180 171 156 255 
0.413132 4.876251 1.844126 0 0 0 159 150 143 255 
-2.844864 3.076676 2.783362 0 0 0 70 66 65 255 
-0.07670579 4.842307 1.79184 0 0 0 177 170 164 255 
-0.5448176 1.592174 4.252526 0 0 0 156 153 140 255 
-1.213799 4.743822 1.664883 0 0 0 142 129 120 255 
-1.379329 2.369848 3.414209 0 0 0 108 100 89 255 
-0.8375444 4.764872 1.611 0 0 0 120 107 98 255 
-0.4559927 4.84117 1.711738 0 0 0 123 117 105 255 
0.7317637 4.240845 2.089683 0 0 0 126 125 123 255 
0.794995 4.95557 1.808411 0 0 0 177 169 158 255 
-0.8801227 0.9954632 4.239175 0 0 0 211 202 187 255 
-1.217141 4.80023 1.62254 0 0 0 134 122 110 255 
-0.5115772 4.87947 1.686908 0 0 0 133 125 112 255 
-0.895252 4.833081 1.607924 0 0 0 162 150 138 255 
-3.098069 3.140433 2.759192 0 0 0 124 114 105 255 
-0.6601396 4.865952 1.635383 0 0 0 122 112 102 255 
-1.896232 2.199545 3.419792 0 0 0 186 180 166 255 
-1.552117 4.812988 1.659327 0 0 0 113 100 91 255 
-4.355175 1.754423 3.377563 0 0 0 172 161 144 255 
-0.1874628 4.955126 1.743697 0 0 0 156 148 137 255 
0.5710294 5.007093 1.739473 0 0 0 186 177 168 255 
2.325834 1.734732 3.527198 0 0 0 128 124 119 255 
-0.9261561 4.86501 1.591392 0 0 0 175 166 157 255 
1.303982 5.084473 1.826837 0 0 0 141 132 123 255 
1.454835 1.062981 3.961333 0 0 0 0 0 0 255 
-0.9163886 4.876547 1.566831 0 0 0 177 169 158 255 
-3.608272 1.475348 3.685333 0 0 0 0 0 0 255 
0.3524031 -0.2896807 4.82087 0 0 0 173 163 151 255 
-1.818746 0.7889856 4.256018 0 0 0 119 112 106 255 
-1.76301 4.859008 1.708692 0 0 0 160 150 141 255 
-1.668794 4.879738 1.673137 0 0 0 164 157 149 255 
-4.02192 1.991944 3.386516 0 0 0 168 160 147 255 
-0.2869703 5.005767 1.704706 0 0 0 183 179 167 255 
-1.663834 1.549977 3.88644 0 0 0 104 94 85 255 
-0.2012985 0.2201019 0.8423503 0 0 0 104 110 115 255 
-0.6760606 4.960386 1.637294 0 0 0 119 111 100 255 
0.2978223 5.040873 1.680868 0 0 0 150 140 130 255 
-1.023088 3.037939 2.991818 0 0 0 168 164 153 255 
-0.5133364 5.000884 1.678202 0 0 0 185 181 172 255 
-0.6196107 -0.4175035 4.810195 0 0 0 223 211 197 255 
-2.475129 2.243665 3.301766 0 0 0 149 142 134 255 
-1.822586 4.941173 1.689665 0 0 0 166 156 144 255 
-2.203244 1.707957 3.681552 0 0 0 82 77 74 255 
-0.5259323 5.050489 1.636093 0 0 0 170 161 152 255 
0.6190749 0.8852572 4.246017 0 0 0 145 136 117 255 
-1.51393 4.985187 1.631827 0 0 0 115 106 89 255 
-0.3904049 5.075482 1.630993 0 0 0 166 157 148 255 
-1.30009 0.06074514 4.463789 0 0 0 185 176 167 255 
1.70445 -1.023107 5.261319 0 0 0 186 170 147 255 
0.6232415 5.155211 1.636958 0 0 0 174 170 161 255 
0.5819396 5.160457 1.646288 0 0 0 147 137 128 255 
-0.8224431 5.145008 1.578186 0 0 0 174 168 156 255 
-0.1212 5.200629 1.518514 0 0 0 167 155 141 255 
2.095857 -0.7699704 5.037135 0 0 0 185 170 147 255 
-1.444285 5.224813 1.665511 0 0 0 152 142 132 255 
-1.104156 5.214981 1.54452 0 0 0 129 116 107 255 
-1.343629 5.228701 1.604867 0 0 0 131 121 111 255 
-2.23718 3.447285 2.758817 0 0 0 140 135 129 255 
-1.071453 5.231533 1.53807 0 0 0 136 123 114 255 
-0.1115856 0.2815432 4.40314 0 0 0 190 183 173 255 
0.7310775 5.414251 1.423705 0 0 0 162 151 133 255 
-1.656909 5.250974 1.660639 0 0 0 152 142 130 255 
-2.065413 1.138433 3.889406 0 0 0 196 188 177 255 
0.767166 5.351357 1.50533 0 0 0 115 106 97 255 
0.81321 5.418753 1.572601 0 0 0 170 163 153 255 
-2.271146 1.659976 3.695142 0 0 0 146 130 115 255 
0.2278994 2.74396 3.031103 0 0 0 183 174 165 255 
0.8213469 2.839887 2.97175 0 0 0 179 172 166 255 
-0.5274801 -0.4342966 4.813381 0 0 0 164 157 147 255 
-2.539223 2.641104 3.198547 0 0 0 142 137 131 255 
-3.150356 2.135231 3.389939 0 0 0 143 131 115 255 
-1.879303 3.222453 2.888924 0 0 0 86 81 77 255 
0.02945943 2.902705 2.910712 0 0 0 191 185 177 255 
-1.468743 2.938615 3.069917 0 0 0 131 122 115 255 
0.489751 2.742899 3.094884 0 0 0 171 156 133 255 
0.9696846 3.021389 2.845794 0 0 0 185 178 172 255 
-2.928054 2.778596 3.116127 0 0 0 164 160 151 255 
0.2070073 4.152319 2.069598 0 0 0 179 169 157 255 
0.3679673 3.631518 2.614416 0 0 0 135 128 118 255 
-3.233369 0.3577472 4.518622 0 0 0 126 113 104 255 
-1.896523 4.286806 2.202986 0 0 0 0 0 0 255 
-0.1541034 0.9033093 2.160144 0 0 0 133 138 134 255 
1.014603 -1.13118 5.24362 0 0 0 189 176 158 255 
-1.017179 2.911814 3.021936 0 0 0 173 166 156 255 
-3.484249 -0.1596812 4.689011 0 0 0 98 92 92 255 
-2.470884 -0.4127721 4.829739 0 0 0 136 126 114 255 
-2.896666 2.799886 3.074009 0 0 0 193 189 180 255 
-0.7469267 1.22721 3.178839 0 0 0 185 130 159 255 
-0.5375079 2.957384 2.945353 0 0 0 162 157 153 255 
-0.1384582 1.369529 3.304768 0 0 0 151 102 113 255 
1.019606 0.8596696 4.186625 0 0 0 173 168 162 255 
-2.858951 2.820926 3.082762 0 0 0 174 170 161 255 
0.8214727 2.046583 3.528536 0 0 0 176 166 157 255 
-3.217886 1.948701 3.422883 0 0 0 158 146 134 255 
0.8206891 3.080978 2.78701 0 0 0 117 112 108 255 
-0.4358014 2.966383 2.906019 0 0 0 186 177 168 255 
-2.697058 2.893689 2.977245 0 0 0 156 147 140 255 
-0.6676491 1.76506 3.689141 0 0 0 128 139 141 255 
-1.914062 2.949933 2.994127 0 0 0 169 161 150 255 
-3.736177 1.48577 3.662765 0 0 0 121 111 102 255 
0.9677328 3.166792 2.77265 0 0 0 183 174 165 255 
-2.662346 -0.3665683 4.815162 0 0 0 132 122 113 255 
1.149297 -1.513078 5.288464 0 0 0 177 160 142 255 
1.218992 3.1067 2.838713 0 0 0 184 180 177 255 
0.697533 4.467781 1.98875 0 0 0 156 147 130 255 
0.9620749 4.561839 2.051179 0 0 0 159 150 141 255 
-2.219474 2.990405 2.889734 0 0 0 170 160 150 255 
-2.730805 2.968383 2.840392 0 0 0 143 135 124 255 
-4.377865 1.806375 3.353041 0 0 0 161 152 137 255 
-2.75075 2.989785 2.82069 0 0 0 190 182 171 255 
-1.271624 3.058291 3.007509 0 0 0 131 122 113 255 
-3.77977 2.540241 3.03991 0 0 0 0 0 0 255 
-0.6414281 3.129167 2.796797 0 0 0 194 189 183 255 
1.455739 -0.7901905 4.976391 0 0 0 219 207 192 255 
-1.48708 1.83359 3.638415 0 0 0 90 90 88 255 
-2.749285 3.009116 2.803643 0 0 0 144 136 125 255 
-1.511535 3.325276 2.661514 0 0 0 148 131 111 255 
-2.612922 3.054301 2.77874 0 0 0 107 98 91 255 
-1.535829 2.381419 3.450467 0 0 0 163 155 142 255 
1.98983 1.511285 3.707018 0 0 0 189 173 148 255 
1.740121 3.389143 2.921125 0 0 0 0 0 0 255 
-2.05077 2.431754 3.22136 0 0 0 150 138 126 255 
2.08312 3.197104 3.000262 0 0 0 0 0 0 255 
-2.260451 3.1612 2.797934 0 0 0 179 171 160 255 
-1.453684 3.247441 2.792421 0 0 0 191 184 174 255 
2.50877 0.2666486 4.377749 0 0 0 208 196 174 255 
-1.36084 3.051703 3.023759 0 0 0 125 118 112 255 
-2.474231 3.23402 2.781463 0 0 0 116 108 97 255 
1.341038 -0.03085053 4.621696 0 0 0 197 181 156 255 
0.2504173 3.446084 2.641304 0 0 0 173 169 158 255 
-1.862496 3.319305 2.757955 0 0 0 182 174 163 255 
-0.7005703 1.345551 3.410662 0 0 0 127 92 90 255 
2.162145 3.586812 2.556907 0 0 0 141 132 127 255 
-2.289903 2.066316 3.510566 0 0 0 175 168 160 255 
-1.150081 3.379277 2.630844 0 0 0 157 148 141 255 
-1.118054 3.383103 2.627459 0 0 0 164 155 145 255 
-2.319249 3.316528 2.762369 0 0 0 121 114 98 255 
-0.3703188 2.959521 2.897545 0 0 0 0 0 0 255 
-1.677093 0.6961166 4.269399 0 0 0 142 130 116 255 
-2.652587 4.829785 1.656138 0 0 0 166 157 148 255 
-2.354769 3.330486 2.797357 0 0 0 116 109 93 255 
-0.4440689 -1.809503 5.633911 0 0 0 178 163 132 255 
0.6456161 -0.510514 4.861028 0 0 0 190 178 166 255 
-0.7740381 3.548294 2.461965 0 0 0 181 169 156 255 
-2.14539 3.367362 2.745941 0 0 0 149 140 131 255 
1.374876 0.4627471 4.271358 0 0 0 184 168 145 255 
-2.642312 3.446431 2.715802 0 0 0 165 159 147 255 
0.520596 3.652094 2.601258 0 0 0 133 126 118 255 
-0.4102823 0.9863777 3.166662 0 0 0 243 240 231 255 
-1.779464 2.633411 3.156387 0 0 0 108 104 101 255 
-2.696677 3.449969 2.700069 0 0 0 182 175 165 255 
-1.996276 3.838619 2.344768 0 0 0 148 139 130 255 
-1.826555 3.523498 2.529973 0 0 0 183 175 164 255 
-4.064759 0.7418931 4.208456 0 0 0 175 165 151 255 
-1.271538 3.556172 2.459237 0 0 0 132 128 125 255 
-0.4116219 3.624181 2.419974 0 0 0 188 183 179 255 
1.168228 0.4264809 4.270773 0 0 0 0 0 0 255 
-2.610196 3.497695 2.694696 0 0 0 143 135 124 255 
-2.526026 1.680969 3.667737 0 0 0 111 102 95 255 
-2.370575 3.517581 2.681959 0 0 0 154 147 137 255 
-2.663224 3.517642 2.66623 0 0 0 174 166 155 255 
-3.019483 1.681819 3.742148 0 0 0 121 116 110 255 
2.054522 -0.6313928 4.859117 0 0 0 194 179 158 255 
-2.638574 3.526521 2.660044 0 0 0 177 171 159 255 
-2.606381 3.530295 2.67099 0 0 0 184 177 167 255 
-0.5338891 3.63741 2.195684 0 0 0 145 138 130 255 
0.9181606 3.792925 2.498116 0 0 0 160 151 144 255 
-1.041781 -2.419867 5.779399 0 0 0 182 179 174 255 
2.021076 -0.7762343 4.993025 0 0 0 213 197 172 255 
1.198977 3.818655 2.49517 0 0 0 160 151 144 255 
-2.119859 3.617877 2.516558 0 0 0 183 175 164 255 
-0.1514399 0.8580466 2.221667 0 0 0 185 120 148 255 
-1.960023 3.635459 2.454754 0 0 0 103 95 89 255 
1.80799 -0.7579252 4.951802 0 0 0 194 179 158 255 
-0.3430005 3.740645 2.367199 0 0 0 188 184 175 255 
-2.262705 3.646662 2.50824 0 0 0 181 175 163 255 
1.602815 -1.33806 5.36248 0 0 0 194 181 162 255 
-2.114567 3.657134 2.469535 0 0 0 129 120 111 255 
-1.505325 1.188408 4.001438 0 0 0 143 135 124 255 
-1.530047 3.696601 2.394852 0 0 0 128 119 114 255 
-0.9244779 3.752625 2.334945 0 0 0 144 136 123 255 
-1.977558 3.691462 2.426052 0 0 0 150 143 133 255 
-0.356124 0.5322252 2.342909 0 0 0 182 136 160 255 
2.590972 1.208149 3.966704 0 0 0 151 135 109 255 
-0.8779652 3.77377 2.337494 0 0 0 177 171 159 255 
-1.647264 3.742858 2.372824 0 0 0 181 174 164 255 
-2.057282 3.239403 2.836728 0 0 0 0 0 0 255 
-2.774657 3.056129 2.756777 0 0 0 128 117 111 255 
1.29211 3.960447 2.444439 0 0 0 0 0 0 255 
-1.802533 3.757448 2.370131 0 0 0 128 120 109 255 
-2.183382 3.774559 2.355543 0 0 0 156 149 143 255 
-0.04500914 3.934478 2.25931 0 0 0 113 106 98 255 
-0.8545383 -1.08378 5.155195 0 0 0 194 185 176 255 
-2.076067 2.754622 3.081579 0 0 0 180 172 159 255 
-1.720191 3.846602 2.34838 0 0 0 182 172 162 255 
-1.596164 3.8648 2.380654 0 0 0 161 152 142 255 
-1.613488 1.446941 3.941748 0 0 0 157 156 151 255 
-1.348277 3.891431 2.401071 0 0 0 116 107 92 255 
-2.219476 3.83041 2.315422 0 0 0 95 91 88 255 
-0.7369267 3.945529 2.277295 0 0 0 162 154 143 255 
0.6752686 4.026716 2.233241 0 0 0 155 147 136 255 
-2.260355 -0.3045372 4.746851 0 0 0 173 166 158 255 
-1.937262 1.754454 3.679263 0 0 0 86 85 82 255 
-2.085932 0.1819945 4.40643 0 0 0 173 164 155 255 
-2.077086 3.872919 2.284054 0 0 0 114 106 95 255 
-0.433392 3.978689 2.150411 0 0 0 160 152 139 255 
0.4216616 -1.315501 5.38717 0 0 0 203 191 174 255 
-1.793314 3.940639 2.333472 0 0 0 145 136 119 255 
-0.1525677 4.034067 2.173057 0 0 0 96 91 85 255 
1.54691 4.146687 2.256615 0 0 0 115 105 96 255 
-1.811026 2.297264 3.373467 0 0 0 172 163 154 255 
-0.9981842 4.001298 2.316064 0 0 0 149 140 132 255 
1.907003 4.187864 2.369766 0 0 0 92 83 76 255 
0.9715878 4.151521 2.14603 0 0 0 153 144 135 255 
-0.7995241 4.047785 2.19927 0 0 0 152 142 132 255 
-1.395802 1.354012 4.018248 0 0 0 198 186 170 255 
-1.989503 3.972035 2.28684 0 0 0 153 146 128 255 
-0.3967722 0.3755044 2.062117 0 0 0 0 0 0 255 
-1.787385 4.0115 2.315918 0 0 0 163 154 145 255 
-0.2932175 0.7756173 4.294948 0 0 0 129 123 115 255 
-2.236934 3.978477 2.270317 0 0 0 173 163 153 255 
-0.4653762 1.084838 3.376698 0 0 0 224 229 223 255 
-2.479626 3.972162 2.295226 0 0 0 125 116 109 255 
-1.113157 -1.141616 5.192043 0 0 0 176 168 165 255 
-1.240144 4.064203 2.331565 0 0 0 141 137 128 255 
1.188133 1.795483 3.555385 0 0 0 164 159 155 255 
-0.3696059 0.3817978 2.087867 0 0 0 245 247 237 255 
1.043026 4.190212 2.131015 0 0 0 136 129 121 255 
0.1753261 4.150276 2.087297 0 0 0 0 0 0 255 
1.216348 0.3731138 4.307515 0 0 0 184 173 155 255 
-2.537114 3.983279 2.260988 0 0 0 156 149 141 255 
1.125253 4.199926 2.148476 0 0 0 0 0 0 255 
-0.6905519 1.642074 3.848604 0 0 0 171 112 142 255 
-0.5071245 4.113729 2.108481 0 0 0 127 119 108 255 
1.325937 3.812914 2.503527 0 0 0 166 155 137 255 
1.288664 4.222321 2.093531 0 0 0 0 0 0 255 
-0.421557 1.184481 2.351709 0 0 0 149 94 116 255 
-1.308787 5.727211 1.102534 0 0 0 162 153 143 255 
-1.461952 0.6097457 4.243324 0 0 0 160 151 146 255 
-2.116476 2.369041 3.236558 0 0 0 175 163 150 255 
-2.168501 4.031246 2.25865 0 0 0 177 167 157 255 
-0.6389664 4.120978 2.121947 0 0 0 188 181 171 255 
-2.061102 4.042864 2.248558 0 0 0 180 176 164 255 
1.248717 -1.016433 5.096883 0 0 0 193 177 151 255 
-1.21844 4.007254 2.367163 0 0 0 0 0 0 255 
0.2792396 4.17171 2.063016 0 0 0 169 159 148 255 
1.063549 4.224494 2.11589 0 0 0 0 0 0 255 
-0.3121725 0.3724954 2.064471 0 0 0 244 250 248 255 
-2.401469 4.044678 2.239792 0 0 0 145 135 125 255 
-0.3077875 -0.0786558 4.658762 0 0 0 158 151 143 255 
-1.941526 4.090156 2.295065 0 0 0 98 86 72 255 
-2.405312 4.051065 2.138735 0 0 0 168 160 149 255 
-1.471443 4.144077 2.288499 0 0 0 188 184 175 255 
-2.084615 -1.419175 5.250085 0 0 0 180 165 142 255 
-1.430497 4.135754 2.253428 0 0 0 193 186 180 255 
-1.503355 1.113111 4.047533 0 0 0 118 111 103 255 
-1.783045 4.133577 2.310178 0 0 0 94 87 77 255 
1.612954 4.35382 2.273883 0 0 0 109 99 87 255 
-0.8291509 4.199297 2.147506 0 0 0 165 158 150 255 
-0.2203235 0.2101396 4.38448 0 0 0 0 0 0 255 
0.6010084 0.808878 4.264884 0 0 0 198 191 182 255 
-1.220414 4.190108 2.200759 0 0 0 171 162 153 255 
-2.482601 4.118319 2.273542 0 0 0 162 154 143 255 
-0.4394855 -0.8161339 4.907595 0 0 0 225 215 203 255 
-1.562076 4.199335 2.226137 0 0 0 167 155 144 255 
-1.509077 4.18346 2.241461 0 0 0 172 163 154 255 
1.461319 -2.177134 5.797825 0 0 0 186 183 178 255 
-1.864222 4.177105 2.285709 0 0 0 113 104 96 255 
1.522994 4.383203 2.227957 0 0 0 104 94 84 255 
1.11999 4.33837 2.091305 0 0 0 102 95 87 255 
-3.554142 3.545239 2.557017 0 0 0 150 134 118 255 
-0.2958833 0.98926 2.030176 0 0 0 160 170 173 255 
2.104092 0.5447968 4.242057 0 0 0 186 178 175 255 
2.860119 1.080435 3.935189 0 0 0 202 197 193 255 
1.566846 1.22251 3.943229 0 0 0 124 113 95 255 
-2.540423 3.32716 2.776834 0 0 0 123 116 100 255 
-0.3171863 1.125941 3.37085 0 0 0 217 206 189 255 
0.432052 3.576904 2.667742 0 0 0 173 168 162 255 
1.575783 3.976977 2.342168 0 0 0 145 138 132 255 
-0.3268383 0.3949462 2.199184 0 0 0 225 218 206 255 
-1.320803 3.814748 2.403076 0 0 0 119 110 95 255 
3.083533 -1.752743 5.564516 0 0 0 157 152 146 255 
-0.4478696 4.045782 2.165173 0 0 0 130 122 109 255 
2.214285 -1.467353 5.32288 0 0 0 182 177 173 255 
3.367516 -1.297069 5.341807 0 0 0 189 184 178 255 
-0.3113252 0.1958603 1.685837 0 0 0 219 219 217 255 
-0.7734418 0.1672319 4.534713 0 0 0 212 205 199 255 
-1.450175 -1.581883 5.564198 0 0 0 0 0 0 255 
-0.6728232 0.6647568 1.84944 0 0 0 144 143 138 255 
-3.145513 1.920299 3.466393 0 0 0 168 156 144 255 
-0.2565201 0.8091086 1.695508 0 0 0 0 0 0 255 
0.8841363 -0.3342002 4.836553 0 0 0 179 175 166 255 
2.134644 -1.015806 5.126788 0 0 0 205 200 196 255 
1.914581 -1.027324 5.187099 0 0 0 200 192 189 255 
-4.307621 1.304964 3.748762 0 0 0 178 166 152 255 
-1.595848 4.156275 2.282769 0 0 0 194 189 183 255 
1.664122 -0.9693806 5.069255 0 0 0 198 190 187 255 
-0.5900816 1.363756 3.63141 0 0 0 240 240 240 255 
-0.3297335 0.8337805 1.707479 0 0 0 0 0 0 255 
-0.3742441 0.3682387 2.023033 0 0 0 0 0 0 255 
0.3056038 -0.9476979 5.038846 0 0 0 176 170 170 255 
2.261014 1.271899 3.958775 0 0 0 152 136 113 255 
2.388441 -0.6045433 4.797655 0 0 0 206 201 197 255 
-2.708424 3.39541 2.755575 0 0 0 95 85 75 255 
0.03662952 -2.262014 5.769472 0 0 0 178 159 117 255 
-3.170013 -1.289008 5.451312 0 0 0 135 131 130 255 
1.574479 4.124682 2.279253 0 0 0 99 92 86 255 
-0.1288102 1.073961 2.699018 0 0 0 195 126 157 255 
2.288897 -0.6113318 4.854643 0 0 0 177 172 168 255 
-0.6904395 0.763513 1.989998 0 0 0 227 222 218 255 
-0.9057576 4.32882 2.01793 0 0 0 129 116 107 255 
2.045568 -0.9712653 5.152395 0 0 0 222 207 186 255 
0.1398334 5.430759 1.370234 0 0 0 122 113 104 255 
-0.1080661 3.631369 2.467636 0 0 0 158 153 147 255 
-0.9174921 -0.09882689 4.591486 0 0 0 195 180 164 255 
0.3462336 5.423305 1.401422 0 0 0 126 116 106 255 
2.313065 1.277086 3.950935 0 0 0 168 163 160 255 
-1.469542 5.425744 1.668992 0 0 0 158 150 139 255 
-0.6923427 -0.511849 4.839112 0 0 0 215 210 204 255 
1.06416 1.078761 4.07985 0 0 0 0 0 0 255 
1.096686 4.378134 2.079357 0 0 0 152 144 131 255 
-3.644666 2.602829 3.216532 0 0 0 96 87 80 255 
0.2082705 5.417304 1.444136 0 0 0 174 164 152 255 
-1.541823 5.374222 1.641102 0 0 0 112 102 93 255 
0.6559548 5.448565 1.507312 0 0 0 129 120 113 255 
-2.28662 -0.1522281 4.636867 0 0 0 149 141 130 255 
-3.35653 3.990776 2.253907 0 0 0 156 148 137 255 
0.2047905 5.358839 1.434723 0 0 0 177 169 156 255 
1.468033 -0.03558415 4.604307 0 0 0 172 157 136 255 
0.4475026 5.408138 1.531915 0 0 0 146 138 127 255 
1.525513 1.495282 3.737922 0 0 0 185 178 170 255 
-1.766269 -0.4532493 4.840178 0 0 0 169 159 149 255 
-1.59827 5.301565 1.671781 0 0 0 171 160 147 255 
-1.627205 5.286941 1.653056 0 0 0 189 181 168 255 
-0.2208284 5.284731 1.435205 0 0 0 126 113 104 255 
-1.97347 2.560456 3.164869 0 0 0 193 185 174 255 
-0.2944149 2.131095 3.72299 0 0 0 171 164 156 255 
0.4893824 -1.17098 5.353399 0 0 0 0 0 0 255 
0.9568242 5.424559 1.59667 0 0 0 100 94 88 255 
1.895276 -0.8522978 5.103027 0 0 0 222 206 183 255 
-0.3415268 2.468362 3.409752 0 0 0 158 153 149 255 
1.243568 -0.2923663 4.747946 0 0 0 209 201 190 255 
0.1533512 5.319491 1.487058 0 0 0 144 136 125 255 
-0.4399402 1.164744 2.431142 0 0 0 0 0 0 255 
-0.6719462 1.550986 3.358466 0 0 0 60 65 61 255 
-1.441808 5.275458 1.667238 0 0 0 121 111 99 255 
0.8510089 2.317915 3.495207 0 0 0 87 83 82 255 
0.4621675 6.118202 1.197421 0 0 0 168 160 147 255 
0.5486388 5.359234 1.56784 0 0 0 177 169 158 255 
-2.039423 0.1539693 4.494366 0 0 0 153 144 137 255 
1.982723 1.502006 3.731072 0 0 0 169 161 158 255 
-2.876968 0.983679 3.991944 0 0 0 149 136 127 255 
1.593854 -0.1164589 4.586418 0 0 0 197 185 169 255 
0.4836712 5.316004 1.512478 0 0 0 170 160 150 255 
-2.479029 1.439319 3.859663 0 0 0 169 157 143 255 
-0.4211562 1.264441 3.294935 0 0 0 234 241 233 255 
-0.6486934 1.689556 3.480651 0 0 0 125 129 128 255 
0.8287113 5.387518 1.62289 0 0 0 115 105 96 255 
1.724988 3.904712 2.384905 0 0 0 0 0 0 255 
-1.990483 2.024473 3.496998 0 0 0 0 0 0 255 
-0.4619372 5.24623 1.500853 0 0 0 142 130 116 255 
-1.255124 5.222756 1.590294 0 0 0 136 124 112 255 
-2.913822 2.017107 3.420296 0 0 0 170 162 151 255 
0.9725625 5.371095 1.602923 0 0 0 114 104 94 255 
0.9739878 6.133833 1.277354 0 0 0 159 151 140 255 
-0.1489706 1.345831 3.130607 0 0 0 107 61 72 255 
-1.928285 5.185366 1.67569 0 0 0 119 107 93 255 
2.285829 -0.1746448 4.532839 0 0 0 180 164 141 255 
0.8792481 4.354938 2.049565 0 0 0 0 0 0 255 
1.111264 2.508028 3.138456 0 0 0 0 0 0 255 
-0.6101849 5.213387 1.536291 0 0 0 188 180 167 255 
-0.1551765 4.836888 1.854725 0 0 0 0 0 0 255 
1.093363 1.746596 3.582973 0 0 0 162 157 154 255 
1.017096 2.468631 3.353306 0 0 0 112 108 109 255 
-1.721356 5.211154 1.777382 0 0 0 125 113 99 255 
-3.192729 1.512305 3.801486 0 0 0 124 119 113 255 
-3.043735 1.055109 4.044862 0 0 0 108 98 89 255 
-0.4211543 0.9804266 3.15401 0 0 0 148 137 115 255 
-0.2615625 5.198509 1.516811 0 0 0 185 178 162 255 
0.5604814 2.643896 3.190942 0 0 0 118 117 115 255 
0.8055618 -1.152937 5.277263 0 0 0 225 210 191 255 
0.7206888 5.300975 1.63357 0 0 0 185 176 167 255 
-0.2472125 0.8724861 4.285411 0 0 0 216 201 182 255 
0.5527905 -0.7035039 4.878921 0 0 0 199 195 192 255 
-3.300159 0.1723618 4.520957 0 0 0 154 146 135 255 
-2.456474 1.318942 3.91461 0 0 0 171 165 153 255 
-0.8538578 5.149358 1.586561 0 0 0 171 161 151 255 
-0.1268326 1.081166 2.608809 0 0 0 0 0 0 255 
1.176775 4.219098 2.150085 0 0 0 0 0 0 255 
2.620216 0.238153 4.453741 0 0 0 180 163 143 255 
2.242505 -0.5690334 4.84931 0 0 0 165 161 158 255 
-3.576372 2.745789 3.1583 0 0 0 139 129 120 255 
0.199249 -2.326949 5.831478 0 0 0 174 157 129 255 
0.6196495 5.202464 1.595927 0 0 0 176 167 158 255 
1.25848 -1.568906 5.454155 0 0 0 173 156 128 255 
0.4581099 5.187953 1.60041 0 0 0 144 136 123 255 
-1.751933 4.160154 2.424779 0 0 0 150 141 132 255 
0.2445832 -0.2646135 4.802916 0 0 0 156 151 142 255 
-0.3750109 5.11231 1.580412 0 0 0 188 180 171 255 
0.7496642 5.182631 1.629903 0 0 0 133 123 113 255 
-0.7093981 5.091643 1.620665 0 0 0 178 171 163 255 
1.569167 0.2309939 4.522194 0 0 0 182 166 150 255 
0.9979784 5.190336 1.615995 0 0 0 178 169 158 255 
-0.5070123 5.082057 1.617995 0 0 0 141 132 117 255 
1.141279 5.215105 1.708718 0 0 0 174 164 154 255 
-1.737909 -0.6921785 5.114121 0 0 0 0 0 0 255 
-0.1524127 5.0886 1.581057 0 0 0 143 133 123 255 
-0.1612866 5.080206 1.588981 0 0 0 189 181 170 255 
-0.1381713 0.3800824 4.359616 0 0 0 203 199 195 255 
0.9079052 5.174928 1.705206 0 0 0 162 152 143 255 
-0.6608708 2.551536 3.266885 0 0 0 0 0 0 255 
-0.6126567 5.028155 1.626225 0 0 0 164 157 147 255 
0.1585566 5.049895 1.640491 0 0 0 177 170 160 255 
-0.8265107 4.972372 1.60116 0 0 0 115 103 91 255 
-2.173612 0.1422819 4.580756 0 0 0 0 0 0 255 
-3.515477 0.8870025 4.189665 0 0 0 136 127 112 255 
0.8806314 5.109792 1.711472 0 0 0 122 112 103 255 
0.4922731 5.069417 1.665369 0 0 0 156 147 138 255 
-1.149008 4.931218 1.588708 0 0 0 143 129 116 255 
0.1583685 5.044927 1.655302 0 0 0 127 115 106 255 
-1.056921 3.478276 2.528383 0 0 0 140 132 117 255 
-0.80963 3.354285 2.598382 0 0 0 179 168 150 255 
-1.271983 4.906989 1.592511 0 0 0 174 162 148 255 
-1.545373 4.887589 1.641705 0 0 0 177 167 157 255 
-0.6885359 0.9001166 2.525209 0 0 0 167 108 140 255 
-0.684844 -0.07373979 4.605847 0 0 0 186 170 154 255 
-1.615522 4.878805 1.655281 0 0 0 109 99 90 255 
0.2590646 5.011526 1.68212 0 0 0 154 144 134 255 
0.6487975 0.4042227 4.277121 0 0 0 197 184 167 255 
0.04736624 5.005766 1.692889 0 0 0 188 178 169 255 
-0.5550022 4.934611 1.644849 0 0 0 163 156 148 255 
1.146352 -1.05594 5.279358 0 0 0 180 164 141 255 
-1.497473 4.86908 1.668485 0 0 0 189 180 171 255 
1.767476 1.510924 3.731576 0 0 0 202 187 165 255 
-0.5637949 4.93813 1.675148 0 0 0 109 99 90 255 
-0.4775102 4.935933 1.681833 0 0 0 137 128 121 255 
-1.125818 4.858714 1.588928 0 0 0 143 131 119 255 
-0.2372102 1.46249 3.853105 0 0 0 106 110 114 255 
-0.5627113 4.921117 1.668059 0 0 0 155 149 135 255 
2.185491 0.9684433 4.016063 0 0 0 203 192 174 255 
-0.3922206 4.94973 1.727769 0 0 0 119 108 102 255 
-2.673017 3.313012 2.746006 0 0 0 122 118 109 255 
1.438733 5.081603 1.836515 0 0 0 168 158 148 255 
-1.832067 -0.1447513 4.651072 0 0 0 174 169 164 255 
0.6074707 5.002367 1.749872 0 0 0 161 151 141 255 
-0.8613027 4.847124 1.573154 0 0 0 174 162 148 255 
-1.854716 3.451985 2.611299 0 0 0 176 164 150 255 
0.4434861 4.971912 1.734373 0 0 0 163 154 145 255 
-3.212394 1.62014 3.764016 0 0 0 120 116 107 255 
0.3350036 4.971772 1.759471 0 0 0 182 175 166 255 
-1.663796 3.516736 2.502816 0 0 0 92 83 76 255 
-1.45707 4.812119 1.662478 0 0 0 134 125 116 255 
3.208833 1.865212 3.534609 0 0 0 161 153 134 255 
-0.4009138 -0.3535794 4.773303 0 0 0 208 196 180 255 
-0.3888056 4.897735 1.727635 0 0 0 120 112 101 255 
-1.9249 4.781906 1.728724 0 0 0 160 149 143 255 
0.102528 4.924562 1.748971 0 0 0 176 170 158 255 
2.310229 1.197192 4.0074 0 0 0 178 171 163 255 
0.408844 4.947925 1.770841 0 0 0 153 145 134 255 
-1.229693 4.792292 1.633888 0 0 0 157 145 131 255 
-2.362387 -0.3944805 4.762839 0 0 0 191 183 164 255 
2.349679 -1.516172 5.390007 0 0 0 168 159 152 255 
-0.4538433 4.860157 1.708364 0 0 0 165 157 144 255 
-1.56146 1.506133 3.913884 0 0 0 0 0 0 255 
-1.754539 4.77332 1.778734 0 0 0 164 155 146 255 
-1.625326 1.076137 4.07445 0 0 0 134 129 123 255 
-1.300427 4.755683 1.651769 0 0 0 112 99 90 255 
0.5460361 4.919754 1.818374 0 0 0 142 127 119 255 
-1.63055 4.738912 1.721541 0 0 0 115 105 96 255 
0.6906137 4.901349 1.844123 0 0 0 146 137 130 255 
1.419505 -0.6112773 4.782275 0 0 0 183 167 144 255 
-0.8816868 4.73154 1.633463 0 0 0 124 115 106 255 
0.2317795 4.856662 1.840536 0 0 0 110 100 91 255 
0.2820919 4.850543 1.841501 0 0 0 130 120 111 255 
-3.460803 0.980218 4.177438 0 0 0 187 179 168 255 
-0.5721124 4.718886 1.658357 0 0 0 120 108 96 255 
-0.9899806 4.692172 1.66977 0 0 0 155 148 140 255 
-3.126276 1.593095 3.803927 0 0 0 118 108 98 255 
2.093992 -0.4867403 4.810852 0 0 0 185 177 174 255 
-2.984287 1.569982 3.832535 0 0 0 117 107 97 255 
-0.7212818 -0.3803348 4.801816 0 0 0 191 179 163 255 
-0.8852904 4.683566 1.664033 0 0 0 121 113 102 255 
0.2665896 -0.5823565 4.91206 0 0 0 174 166 156 255 
-0.2185916 4.728247 1.762712 0 0 0 153 144 135 255 
2.393824 0.2751708 4.432239 0 0 0 222 207 185 255 
-1.517464 4.620214 1.770405 0 0 0 172 160 148 255 
-1.329821 4.620906 1.734498 0 0 0 148 138 126 255 
-3.748896 0.7185499 4.299161 0 0 0 178 173 169 255 
-0.8337132 3.970077 2.27782 0 0 0 115 105 95 255 
-0.3058648 4.696185 1.771015 0 0 0 188 179 170 255 
0.5458929 2.315459 3.429152 0 0 0 164 159 154 255 
-3.105477 2.031693 3.37763 0 0 0 173 163 151 255 
-1.145338 4.627284 1.73231 0 0 0 141 133 121 255 
0.3460406 4.762039 1.878686 0 0 0 130 123 114 255 
-0.3014144 3.198771 2.67352 0 0 0 191 184 174 255 
-1.178364 2.945665 3.039517 0 0 0 170 160 150 255 
-0.750412 3.196657 2.729143 0 0 0 151 141 131 255 
1.162388 4.819625 1.94087 0 0 0 124 115 106 255 
-2.333888 -0.7253569 4.987926 0 0 0 195 186 175 255 
-1.685964 2.993473 3.065893 0 0 0 77 69 66 255 
-2.85502 0.7139131 4.171406 0 0 0 197 181 155 255 
1.712747 0.8462876 4.022781 0 0 0 203 188 169 255 
-1.453031 4.577019 1.775316 0 0 0 126 116 106 255 
-2.526312 2.592381 3.220939 0 0 0 180 168 154 255 
-1.637746 2.932488 3.058159 0 0 0 93 83 73 255 
-2.788965 0.4564605 4.408345 0 0 0 181 165 149 255 
-0.4814513 4.614017 1.716424 0 0 0 179 169 159 255 
-0.5073795 2.924238 3.024728 0 0 0 186 183 178 255 
-1.612977 4.550394 1.829654 0 0 0 176 166 156 255 
0.8611289 4.749943 1.977874 0 0 0 128 119 112 255 
0.6385375 0.213168 4.343355 0 0 0 203 202 200 255 
-3.024948 2.292242 3.288865 0 0 0 180 168 156 255 
0.739084 1.966429 3.54481 0 0 0 145 130 111 255 
0.2401581 4.679313 1.865078 0 0 0 127 118 103 255 
-0.1379627 0.9492266 2.404732 0 0 0 132 78 94 255 
0.1471699 5.897157 1.235198 0 0 0 169 163 149 255 
0.7116787 4.70548 1.972698 0 0 0 95 85 76 255 
2.578045 -0.5675647 4.833696 0 0 0 223 207 184 255 
-0.7804408 4.545196 1.76946 0 0 0 184 174 164 255 
-2.73183 0.4804774 4.583047 0 0 0 152 136 120 255 
0.7150546 -1.713934 5.587194 0 0 0 0 0 0 255 
-2.227401 4.49997 2.038269 0 0 0 190 182 169 255 
1.277421 1.122335 4.034928 0 0 0 142 135 127 255 
0.5811378 4.655008 1.959797 0 0 0 110 100 90 255 
-1.023881 4.11477 2.272125 0 0 0 145 136 127 255 
1.86003 -0.142003 4.541621 0 0 0 175 165 153 255 
-0.843301 4.508129 1.795641 0 0 0 152 142 130 255 
-0.6147379 2.892404 2.998745 0 0 0 122 113 104 255 
-1.98476 0.675064 4.287354 0 0 0 0 0 0 255 
2.613718 -0.1984181 4.555406 0 0 0 182 162 137 255 
1.23234 4.695249 2.046311 0 0 0 123 114 104 255 
-0.4491071 1.438614 2.819042 0 0 0 164 96 135 255 
-0.5736595 4.509695 1.810303 0 0 0 116 107 99 255 
-3.653305 0.1342803 4.63934 0 0 0 0 0 0 255 
-0.157991 0.1470447 0.9407681 0 0 0 128 132 135 255 
0.4263807 1.057403 4.144049 0 0 0 208 201 195 255 
1.586452 -0.7825862 4.921741 0 0 0 183 167 144 255 
-2.370849 4.44629 2.189956 0 0 0 154 146 135 255 
-1.180903 4.672434 1.706486 0 0 0 164 152 138 255 
-0.2027811 2.919102 2.90508 0 0 0 148 138 129 255 
2.209823 1.680714 3.5665 0 0 0 141 132 123 255 
-2.048549 4.431512 2.088317 0 0 0 140 128 119 255 
-2.836995 0.2636654 4.362791 0 0 0 0 0 0 255 
-0.1381465 3.924199 2.24005 0 0 0 0 0 0 255 
0.5381414 3.146973 2.784563 0 0 0 137 130 124 255 
1.568387 4.656492 2.098405 0 0 0 137 129 126 255 
-2.200179 4.405302 2.137521 0 0 0 135 125 114 255 
0.7200568 1.100226 4.03937 0 0 0 170 158 146 255 
-2.133813 4.400413 2.128088 0 0 0 171 163 152 255 
-2.369996 4.387427 2.156638 0 0 0 150 137 128 255 
1.461679 -0.8652744 4.945286 0 0 0 226 209 189 255 
1.783347 4.600966 2.138945 0 0 0 129 120 115 255 
-2.641992 3.096268 2.75362 0 0 0 102 96 91 255 
-1.843529 6.038831 1.079285 0 0 0 110 101 92 255 
-2.308766 4.347073 2.182104 0 0 0 175 167 156 255 
-2.021975 4.356812 2.145586 0 0 0 175 167 156 255 
0.7161146 3.867437 2.399075 0 0 0 162 146 121 255 
1.449305 4.567487 2.168192 0 0 0 79 74 70 255 
-2.004843 4.340947 2.148729 0 0 0 136 127 118 255 
-2.951028 2.734542 3.125885 0 0 0 160 152 139 255 
-2.014021 3.211347 2.860484 0 0 0 152 151 146 255 
-1.943466 4.339248 2.172502 0 0 0 179 171 160 255 
1.544659 0.0322298 4.604354 0 0 0 197 186 164 255 
-1.032057 4.357371 1.982347 0 0 0 138 130 119 255 
-1.545117 1.198416 3.9986 0 0 0 130 122 109 255 
-0.1305958 4.380332 1.897142 0 0 0 121 112 103 255 
0.5324974 -1.028623 5.199706 0 0 0 189 174 143 255 
-0.5607849 4.348781 1.896904 0 0 0 186 178 167 255 
1.485747 -0.003594218 4.594388 0 0 0 225 208 190 255 
2.278757 -0.04670122 4.548436 0 0 0 0 0 0 255 
-1.736647 4.289142 2.143768 0 0 0 147 139 128 255 
-2.156261 4.244725 2.198848 0 0 0 119 107 93 255 
-2.119313 4.244349 2.200229 0 0 0 145 135 123 255 
0.3841418 4.356667 1.965058 0 0 0 98 87 81 255 
-2.229538 4.226602 2.215193 0 0 0 164 152 138 255 
-0.3520825 0.3976656 2.132847 0 0 0 243 240 231 255 
-1.030032 4.262681 2.119945 0 0 0 187 179 168 255 
-1.257419 4.245502 2.115731 0 0 0 185 177 164 255 
1.854197 -0.6712353 5.022715 0 0 0 223 205 181 255 
-2.062707 4.214592 2.244012 0 0 0 108 98 88 255 
1.241452 4.387851 2.109699 0 0 0 176 167 157 255 
-2.058925 -1.783805 5.569623 0 0 0 161 146 117 255 
-0.6909931 1.162982 2.833701 0 0 0 148 153 146 255 
-1.954934 4.202652 2.267313 0 0 0 119 109 99 255 
-2.175091 4.176705 2.227417 0 0 0 110 96 85 255 
-2.387178 0.4749856 4.331254 0 0 0 170 162 151 255 
-0.2575751 0.798076 1.716322 0 0 0 141 143 142 255 
2.134341 -1.012342 5.121579 0 0 0 205 200 196 255 
-0.09477295 -0.9939122 5.104633 0 0 0 192 177 158 255 
-0.3328662 0.7382521 1.885567 0 0 0 100 109 114 255 
-0.3314829 0.8275012 1.718102 0 0 0 93 105 105 255 
0.5553014 -1.378745 5.317711 0 0 0 195 190 186 255 
-2.051317 -0.7639164 5.010773 0 0 0 189 188 184 255 
2.357093 0.2108317 4.497225 0 0 0 199 191 188 255 
-3.157752 2.725962 3.102109 0 0 0 154 148 136 255 
-3.21049 -0.1370409 4.637126 0 0 0 168 164 161 255 
-0.4560446 1.128064 2.23777 0 0 0 61 56 52 255 
-2.142641 3.452847 2.682081 0 0 0 161 154 144 255 
0.7185272 0.3201037 4.289253 0 0 0 146 142 141 255 
-2.009594 0.1215457 4.430654 0 0 0 184 180 177 255 
-3.5174 3.409334 2.607542 0 0 0 170 166 157 255 
-2.685454 2.900517 2.92306 0 0 0 136 124 112 255 
-0.9634442 0.3404072 4.380403 0 0 0 194 189 185 255 
-0.9727395 -0.6789387 4.82328 0 0 0 199 192 182 255 
-0.9613423 0.3396451 4.37643 0 0 0 194 189 185 255 
-3.232099 0.2091625 4.557194 0 0 0 129 125 122 255 
-1.320739 4.797848 1.673885 0 0 0 0 0 0 255 
-0.9817051 -0.9122506 4.964862 0 0 0 207 199 191 255 
-0.08092968 1.980632 3.936585 0 0 0 182 166 149 255 
-2.924423 0.4084004 4.425344 0 0 0 61 57 54 255 
-0.4663736 1.30546 2.543638 0 0 0 168 101 142 255 
-2.21243 0.5623654 4.300455 0 0 0 180 177 172 255 
0.8786713 0.8954528 4.187338 0 0 0 187 186 185 255 
-0.4101002 5.23186 1.461601 0 0 0 172 164 151 255 
-2.348617 0.7466367 4.212768 0 0 0 181 174 166 255 
-1.133665 0.8628478 4.217387 0 0 0 195 190 184 255 
0.06829222 -1.23065 5.322617 0 0 0 185 180 174 255 
-3.151249 2.687649 3.115767 0 0 0 112 102 92 255 
-0.290226 0.8442982 2.860907 0 0 0 0 0 0 255 
2.623942 1.265122 4.045992 0 0 0 185 177 174 255 
-0.699561 1.352062 3.238194 0 0 0 122 96 107 255 
-2.699925 4.536778 1.978519 0 0 0 0 0 0 255 
1.95075 1.375309 3.830971 0 0 0 213 205 202 255 
1.992072 1.494745 3.757169 0 0 0 169 161 158 255 
0.5684821 -1.107633 5.29279 0 0 0 146 132 118 255 
1.295847 1.487262 3.729511 0 0 0 196 189 183 255 
-0.3315748 1.595684 3.151473 0 0 0 154 160 156 255 
-0.3045325 1.634494 4.229513 0 0 0 219 221 228 255 
-3.215275 3.184793 2.735786 0 0 0 0 0 0 255 
-2.436985 -0.8469646 5.07814 0 0 0 0 0 0 255 
1.093363 1.746596 3.582973 0 0 0 162 157 154 255 
-1.241049 3.310018 2.707408 0 0 0 178 168 158 255 
-2.873709 3.130988 2.714176 0 0 0 144 134 124 255 
-0.4605653 1.732131 3.370086 0 0 0 152 92 118 255 
2.495713 1.882853 3.549707 0 0 0 181 176 172 255 
-3.093766 -0.02993309 4.537332 0 0 0 124 113 109 255 
