ply
format ascii 1.0
comment VCGLIB generated
element vertex 957
property float x
property float y
property float z
property float nx
property float ny
property float nz
property uchar red
property uchar green
property uchar blue
property uchar alpha
element face 0
property list uchar int vertex_indices
end_header
1.097786 4.425111 1.260411 0 0 0 219 212 204 255 
2.472126 2.963758 3.257915 0 0 0 198 189 182 255 
0.8591894 4.294246 1.419075 0 0 0 190 181 172 255 
-1.78659 3.036335 2.680878 0 0 0 149 140 133 255 
1.519096 4.409688 1.190589 0 0 0 216 207 200 255 
-1.257817 3.388693 2.413134 0 0 0 214 209 206 255 
0.7253093 4.199242 1.55545 0 0 0 210 203 197 255 
0.1803105 3.919133 1.838378 0 0 0 204 195 187 255 
0.7962059 3.979866 1.672062 0 0 0 194 185 178 255 
0.2349496 1.843772 4.288118 0 0 0 180 173 167 255 
0.2760647 3.912108 1.927658 0 0 0 181 171 163 255 
1.784037 4.15626 1.523109 0 0 0 189 180 171 255 
-2.110484 2.539656 3.388181 0 0 0 132 121 117 255 
-1.538404 2.609918 3.235504 0 0 0 195 190 184 255 
-1.753046 2.44391 3.609471 0 0 0 177 168 159 255 
-1.908669 2.421282 3.732745 0 0 0 186 179 169 255 
1.683966 3.606101 2.160983 0 0 0 223 215 210 255 
-1.389711 2.512205 3.547322 0 0 0 178 169 160 255 
2.000547 3.596445 2.061121 0 0 0 198 190 179 255 
-0.8889161 2.725352 3.357831 0 0 0 155 141 128 255 
1.197444 3.584275 2.404892 0 0 0 208 201 195 255 
2.051048 3.583182 2.119826 0 0 0 186 176 166 255 
2.304528 3.61637 2.128445 0 0 0 199 190 183 255 
-0.6283455 2.798152 3.442601 0 0 0 98 91 75 255 
2.395611 3.631022 2.227021 0 0 0 150 138 126 255 
2.010847 3.235445 2.66271 0 0 0 205 198 192 255 
0.746417 3.332651 3.237489 0 0 0 191 187 178 255 
-0.5634689 2.164771 3.905054 0 0 0 192 185 177 255 
-0.8268135 2.015249 4.0773 0 0 0 137 127 117 255 
0.5305895 3.025746 3.442997 0 0 0 170 186 187 255 
2.196504 1.453445 5.024093 0 0 0 80 72 61 255 
2.128907 1.439142 5.033802 0 0 0 91 83 72 255 
2.360593 1.522341 4.905114 0 0 0 94 84 82 255 
1.922557 1.39645 5.140406 0 0 0 89 81 70 255 
1.738451 1.35583 5.171568 0 0 0 95 85 76 255 
2.470919 1.614585 4.796401 0 0 0 162 156 144 255 
2.603652 1.967042 4.243597 0 0 0 182 174 166 255 
2.39557 1.618949 4.787267 0 0 0 164 154 144 255 
2.396629 2.932961 3.215833 0 0 0 136 128 116 255 
2.474748 1.734751 4.677545 0 0 0 169 159 150 255 
1.944149 1.451505 4.894552 0 0 0 124 114 104 255 
1.007667 1.166168 5.380002 0 0 0 111 101 90 255 
1.954048 1.448344 4.883563 0 0 0 149 139 130 255 
2.191 1.620215 4.793673 0 0 0 159 147 133 255 
2.476337 1.759 4.660174 0 0 0 163 153 143 255 
2.678765 1.884786 4.5352 0 0 0 154 141 132 255 
2.387321 1.789329 4.642675 0 0 0 177 169 158 255 
2.51827 1.881644 4.540498 0 0 0 168 158 149 255 
2.380665 1.848014 4.601102 0 0 0 170 160 148 255 
1.628281 1.411555 4.885872 0 0 0 161 157 150 255 
2.734127 1.9353 4.345312 0 0 0 129 117 105 255 
2.554145 1.936375 4.410545 0 0 0 80 70 60 255 
2.319193 1.914079 4.550862 0 0 0 131 123 110 255 
2.233316 1.907635 4.570447 0 0 0 158 150 146 255 
0.7265131 1.055671 5.189477 0 0 0 112 104 93 255 
2.741655 1.961907 4.249063 0 0 0 70 59 54 255 
1.497846 2.746809 3.600794 0 0 0 161 162 165 255 
1.662467 2.746899 3.485219 0 0 0 152 141 119 255 
2.668674 3.077315 2.958249 0 0 0 162 154 143 255 
1.964736 2.921857 3.167979 0 0 0 189 180 170 255 
1.627998 1.289832 5.340539 0 0 0 145 135 123 255 
2.039992 1.403873 5.113302 0 0 0 107 98 93 255 
1.09391 1.347619 5.029439 0 0 0 119 110 105 255 
0.7064949 1.099633 5.13363 0 0 0 141 133 122 255 
2.582201 1.968896 4.263287 0 0 0 106 89 81 255 
0.9348102 1.322114 5.030764 0 0 0 163 154 147 255 
1.531578 1.58776 4.757157 0 0 0 172 166 154 255 
2.531886 1.983839 4.274316 0 0 0 97 87 75 255 
2.25001 2.021032 4.435196 0 0 0 121 116 112 255 
2.135034 2.039984 4.462039 0 0 0 118 113 109 255 
0.5583488 1.093946 5.037935 0 0 0 169 162 156 255 
1.995925 2.070097 4.441278 0 0 0 161 153 150 255 
2.203477 2.059207 4.285693 0 0 0 93 83 72 255 
2.650191 2.296257 4.007071 0 0 0 193 183 174 255 
2.470112 2.1487 4.059124 0 0 0 175 167 156 255 
0.8339424 1.508716 4.794077 0 0 0 105 97 86 255 
2.006238 2.12295 4.255667 0 0 0 106 92 77 255 
1.40824 1.928103 4.525974 0 0 0 109 101 91 255 
1.348534 2.853085 3.363079 0 0 0 195 187 177 255 
2.865749 2.562886 3.738337 0 0 0 140 130 118 255 
0.9583068 1.666075 4.589666 0 0 0 156 152 143 255 
2.775863 2.524173 3.742478 0 0 0 167 158 147 255 
0.2916958 1.252707 4.859196 0 0 0 187 182 176 255 
0.6205763 1.517611 4.694611 0 0 0 136 126 117 255 
1.610852 2.15504 4.263148 0 0 0 90 81 72 255 
0.6506547 1.579281 4.623508 0 0 0 143 136 126 255 
0.3106078 1.423416 4.777987 0 0 0 179 172 166 255 
1.918759 2.230714 4.048183 0 0 0 171 163 152 255 
0.4161399 1.553938 4.664246 0 0 0 160 155 149 255 
1.489898 2.199266 4.18154 0 0 0 116 107 91 255 
1.097243 2.08139 4.348091 0 0 0 153 149 146 255 
0.08818765 1.337805 4.740209 0 0 0 185 178 172 255 
0.2380816 1.477818 4.655285 0 0 0 189 185 176 255 
2.716434 2.713284 3.508954 0 0 0 179 172 164 255 
2.096106 2.534649 3.803997 0 0 0 150 148 142 255 
0.8085132 2.892524 3.593644 0 0 0 180 171 164 255 
0.8331392 1.998674 4.360275 0 0 0 172 168 159 255 
2.234241 2.521254 3.645794 0 0 0 149 141 130 255 
0.9592179 2.153139 4.233425 0 0 0 88 79 62 255 
0.001063147 1.547925 4.6167 0 0 0 178 171 165 255 
2.602224 3.163057 2.751163 0 0 0 139 132 124 255 
-0.4210266 4.486555 1.157087 0 0 0 214 205 198 255 
1.110865 4.362164 1.301399 0 0 0 188 181 175 255 
1.566546 4.378727 1.213255 0 0 0 180 171 162 255 
1.580602 4.378174 1.221821 0 0 0 219 212 205 255 
0.7962059 3.979866 1.672062 0 0 0 194 185 178 255 
-0.834543 3.241803 2.718422 0 0 0 186 179 173 255 
-1.397323 2.52212 3.548909 0 0 0 178 169 160 255 
-0.6562369 2.757096 3.554363 0 0 0 187 182 178 255 
-0.8071957 2.026377 4.031655 0 0 0 180 172 166 255 
2.132557 2.983814 2.930119 0 0 0 203 194 187 255 
1.840167 2.958175 3.14337 0 0 0 192 185 175 255 
-0.9490736 1.852551 4.460469 0 0 0 172 163 156 255 
2.428524 2.982435 3.07457 0 0 0 141 137 128 255 
-0.607421 1.807624 4.500045 0 0 0 181 172 167 255 
0.5667422 2.278578 4.087578 0 0 0 176 173 168 255 
2.104973 2.549039 3.629785 0 0 0 137 125 109 255 
1.097212 2.082906 4.348897 0 0 0 153 149 146 255 
0.9163972 1.718396 4.52652 0 0 0 166 159 151 255 
0.6205763 1.517611 4.694611 0 0 0 136 126 117 255 
0.4312223 1.405147 4.805591 0 0 0 180 173 165 255 
2.865821 2.562741 3.738235 0 0 0 140 130 118 255 
2.796021 2.482613 3.797976 0 0 0 150 138 126 255 
1.832754 2.128007 4.3408 0 0 0 148 136 123 255 
2.113985 2.070396 4.399515 0 0 0 94 87 79 255 
0.837692 1.363182 4.959907 0 0 0 168 161 151 255 
1.114347 1.526569 4.907011 0 0 0 178 169 160 255 
1.114347 1.526569 4.907011 0 0 0 178 169 160 255 
2.202621 2.021938 4.466123 0 0 0 154 149 143 255 
1.728097 1.677156 4.653014 0 0 0 124 114 102 255 
0.6787922 1.106453 5.120958 0 0 0 117 107 98 255 
2.7344 2.012876 4.175621 0 0 0 146 136 127 255 
2.554145 1.936375 4.410545 0 0 0 80 70 60 255 
2.000186 2.250898 4.036183 0 0 0 177 169 158 255 
2.380665 1.848014 4.601102 0 0 0 170 160 148 255 
1.012213 1.213193 5.257101 0 0 0 163 156 149 255 
2.206012 1.678754 4.743018 0 0 0 166 159 149 255 
0.8792564 1.115369 5.370051 0 0 0 93 84 67 255 
2.678765 1.884786 4.5352 0 0 0 154 141 132 255 
1.954048 1.448344 4.883563 0 0 0 149 139 130 255 
2.474748 1.734751 4.677545 0 0 0 169 159 150 255 
1.247103 1.246889 5.30505 0 0 0 106 96 86 255 
1.163959 1.179739 5.443935 0 0 0 111 102 93 255 
1.320046 1.197494 5.450851 0 0 0 176 167 160 255 
2.128907 1.439142 5.033802 0 0 0 91 83 72 255 
1.151095 1.068459 5.57067 0 0 0 140 130 120 255 
-1.650837 2.504915 3.348357 0 0 0 195 188 180 255 
1.574837 1.233863 5.413703 0 0 0 180 172 164 255 
2.772697 2.865201 3.248542 0 0 0 149 134 113 255 
1.442407 2.483527 3.827824 0 0 0 180 171 164 255 
-1.478155 2.98024 2.8422 0 0 0 172 163 156 255 
3.040862 2.541371 3.735822 0 0 0 190 179 170 255 
0.1502552 1.479197 4.645197 0 0 0 188 181 173 255 
2.382041 3.057101 2.854224 0 0 0 202 195 187 255 
-1.708944 3.53426 2.067222 0 0 0 187 179 176 255 
-0.1632241 1.557867 4.634409 0 0 0 189 182 176 255 
2.535091 1.96865 4.322793 0 0 0 150 140 131 255 
2.298986 1.584203 4.819914 0 0 0 111 101 91 255 
1.795404 1.339234 5.292098 0 0 0 116 104 92 255 
-0.9098961 4.842943 0.6350119 0 0 0 215 204 198 255 
1.389062 1.891006 4.535838 0 0 0 155 149 137 255 
1.858135 1.726066 4.63357 0 0 0 169 159 149 255 
1.37868 3.216923 2.955245 0 0 0 129 116 100 255 
-0.9197702 2.020559 4.050091 0 0 0 184 175 168 255 
2.408195 2.94389 3.263275 0 0 0 154 137 121 255 
0.1084545 2.853274 3.583589 0 0 0 191 184 174 255 
-0.7084503 2.034998 4.022725 0 0 0 181 172 165 255 
0.2561493 3.031012 3.540447 0 0 0 134 131 124 255 
1.952568 3.083624 2.812111 0 0 0 203 194 187 255 
-0.906477 1.995138 4.153642 0 0 0 141 135 122 255 
-0.5194768 2.082497 3.986163 0 0 0 157 149 138 255 
2.175767 3.148737 2.757882 0 0 0 186 177 168 255 
-0.1682997 2.338982 3.853506 0 0 0 188 181 173 255 
0.5666271 2.988206 3.533371 0 0 0 131 126 120 255 
-0.3219695 2.093075 4.013118 0 0 0 180 173 167 255 
0.001303613 2.378069 3.856161 0 0 0 189 180 171 255 
0.482026 2.920126 3.630958 0 0 0 151 147 138 255 
-0.8291295 1.98886 4.262207 0 0 0 110 103 93 255 
1.906534 2.991267 3.015774 0 0 0 151 139 125 255 
-0.3116308 2.046117 4.062954 0 0 0 177 168 159 255 
0.6322393 2.936383 3.621488 0 0 0 130 123 115 255 
2.41653 3.08731 2.818731 0 0 0 202 193 186 255 
0.5139586 2.860079 3.693889 0 0 0 124 117 111 255 
2.196997 2.971837 2.942468 0 0 0 203 193 185 255 
1.379084 2.881618 3.320369 0 0 0 198 190 187 255 
0.4421194 2.808775 3.748709 0 0 0 157 152 146 255 
-0.6968665 1.951999 4.355706 0 0 0 196 191 187 255 
-0.7497362 1.943239 4.381612 0 0 0 119 110 103 255 
-0.7580951 1.891531 4.438287 0 0 0 181 172 167 255 
2.452821 2.99307 2.952605 0 0 0 135 122 106 255 
0.754409 2.66058 3.74714 0 0 0 169 160 151 255 
-0.1496045 2.05395 4.170038 0 0 0 184 180 168 255 
1.457965 2.791567 3.455515 0 0 0 139 125 112 255 
2.532032 3.010101 2.978514 0 0 0 137 128 111 255 
-0.4052183 1.963905 4.384592 0 0 0 143 133 123 255 
0.9862913 2.581661 3.744173 0 0 0 181 172 163 255 
-0.6793758 1.768908 4.55612 0 0 0 116 107 102 255 
-0.2567194 1.952672 4.371183 0 0 0 125 119 107 255 
-0.2724086 1.947461 4.4042 0 0 0 114 107 99 255 
2.613034 2.970639 3.146126 0 0 0 177 168 155 255 
-0.175916 1.901059 4.450394 0 0 0 162 158 157 255 
0.1428554 1.852859 4.31433 0 0 0 213 209 200 255 
1.765689 2.69239 3.567742 0 0 0 197 190 182 255 
2.662404 2.952576 3.147328 0 0 0 140 123 105 255 
2.685051 2.93976 3.157948 0 0 0 171 159 145 255 
2.767054 2.938643 3.116672 0 0 0 189 180 173 255 
2.61766 2.95136 3.207598 0 0 0 130 117 98 255 
1.510059 2.588522 3.767001 0 0 0 193 186 178 255 
2.682973 2.909651 3.255296 0 0 0 144 129 109 255 
0.2519878 1.732066 4.378444 0 0 0 195 191 182 255 
1.297887 2.337021 3.9163 0 0 0 181 173 164 255 
2.686023 2.889995 3.302429 0 0 0 125 113 99 255 
2.015396 2.554735 3.62185 0 0 0 169 159 147 255 
2.83338 2.830248 3.240786 0 0 0 186 175 164 255 
0.6877311 2.061849 4.265007 0 0 0 198 190 177 255 
0.4473232 1.754576 4.384998 0 0 0 170 165 161 255 
2.371198 2.577411 3.515955 0 0 0 185 176 169 255 
1.589218 2.378632 3.910123 0 0 0 190 183 173 255 
1.648734 2.383274 3.884739 0 0 0 190 181 174 255 
2.023411 2.528612 3.710954 0 0 0 153 145 132 255 
1.107154 2.276824 4.157156 0 0 0 175 165 155 255 
0.01840836 1.497229 4.647728 0 0 0 197 192 185 255 
1.352208 2.251564 4.058034 0 0 0 107 98 83 255 
2.277561 2.513875 3.616122 0 0 0 118 110 97 255 
0.0968181 1.518973 4.624796 0 0 0 196 191 185 255 
2.870756 2.778007 3.343282 0 0 0 194 186 173 255 
1.735998 2.358979 3.893351 0 0 0 179 171 165 255 
1.94006 2.444791 3.805344 0 0 0 155 145 133 255 
0.4849113 1.640751 4.47581 0 0 0 143 138 134 255 
1.885564 2.385291 3.843867 0 0 0 185 180 170 255 
2.56672 2.582291 3.548694 0 0 0 159 151 138 255 
0.9263589 2.046178 4.346372 0 0 0 186 177 168 255 
1.135062 2.175219 4.271282 0 0 0 110 106 97 255 
2.416908 2.470836 3.641186 0 0 0 189 180 168 255 
2.294631 2.497762 3.713522 0 0 0 113 101 87 255 
2.752937 2.730344 3.507381 0 0 0 126 117 108 255 
2.899723 2.739781 3.435656 0 0 0 132 119 103 255 
2.856558 2.7487 3.463465 0 0 0 118 108 97 255 
1.414831 2.213408 4.164532 0 0 0 106 99 83 255 
0.2374041 1.46346 4.676253 0 0 0 159 155 146 255 
1.477505 2.208113 4.133854 0 0 0 110 103 87 255 
0.4090389 1.565569 4.628261 0 0 0 115 109 97 255 
0.5117626 1.56959 4.575023 0 0 0 173 169 160 255 
2.024836 2.381676 3.919772 0 0 0 188 181 173 255 
0.2187282 1.407705 4.733693 0 0 0 90 80 68 255 
0.5190502 1.555701 4.607891 0 0 0 206 199 189 255 
1.8765 2.255394 3.996531 0 0 0 179 169 157 255 
2.826414 2.697079 3.559811 0 0 0 189 182 172 255 
0.409046 1.54732 4.690896 0 0 0 116 109 103 255 
2.243202 2.38138 3.893945 0 0 0 200 196 187 255 
0.4849559 1.518544 4.709755 0 0 0 182 173 166 255 
1.212359 1.987052 4.405684 0 0 0 181 172 167 255 
1.780296 2.197556 4.134441 0 0 0 113 101 88 255 
0.7107375 1.609508 4.609714 0 0 0 77 71 60 255 
2.194536 2.291779 3.970139 0 0 0 194 185 178 255 
2.055678 2.249509 4.042805 0 0 0 179 171 160 255 
2.647665 2.447313 3.776042 0 0 0 118 111 94 255 
1.896227 2.179884 4.142318 0 0 0 156 146 133 255 
2.978991 2.659487 3.635907 0 0 0 185 175 163 255 
2.953303 2.650477 3.65519 0 0 0 185 177 166 255 
2.647125 2.444411 3.797022 0 0 0 109 97 80 255 
3.015592 2.664045 3.638129 0 0 0 192 182 173 255 
2.049176 2.183768 4.100131 0 0 0 125 116 109 255 
2.216927 2.225132 4.018064 0 0 0 185 176 167 255 
0.6662324 1.48111 4.754775 0 0 0 135 128 122 255 
0.6221366 1.430872 4.771813 0 0 0 118 109 100 255 
2.825987 2.514984 3.775694 0 0 0 127 114 105 255 
2.965546 2.598053 3.719929 0 0 0 141 133 122 255 
2.899017 2.549896 3.765918 0 0 0 165 158 150 255 
2.930064 2.567415 3.756016 0 0 0 86 76 66 255 
0.6339382 1.413311 4.796744 0 0 0 176 168 156 255 
0.5924966 1.34477 4.839506 0 0 0 187 180 175 255 
1.96326 2.13279 4.249485 0 0 0 129 120 104 255 
3.058237 2.54178 3.728344 0 0 0 220 217 217 255 
0.4928828 1.245376 4.888043 0 0 0 131 122 114 255 
1.255941 1.847336 4.601936 0 0 0 99 89 77 255 
2.706648 2.424256 3.92179 0 0 0 163 154 145 255 
2.656193 2.361154 3.959491 0 0 0 189 179 169 255 
2.942567 2.47389 3.826391 0 0 0 185 175 165 255 
0.4213375 1.123301 4.949273 0 0 0 178 170 163 255 
0.9423624 1.590882 4.775469 0 0 0 105 96 81 255 
2.081515 2.101118 4.266508 0 0 0 114 102 88 255 
1.248177 1.812694 4.678261 0 0 0 84 75 60 255 
2.197838 2.067172 4.20451 0 0 0 100 90 78 255 
0.4539452 1.095509 4.96921 0 0 0 91 81 72 255 
2.066264 2.095806 4.304673 0 0 0 162 156 144 255 
2.72556 2.318021 3.992044 0 0 0 166 158 147 255 
2.233406 2.068785 4.216436 0 0 0 112 102 90 255 
2.297014 2.055266 4.181643 0 0 0 114 102 88 255 
2.338496 2.041158 4.192322 0 0 0 113 97 84 255 
2.952711 2.3273 3.910647 0 0 0 162 148 137 255 
0.7068714 1.269012 4.951281 0 0 0 168 161 152 255 
0.8070343 1.347182 4.929906 0 0 0 176 167 158 255 
2.097559 2.084392 4.383829 0 0 0 92 84 71 255 
0.7175493 1.258842 4.965108 0 0 0 184 181 174 255 
0.6857267 1.226974 4.980904 0 0 0 185 181 172 255 
2.129787 2.07083 4.375287 0 0 0 73 64 57 255 
1.053478 1.566881 4.877345 0 0 0 176 169 159 255 
2.145885 2.067646 4.378164 0 0 0 101 92 83 255 
1.443137 1.809273 4.721697 0 0 0 189 184 174 255 
2.953665 2.254687 3.950196 0 0 0 187 177 168 255 
2.085004 2.074343 4.426015 0 0 0 99 95 86 255 
2.683282 2.148273 4.093412 0 0 0 184 174 165 255 
2.846723 2.194302 4.02048 0 0 0 147 133 120 255 
1.267717 1.656677 4.809619 0 0 0 195 186 177 255 
0.6115546 1.108216 5.061855 0 0 0 170 160 148 255 
0.523245 1.042493 5.096734 0 0 0 122 112 100 255 
2.664507 2.085733 4.139183 0 0 0 185 176 170 255 
2.144518 2.04716 4.449021 0 0 0 62 57 54 255 
1.056972 1.495088 4.933138 0 0 0 175 166 158 255 
2.265047 2.02951 4.388202 0 0 0 140 135 129 255 
2.198582 2.035814 4.445386 0 0 0 69 65 56 255 
0.5824802 1.05404 5.116515 0 0 0 193 190 185 255 
2.877322 2.131208 4.072189 0 0 0 177 167 156 255 
2.525346 1.986104 4.245962 0 0 0 87 75 63 255 
2.272237 2.016463 4.414641 0 0 0 132 127 123 255 
0.9964647 1.371252 5.015244 0 0 0 173 164 155 255 
0.5926035 2.00388 4.294685 0 0 0 123 114 104 255 
2.96388 2.079168 4.072951 0 0 0 175 167 155 255 
0.7198394 1.122031 5.139479 0 0 0 127 117 107 255 
0.6602852 1.072022 5.173707 0 0 0 81 72 63 255 
1.068645 1.35763 5.025696 0 0 0 179 170 163 255 
0.9624938 1.280707 5.092801 0 0 0 112 103 96 255 
0.6602265 1.067103 5.207744 0 0 0 74 68 56 255 
1.75699 1.600464 4.721953 0 0 0 154 144 135 255 
1.7663 1.588097 4.731611 0 0 0 169 159 150 255 
2.149872 1.857854 4.595672 0 0 0 115 106 97 255 
1.717414 1.539324 4.755606 0 0 0 179 170 161 255 
1.570211 1.459962 4.832844 0 0 0 179 172 162 255 
1.307001 1.369847 4.965755 0 0 0 176 168 158 255 
2.915222 1.988824 4.199069 0 0 0 76 66 57 255 
1.042593 1.261761 5.128731 0 0 0 176 167 161 255 
2.088688 1.750551 4.658168 0 0 0 175 165 154 255 
2.887437 1.975534 4.23705 0 0 0 96 86 74 255 
1.398743 1.364953 4.957805 0 0 0 153 144 129 255 
1.303489 1.33939 5.013188 0 0 0 74 61 45 255 
2.177516 1.791539 4.641637 0 0 0 174 164 152 255 
1.048099 1.258183 5.194946 0 0 0 87 80 71 255 
0.9200168 1.163276 5.278155 0 0 0 153 146 136 255 
2.295533 1.774275 4.66157 0 0 0 170 158 149 255 
2.751077 1.924833 4.437662 0 0 0 85 75 65 255 
2.483564 1.850118 4.589253 0 0 0 175 167 156 255 
1.811992 1.450583 4.863847 0 0 0 152 142 139 255 
2.148124 1.657254 4.740302 0 0 0 156 146 134 255 
2.273039 1.720788 4.696571 0 0 0 178 168 159 255 
2.535448 1.852718 4.593845 0 0 0 152 138 129 255 
1.179194 1.275777 5.234576 0 0 0 182 174 165 255 
2.392248 1.762801 4.659662 0 0 0 180 173 162 255 
1.289362 1.294302 5.183169 0 0 0 62 52 42 255 
2.239227 1.677195 4.736659 0 0 0 178 166 155 255 
1.10872 1.229165 5.284201 0 0 0 182 174 164 255 
2.140612 1.590869 4.789664 0 0 0 179 169 159 255 
2.662 1.871417 4.59757 0 0 0 177 168 159 255 
1.901692 1.420646 4.908525 0 0 0 162 153 144 255 
2.322805 1.686632 4.75226 0 0 0 175 162 153 255 
2.464197 1.698525 4.701032 0 0 0 183 175 164 255 
1.261601 1.218139 5.317895 0 0 0 100 90 79 255 
2.758411 1.866944 4.617565 0 0 0 110 93 83 255 
1.696844 1.373035 5.103862 0 0 0 89 79 69 255 
2.770219 1.86553 4.625079 0 0 0 154 140 129 255 
1.65249 1.349931 5.160456 0 0 0 141 133 120 255 
2.507371 1.66269 4.740499 0 0 0 155 145 136 255 
1.366305 1.233044 5.340336 0 0 0 129 121 118 255 
2.012763 1.419362 4.999173 0 0 0 88 75 66 255 
1.633312 1.347025 5.226227 0 0 0 89 79 69 255 
1.975486 1.405663 5.034091 0 0 0 62 52 43 255 
2.252938 1.506451 4.897669 0 0 0 135 130 126 255 
2.615278 1.672873 4.762131 0 0 0 166 156 146 255 
1.903126 1.378588 5.105929 0 0 0 92 84 74 255 
1.999163 1.409813 5.06646 0 0 0 79 71 58 255 
1.915895 1.399153 5.123963 0 0 0 62 54 44 255 
2.054393 1.419765 5.047953 0 0 0 70 63 49 255 
1.941809 1.396453 5.124398 0 0 0 39 31 22 255 
2.113935 1.434006 5.041038 0 0 0 77 69 58 255 
2.480792 1.558593 4.864658 0 0 0 121 111 101 255 
1.958326 1.391815 5.146843 0 0 0 102 93 84 255 
1.485401 1.236105 5.403036 0 0 0 183 174 165 255 
1.132478 1.068452 5.570044 0 0 0 120 110 101 255 
1.638781 1.28994 5.345112 0 0 0 170 157 148 255 
2.20482 1.451774 5.039437 0 0 0 76 66 56 255 
1.952556 1.395382 5.189596 0 0 0 95 85 76 255 
1.579995 1.253555 5.384126 0 0 0 120 110 98 255 
1.276936 1.123142 5.52669 0 0 0 142 132 120 255 
1.349019 1.157602 5.500484 0 0 0 179 170 161 255 
1.654981 1.284714 5.364589 0 0 0 113 100 91 255 
1.542511 1.230564 5.421978 0 0 0 160 150 140 255 
1.266574 1.106965 5.547149 0 0 0 185 175 165 255 
1.668571 1.246042 5.346961 0 0 0 177 167 157 255 
1.56391 1.219812 5.429818 0 0 0 175 166 157 255 
1.185406 1.025971 5.60531 0 0 0 190 183 177 255 
1.461444 1.169024 5.505732 0 0 0 161 153 142 255 
1.606538 1.221595 5.440212 0 0 0 176 169 162 255 
-1.627568 2.990781 2.78464 0 0 0 216 208 205 255 
2.350347 3.605114 2.305996 0 0 0 146 132 121 255 
-1.189228 2.623195 3.334354 0 0 0 194 185 176 255 
-0.5134177 4.666332 0.7857284 0 0 0 187 180 172 255 
0.07526395 3.963048 1.855444 0 0 0 222 213 208 255 
-2.226447 2.781722 3.087249 0 0 0 175 166 159 255 
1.979478 3.347296 2.55475 0 0 0 203 194 185 255 
2.684042 2.101729 4.126485 0 0 0 137 128 121 255 
-2.360697 3.928514 1.578014 0 0 0 218 213 209 255 
0.1190943 4.917392 0.4848538 0 0 0 222 213 204 255 
-0.4581547 4.666926 0.7867936 0 0 0 181 172 167 255 
-2.083901 3.963291 1.602801 0 0 0 202 198 189 255 
0.2351095 4.876322 0.6209219 0 0 0 196 189 181 255 
-0.6856886 4.443873 1.054851 0 0 0 219 210 205 255 
-1.808359 3.960182 1.575629 0 0 0 207 202 196 255 
-0.1401424 4.59597 0.8667131 0 0 0 179 171 168 255 
-0.2647511 4.563369 0.9145576 0 0 0 218 209 202 255 
-0.1914092 4.565097 0.8974085 0 0 0 167 160 154 255 
-0.4099446 4.515808 1.020362 0 0 0 193 184 175 255 
-0.4982636 4.479801 1.093009 0 0 0 180 171 164 255 
-1.755289 3.899413 1.733846 0 0 0 213 208 202 255 
-2.180467 3.537224 2.054169 0 0 0 206 198 195 255 
-0.0663344 4.513552 1.075698 0 0 0 214 204 195 255 
0.6545696 4.664667 0.8511502 0 0 0 194 187 179 255 
-2.02642 3.504225 2.086008 0 0 0 206 201 195 255 
0.5934603 4.678143 0.8800498 0 0 0 228 221 213 255 
0.4054015 4.552427 1.031654 0 0 0 214 205 198 255 
0.167276 4.362957 1.204892 0 0 0 222 215 209 255 
0.9603914 4.565289 0.9045622 0 0 0 221 212 203 255 
0.9232377 4.562271 0.9173068 0 0 0 218 212 203 255 
1.427012 4.619834 0.8035809 0 0 0 186 177 168 255 
-2.157505 3.428665 2.340209 0 0 0 155 145 136 255 
-1.450784 3.562067 2.101105 0 0 0 211 204 198 255 
1.433219 4.554493 0.8862836 0 0 0 179 170 163 255 
1.337135 4.52575 0.9419556 0 0 0 191 181 169 255 
1.076642 4.540131 1.036543 0 0 0 219 211 200 255 
0.9709118 4.472101 1.096219 0 0 0 216 207 198 255 
1.243731 4.526422 1.046054 0 0 0 225 218 212 255 
-1.131286 3.66483 2.080886 0 0 0 207 200 192 255 
-1.481255 3.462921 2.303054 0 0 0 197 189 182 255 
1.301378 4.512089 1.097736 0 0 0 233 224 219 255 
-1.103227 3.577428 2.188392 0 0 0 221 214 208 255 
1.474566 4.438837 1.122475 0 0 0 223 214 205 255 
-1.541816 3.304374 2.448732 0 0 0 193 186 180 255 
1.271728 4.469772 1.198882 0 0 0 191 182 175 255 
-2.403552 3.033854 2.846023 0 0 0 201 191 182 255 
1.258388 4.438217 1.239689 0 0 0 189 181 176 255 
0.8860389 4.311563 1.406925 0 0 0 223 214 207 255 
-1.517522 3.060685 2.650586 0 0 0 206 199 193 255 
-2.126059 3.074644 2.872995 0 0 0 193 188 182 255 
1.630255 4.358133 1.277337 0 0 0 224 215 210 255 
-2.224412 2.999592 2.970166 0 0 0 197 190 185 255 
-1.652603 2.897817 2.925884 0 0 0 203 196 188 255 
1.503811 3.985956 1.564936 0 0 0 191 180 174 255 
0.7394871 3.76052 1.90813 0 0 0 212 202 192 255 
-1.003111 3.171304 2.67956 0 0 0 148 138 129 255 
-1.291618 3.019142 2.867561 0 0 0 178 168 159 255 
-0.9169263 3.20479 2.69394 0 0 0 161 153 145 255 
-0.9530535 3.17533 2.716171 0 0 0 156 147 140 255 
1.754542 4.089607 1.550401 0 0 0 213 206 200 255 
-1.187208 3.067312 2.876451 0 0 0 127 118 108 255 
-1.981229 2.517376 3.309129 0 0 0 194 187 181 255 
1.452844 3.744968 1.801933 0 0 0 214 205 197 255 
-2.102561 2.459896 3.407841 0 0 0 131 121 111 255 
0.8887759 3.733316 2.04879 0 0 0 208 198 191 255 
-1.033104 3.110241 2.891999 0 0 0 158 151 145 255 
-0.8211395 3.172231 2.874479 0 0 0 155 154 152 255 
-1.856921 2.452192 3.43704 0 0 0 137 127 118 255 
-1.837158 2.452274 3.481607 0 0 0 128 118 110 255 
-1.608938 2.49344 3.423433 0 0 0 124 114 102 255 
-0.9255198 2.967317 3.072058 0 0 0 205 198 192 255 
-1.391277 2.570823 3.338425 0 0 0 184 176 165 255 
-1.834682 2.448027 3.534292 0 0 0 110 102 89 255 
1.442011 3.679254 2.072854 0 0 0 203 189 186 255 
1.859315 3.685336 1.923304 0 0 0 175 166 159 255 
1.753616 3.611246 2.019253 0 0 0 176 164 151 255 
-2.006992 2.430715 3.683664 0 0 0 114 107 96 255 
-1.648517 2.432644 3.610437 0 0 0 195 188 180 255 
0.8685709 3.58906 2.433247 0 0 0 160 150 141 255 
-1.521533 2.479726 3.560875 0 0 0 146 136 126 255 
1.942944 3.581433 2.05158 0 0 0 195 186 175 255 
1.686831 3.614507 2.14172 0 0 0 172 160 146 255 
-1.579648 2.441043 3.609346 0 0 0 149 139 130 255 
1.384875 3.677285 2.24703 0 0 0 202 193 186 255 
2.05051 3.605581 2.051841 0 0 0 177 168 161 255 
-1.407659 2.503107 3.576183 0 0 0 185 178 172 255 
2.004314 3.591942 2.086775 0 0 0 159 147 133 255 
-1.480399 2.429702 3.644935 0 0 0 189 178 172 255 
-0.9714152 2.68589 3.418646 0 0 0 116 104 89 255 
-1.396492 2.458294 3.641499 0 0 0 172 163 156 255 
2.110209 3.584282 2.111064 0 0 0 190 182 168 255 
-0.6172782 2.812471 3.336726 0 0 0 149 140 125 255 
-0.6512863 2.80539 3.364302 0 0 0 127 115 99 255 
1.166031 3.451508 2.549455 0 0 0 204 195 188 255 
-0.5342284 2.828714 3.334691 0 0 0 179 170 161 255 
-1.42065 2.265791 3.792374 0 0 0 196 187 178 255 
0.8360975 3.47201 2.750867 0 0 0 199 190 179 255 
-0.4441865 2.808182 3.427554 0 0 0 202 195 187 255 
2.018461 3.453672 2.422329 0 0 0 213 206 198 255 
1.251347 3.267577 2.866871 0 0 0 188 179 171 255 
-1.234331 2.034429 4.077909 0 0 0 119 109 99 255 
1.629903 4.390995 1.153784 0 0 0 240 233 227 255 
-0.784375 2.021503 4.063184 0 0 0 96 86 76 255 
1.803476 2.189089 4.176054 0 0 0 79 69 55 255 
2.531399 2.356152 3.885706 0 0 0 185 177 166 255 
2.823142 1.936728 4.510567 0 0 0 183 176 168 255 
-0.6759179 4.485838 1.009463 0 0 0 182 173 168 255 
-0.6849148 4.442119 1.054226 0 0 0 219 210 205 255 
-0.2647511 4.563369 0.9145576 0 0 0 218 209 202 255 
0.2255073 4.57893 0.9157863 0 0 0 228 219 212 255 
0.5928823 4.679504 0.8798158 0 0 0 228 221 213 255 
0.5928823 4.679504 0.8798158 0 0 0 228 221 213 255 
-2.209846 3.438636 2.229666 0 0 0 159 149 140 255 
0.4054015 4.552427 1.031654 0 0 0 214 205 198 255 
0.9232377 4.562271 0.9173068 0 0 0 218 212 203 255 
1.427012 4.619834 0.8035809 0 0 0 186 177 168 255 
-1.313873 3.597767 2.104357 0 0 0 218 211 205 255 
1.459333 4.504297 0.9471192 0 0 0 180 171 164 255 
-1.392889 3.53604 2.17197 0 0 0 214 207 201 255 
-0.1108779 3.836423 1.673155 0 0 0 200 190 181 255 
1.188636 4.52284 1.052344 0 0 0 208 201 195 255 
1.216579 4.508206 1.133253 0 0 0 187 178 171 255 
1.216986 4.509221 1.13283 0 0 0 187 178 171 255 
0.1445768 3.94949 1.867382 0 0 0 175 165 155 255 
0.408944 3.472212 3.076422 0 0 0 135 110 103 255 
0.2245028 3.888806 1.860809 0 0 0 210 200 191 255 
0.8982384 3.952457 1.667149 0 0 0 187 178 171 255 
-1.187208 3.067312 2.876451 0 0 0 127 118 108 255 
-1.784562 2.467149 3.405789 0 0 0 162 152 143 255 
-1.477393 2.547537 3.39605 0 0 0 197 188 183 255 
-1.774576 2.453351 3.534322 0 0 0 116 108 97 255 
1.638213 3.61828 2.062878 0 0 0 217 208 199 255 
1.722585 3.593246 2.228722 0 0 0 170 161 152 255 
-0.9735892 2.650953 3.530306 0 0 0 78 72 72 255 
-0.5342284 2.828714 3.334691 0 0 0 179 170 161 255 
-0.3428781 2.805155 3.463238 0 0 0 182 175 167 255 
-0.5310814 2.648046 3.632704 0 0 0 188 184 181 255 
0.02647542 3.241438 3.353549 0 0 0 208 198 189 255 
-0.1059655 2.907376 3.499716 0 0 0 189 182 172 255 
1.774558 3.191545 2.727345 0 0 0 209 200 191 255 
0.4585243 2.995026 3.438659 0 0 0 184 129 166 255 
-0.7614383 2.010121 4.134741 0 0 0 209 205 196 255 
1.880468 3.033356 2.919682 0 0 0 216 208 195 255 
1.224891 3.015687 3.269392 0 0 0 205 196 187 255 
-0.7167276 2.000104 4.244184 0 0 0 155 148 142 255 
1.379084 2.881618 3.320369 0 0 0 198 190 187 255 
2.661512 3.184258 2.791783 0 0 0 171 164 154 255 
-0.6968769 1.951948 4.355539 0 0 0 196 191 187 255 
-0.7580951 1.891531 4.438287 0 0 0 181 172 167 255 
-0.4700069 1.97244 4.359669 0 0 0 170 161 154 255 
2.384448 2.975209 3.070803 0 0 0 115 108 89 255 
-0.2570732 1.881959 4.484504 0 0 0 197 190 182 255 
2.613034 2.970639 3.146126 0 0 0 177 168 155 255 
0.1435996 1.849672 4.314364 0 0 0 213 209 200 255 
2.662404 2.952576 3.147328 0 0 0 140 123 105 255 
1.423861 2.536337 3.779454 0 0 0 189 182 176 255 
1.434548 2.54725 3.788559 0 0 0 169 162 154 255 
2.686759 2.893687 3.303293 0 0 0 125 113 99 255 
2.83338 2.830248 3.240786 0 0 0 186 175 164 255 
2.729523 2.846557 3.327079 0 0 0 184 175 158 255 
0.8009174 2.094545 4.243941 0 0 0 109 97 83 255 
1.55624 2.390108 3.892887 0 0 0 188 179 172 255 
-0.03965705 1.525124 4.634185 0 0 0 191 188 183 255 
1.107154 2.276824 4.157156 0 0 0 175 165 155 255 
0.01840836 1.497229 4.647728 0 0 0 197 192 185 255 
2.33642 2.49576 3.632652 0 0 0 174 164 154 255 
2.922879 2.758957 3.386189 0 0 0 107 96 77 255 
0.9260424 2.046381 4.346477 0 0 0 186 177 168 255 
2.92812 2.75643 3.39386 0 0 0 193 186 176 255 
1.726028 2.245597 4.013457 0 0 0 181 172 164 255 
2.788711 2.647855 3.597306 0 0 0 138 128 118 255 
2.465292 2.43659 3.763535 0 0 0 122 113 98 255 
0.7106931 1.609874 4.610702 0 0 0 77 71 60 255 
1.928558 2.22028 4.066384 0 0 0 173 165 154 255 
2.802025 2.605667 3.66419 0 0 0 184 176 166 255 
1.460058 2.102282 4.362307 0 0 0 72 67 61 255 
0.9994001 1.690982 4.603077 0 0 0 62 54 43 255 
1.634833 2.076352 4.36519 0 0 0 174 169 165 255 
0.6339382 1.413311 4.796744 0 0 0 176 168 156 255 
0.4944889 1.242065 4.885618 0 0 0 131 122 114 255 
1.030758 1.653521 4.717497 0 0 0 168 161 152 255 
0.9419528 1.591425 4.775928 0 0 0 105 96 81 255 
1.248177 1.812694 4.678261 0 0 0 84 75 60 255 
0.4558574 1.09225 4.966582 0 0 0 91 81 72 255 
0.8293272 1.410447 4.882428 0 0 0 112 105 95 255 
1.732197 1.899103 4.52701 0 0 0 184 175 166 255 
0.9125071 1.459641 4.908632 0 0 0 168 159 150 255 
2.129787 2.07083 4.375287 0 0 0 73 64 57 255 
2.129787 2.07083 4.375287 0 0 0 73 64 57 255 
2.145885 2.067646 4.378164 0 0 0 101 92 83 255 
0.6115546 1.108216 5.061855 0 0 0 170 160 148 255 
1.865772 1.841361 4.564051 0 0 0 186 176 166 255 
2.198863 2.034518 4.445501 0 0 0 69 65 56 255 
0.6677189 1.10928 5.095528 0 0 0 189 182 176 255 
0.6683071 1.108554 5.094749 0 0 0 189 182 176 255 
0.8613052 1.271328 5.053061 0 0 0 168 159 150 255 
0.6672276 1.030396 5.14371 0 0 0 204 199 194 255 
1.803425 1.621101 4.702073 0 0 0 189 180 171 255 
0.687173 1.082755 5.222143 0 0 0 102 93 84 255 
0.7070038 1.044899 5.194643 0 0 0 102 93 84 255 
0.7070096 1.044841 5.194562 0 0 0 102 93 84 255 
2.149872 1.857854 4.595672 0 0 0 115 106 97 255 
1.307001 1.369847 4.965755 0 0 0 176 168 158 255 
2.335569 1.913876 4.545911 0 0 0 111 102 93 255 
2.283085 1.845475 4.604599 0 0 0 184 174 164 255 
2.283085 1.845475 4.604599 0 0 0 184 174 164 255 
1.356343 1.351497 5.021816 0 0 0 83 71 57 255 
1.356343 1.351497 5.021816 0 0 0 83 71 57 255 
1.720981 1.430833 4.872691 0 0 0 163 153 144 255 
1.184176 1.290177 5.209085 0 0 0 101 91 81 255 
1.779443 1.418082 4.89474 0 0 0 144 134 125 255 
2.535448 1.852718 4.593845 0 0 0 152 138 129 255 
1.179194 1.275777 5.234576 0 0 0 182 174 165 255 
1.178753 1.276678 5.235569 0 0 0 182 174 165 255 
1.10228 1.248176 5.297126 0 0 0 182 174 164 255 
2.140612 1.590869 4.789664 0 0 0 179 169 159 255 
1.489126 1.366367 5.121961 0 0 0 75 66 57 255 
2.814345 1.917692 4.544175 0 0 0 75 62 53 255 
2.680928 1.860249 4.625022 0 0 0 203 202 204 255 
2.614445 1.790701 4.646383 0 0 0 135 122 113 255 
2.785068 1.886004 4.595811 0 0 0 110 95 88 255 
1.066778 1.142177 5.439039 0 0 0 173 164 155 255 
1.290516 1.261698 5.423093 0 0 0 59 52 47 255 
2.450896 1.581455 4.833105 0 0 0 164 154 144 255 
2.450896 1.581455 4.833105 0 0 0 164 154 144 255 
1.92057 1.382451 5.114317 0 0 0 62 54 44 255 
1.941809 1.396453 5.124398 0 0 0 39 31 22 255 
1.484527 1.237887 5.405378 0 0 0 183 174 165 255 
1.579995 1.253555 5.384126 0 0 0 120 110 98 255 
1.276847 1.123541 5.527237 0 0 0 142 132 120 255 
1.654981 1.284714 5.364589 0 0 0 113 100 91 255 
1.185045 1.026883 5.606688 0 0 0 190 183 177 255 
1.185406 1.025971 5.60531 0 0 0 190 183 177 255 
1.392144 3.673476 2.128115 0 0 0 157 149 140 255 
0.8807303 2.189128 4.156684 0 0 0 169 156 142 255 
0.1998115 2.450582 3.872126 0 0 0 52 45 38 255 
1.092752 1.980489 4.392751 0 0 0 144 133 118 255 
1.477063 3.665356 2.039766 0 0 0 162 145 119 255 
1.783385 3.55585 2.291895 0 0 0 189 174 154 255 
0.200665 2.326058 3.938988 0 0 0 182 173 167 255 
1.773404 3.62919 1.979714 0 0 0 201 188 177 255 
1.667095 2.316078 3.940912 0 0 0 166 151 135 255 
1.011004 3.656851 2.22226 0 0 0 194 186 179 255 
0.3833756 2.408628 3.911115 0 0 0 175 174 172 255 
0.8487947 1.309305 5.003047 0 0 0 123 113 103 255 
-2.295201 3.042107 2.930121 0 0 0 183 172 166 255 
-2.058633 3.099198 2.67524 0 0 0 155 146 139 255 
1.455691 2.232094 4.064245 0 0 0 165 156 141 255 
-1.672961 3.012259 2.676373 0 0 0 203 194 187 255 
0.9942027 1.10427 5.465932 0 0 0 176 168 161 255 
-2.337938 3.023415 2.903397 0 0 0 144 131 123 255 
2.330593 3.79623 2.111888 0 0 0 143 128 112 255 
2.119581 2.555967 3.593513 0 0 0 130 118 102 255 
-2.242716 3.134586 2.713829 0 0 0 198 189 182 255 
0.2414958 3.424531 3.299121 0 0 0 142 162 176 255 
1.172827 0.9880984 5.633255 0 0 0 186 177 168 255 
-0.9580997 2.668606 3.480716 0 0 0 136 127 120 255 
2.4027 2.714399 3.442249 0 0 0 187 178 169 255 
1.444894 2.672642 3.579111 0 0 0 0 0 0 255 
1.104375 2.107359 4.281165 0 0 0 170 166 164 255 
0.8067887 3.645498 2.277708 0 0 0 147 135 125 255 
1.124751 1.70256 4.750895 0 0 0 63 54 44 255 
0.9300795 3.757085 1.942654 0 0 0 174 164 154 255 
0.9675134 2.15125 4.215847 0 0 0 133 124 109 255 
1.488138 1.317087 5.290998 0 0 0 172 163 153 255 
2.358383 2.4953 3.65034 0 0 0 141 129 113 255 
-0.9101723 1.978689 4.301051 0 0 0 162 154 143 255 
2.088992 1.434471 4.925952 0 0 0 163 155 142 255 
0.9660994 1.096842 5.452038 0 0 0 121 113 104 255 
1.474837 1.30656 5.261926 0 0 0 159 155 144 255 
2.491515 3.042617 2.864522 0 0 0 184 176 165 255 
-0.7874413 1.912025 4.400938 0 0 0 166 159 149 255 
-0.7766669 3.300782 2.628553 0 0 0 199 189 180 255 
0.860181 3.643763 2.346169 0 0 0 211 202 195 255 
-0.3637254 2.008836 4.306505 0 0 0 148 139 130 255 
2.315628 2.483259 3.749102 0 0 0 163 155 144 255 
1.525978 2.082995 4.3723 0 0 0 132 128 127 255 
1.490993 2.048651 4.418286 0 0 0 122 118 117 255 
-1.722281 2.985588 2.65133 0 0 0 195 186 182 255 
0.8962755 1.657301 4.564086 0 0 0 145 138 128 255 
2.114193 1.452641 4.908354 0 0 0 137 128 121 255 
-0.448937 1.801709 4.538474 0 0 0 150 143 137 255 
0.8962755 1.657301 4.564086 0 0 0 145 138 128 255 
1.973446 1.60005 4.727783 0 0 0 157 147 135 255 
1.884395 2.159745 4.240968 0 0 0 166 156 146 255 
2.396238 2.005261 4.305752 0 0 0 132 122 112 255 
1.498933 2.79739 3.408231 0 0 0 173 159 146 255 
1.500382 2.794187 3.408636 0 0 0 173 159 146 255 
2.036376 3.590058 2.108992 0 0 0 187 177 165 255 
-1.596138 3.433169 2.282393 0 0 0 112 98 88 255 
-2.226125 3.406867 2.270362 0 0 0 203 194 187 255 
2.252211 1.46578 4.927247 0 0 0 94 84 75 255 
2.752232 2.57378 3.666945 0 0 0 180 169 157 255 
-0.652437 1.77351 4.553489 0 0 0 184 175 168 255 
2.586651 3.059269 2.917479 0 0 0 143 134 117 255 
-1.40971 3.444222 2.313506 0 0 0 204 197 189 255 
2.871938 2.695385 3.57436 0 0 0 165 157 145 255 
1.950813 2.101322 4.40027 0 0 0 108 99 93 255 
2.212176 2.077055 4.183068 0 0 0 126 118 105 255 
0.9111903 1.617628 4.703285 0 0 0 99 90 81 255 
2.637691 2.418748 3.876139 0 0 0 135 129 118 255 
2.752232 2.57378 3.666945 0 0 0 180 169 157 255 
1.421077 2.174891 4.288844 0 0 0 115 111 110 255 
2.887034 1.954085 4.405137 0 0 0 111 101 89 255 
0.2137079 1.410978 4.709319 0 0 0 135 125 115 255 
2.870968 2.679618 3.571184 0 0 0 165 157 145 255 
0.1809036 1.625593 4.536393 0 0 0 191 186 182 255 
2.697494 2.926486 3.17259 0 0 0 153 137 122 255 
2.586651 3.059269 2.917479 0 0 0 143 134 117 255 
2.340442 2.969224 3.015552 0 0 0 161 149 135 255 
2.265082 1.488166 4.936526 0 0 0 125 115 103 255 
2.081388 1.108549 5.478178 0 0 0 171 159 148 255 
-0.02528195 4.868875 0.5133492 0 0 0 228 218 208 255 
-0.7605059 3.179644 2.886135 0 0 0 180 176 175 255 
1.895563 3.594277 2.095724 0 0 0 177 164 155 255 
1.895563 3.594277 2.095724 0 0 0 177 164 155 255 
2.150184 3.577671 2.231547 0 0 0 189 179 169 255 
1.917241 2.969339 3.049511 0 0 0 179 167 151 255 
0.50258 2.559122 3.96372 0 0 0 174 173 169 255 
0.6403143 2.00283 4.320303 0 0 0 161 152 143 255 
0.6494298 1.71417 4.471578 0 0 0 173 166 160 255 
0.3566558 1.136004 4.909817 0 0 0 180 171 165 255 
2.614 2.089393 4.134635 0 0 0 190 181 172 255 
2.787232 1.950156 4.344213 0 0 0 100 90 81 255 
2.58695 1.878252 4.522156 0 0 0 143 134 119 255 
1.024662 1.129675 5.351845 0 0 0 101 91 81 255 
2.282162 1.641801 4.760332 0 0 0 127 117 108 255 
1.617705 1.299356 5.317681 0 0 0 183 179 168 255 
-0.04818723 4.944691 0.4999016 0 0 0 228 218 208 255 
0.02983191 4.866209 0.5540897 0 0 0 207 198 189 255 
-2.36203 3.877847 1.708408 0 0 0 210 205 201 255 
-1.915304 3.469961 2.24812 0 0 0 200 192 188 255 
-1.250106 3.575325 2.143676 0 0 0 205 196 187 255 
-1.35658 3.486829 2.282622 0 0 0 208 199 192 255 
-2.298555 3.038075 2.891604 0 0 0 184 177 167 255 
-2.250369 3.035188 2.911783 0 0 0 152 139 130 255 
-1.440597 2.955194 2.886672 0 0 0 191 182 173 255 
-2.148535 2.46671 3.352384 0 0 0 182 173 164 255 
1.671841 3.624012 2.037999 0 0 0 173 161 145 255 
-1.975316 2.430776 3.706861 0 0 0 115 105 96 255 
-0.8569438 2.748956 3.310833 0 0 0 193 183 171 255 
1.895563 3.594277 2.095724 0 0 0 177 164 155 255 
2.405777 2.986991 3.031773 0 0 0 185 180 174 255 
0.50258 2.559122 3.96372 0 0 0 174 173 169 255 
-0.2134468 1.951615 4.38192 0 0 0 153 144 136 255 
0.4308762 1.970444 4.254568 0 0 0 170 163 157 255 
0.6403143 2.00283 4.320303 0 0 0 161 152 143 255 
1.962308 2.582158 3.794794 0 0 0 0 0 0 255 
2.847258 2.776 3.360327 0 0 0 178 172 160 255 
2.816679 2.787524 3.426259 0 0 0 139 130 121 255 
0.508927 1.581903 4.524559 0 0 0 189 183 176 255 
0.3916004 1.511981 4.732195 0 0 0 162 152 142 255 
1.768945 2.11158 4.345119 0 0 0 158 148 139 255 
0.4423739 1.095797 4.956688 0 0 0 156 146 137 255 
1.028436 1.514541 4.913689 0 0 0 179 169 160 255 
2.224101 2.037833 4.41129 0 0 0 106 99 91 255 
2.989856 2.187696 3.987004 0 0 0 154 145 130 255 
1.108665 1.328477 5.044649 0 0 0 164 157 149 255 
1.856811 1.617593 4.702297 0 0 0 155 145 133 255 
2.84557 1.975977 4.205201 0 0 0 169 160 149 255 
2.58695 1.878252 4.522156 0 0 0 143 134 119 255 
1.787979 1.401972 4.919285 0 0 0 110 100 91 255 
2.032192 1.488472 4.849739 0 0 0 158 148 136 255 
2.282162 1.641801 4.760332 0 0 0 127 117 108 255 
2.760483 1.861158 4.637939 0 0 0 167 157 145 255 
0.684088 4.616365 1.05264 0 0 0 211 202 197 255 
-2.346063 3.220128 2.607269 0 0 0 198 189 184 255 
-1.159169 3.621753 2.123944 0 0 0 201 192 187 255 
1.38772 4.50452 1.043908 0 0 0 210 201 192 255 
0.8167604 4.310658 1.362994 0 0 0 183 173 163 255 
0.9774981 4.390134 1.300196 0 0 0 199 192 182 255 
0.9342104 3.755574 2.02593 0 0 0 200 189 183 255 
-1.842218 2.455714 3.416156 0 0 0 144 134 124 255 
-0.8073847 3.178552 2.873471 0 0 0 182 178 175 255 
-1.627685 2.491571 3.387807 0 0 0 147 134 125 255 
2.289761 3.61265 2.131736 0 0 0 167 153 144 255 
-0.4621395 2.830373 3.407037 0 0 0 206 196 187 255 
2.256741 3.58431 2.259798 0 0 0 163 150 136 255 
1.133217 1.057749 5.572411 0 0 0 164 156 145 255 
1.13981 1.134937 5.487671 0 0 0 116 106 96 255 
2.331969 1.548673 4.863585 0 0 0 152 143 136 255 
1.556332 1.356486 5.279626 0 0 0 165 158 150 255 
2.172449 1.535687 4.834107 0 0 0 160 152 139 255 
2.284944 1.744025 4.681335 0 0 0 172 162 152 255 
0.8168302 1.115495 5.361607 0 0 0 97 88 79 255 
2.916013 2.689808 3.574263 0 0 0 149 141 130 255 
2.603023 1.951334 4.311367 0 0 0 158 151 141 255 
2.124874 1.902404 4.568765 0 0 0 94 85 76 255 
1.23487 1.472185 4.909644 0 0 0 188 179 171 255 
2.85252 2.139083 4.054645 0 0 0 157 145 135 255 
0.9676131 1.494747 4.913026 0 0 0 169 162 152 255 
0.6337383 1.149723 4.999177 0 0 0 170 161 152 255 
2.9198 2.30212 3.93878 0 0 0 173 163 151 255 
1.831336 1.968753 4.482195 0 0 0 155 146 141 255 
1.418579 1.860785 4.664394 0 0 0 93 85 74 255 
2.240904 2.481755 3.792888 0 0 0 172 165 157 255 
2.851059 2.736078 3.493291 0 0 0 162 154 143 255 
1.997694 2.403198 3.891933 0 0 0 181 174 164 255 
1.980643 2.406736 3.883073 0 0 0 183 176 166 255 
2.285489 2.51018 3.632763 0 0 0 126 110 94 255 
2.823139 2.787537 3.37629 0 0 0 133 121 105 255 
0.2474669 1.627901 4.506015 0 0 0 168 164 155 255 
-0.2168733 1.600908 4.62506 0 0 0 189 180 171 255 
1.344635 2.423019 3.8552 0 0 0 183 174 167 255 
2.677488 2.974339 3.100394 0 0 0 170 161 154 255 
-0.5985464 4.436895 1.162311 0 0 0 195 185 176 255 
0.3561433 4.565933 1.061518 0 0 0 207 198 191 255 
-0.8255317 3.243091 2.733754 0 0 0 147 135 123 255 
-0.8073847 3.178552 2.873471 0 0 0 182 178 175 255 
-0.9238088 1.987744 4.2286 0 0 0 107 102 91 255 
2.18737 2.92738 3.035003 0 0 0 103 91 79 255 
1.567573 2.760438 3.514383 0 0 0 136 127 118 255 
0.5415763 2.398724 4.026819 0 0 0 151 150 148 255 
0.5267273 2.273363 4.084633 0 0 0 176 172 167 255 
2.234492 2.521134 3.645673 0 0 0 136 130 119 255 
2.913825 2.718768 3.480692 0 0 0 122 109 100 255 
0.3701942 1.461521 4.758056 0 0 0 166 157 150 255 
2.614754 2.440034 3.800013 0 0 0 124 114 102 255 
2.995235 2.5333 3.751688 0 0 0 163 155 149 255 
0.9676598 1.495153 4.913434 0 0 0 169 162 152 255 
2.603158 1.95239 4.312061 0 0 0 158 151 141 255 
1.540661 1.473041 4.829906 0 0 0 172 163 154 255 
1.13981 1.134937 5.487671 0 0 0 116 106 96 255 
2.189118 1.855137 4.600025 0 0 0 162 152 143 255 
1.072348 0.8449363 5.591029 0 0 0 129 119 110 255 
1.134959 1.044871 5.581427 0 0 0 169 161 150 255 
2.332029 2.93229 3.151074 0 0 0 120 110 98 255 
1.567932 2.759684 3.514428 0 0 0 136 127 118 255 
1.818773 1.46 4.86169 0 0 0 94 84 74 255 
2.354516 2.265762 3.965013 0 0 0 187 179 166 255 
1.040856 1.297666 5.082352 0 0 0 154 147 141 255 
-1.257195 2.251476 3.818364 0 0 0 190 181 174 255 
-1.270734 1.976473 4.299385 0 0 0 127 119 108 255 
-0.6310111 2.0221 4.135809 0 0 0 158 150 141 255 
-1.103642 1.893415 4.427069 0 0 0 124 115 107 255 
1.025957 2.978062 3.442237 0 0 0 164 154 144 255 
1.854967 2.987343 3.087968 0 0 0 151 141 128 255 
2.111521 2.949549 2.976928 0 0 0 198 188 179 255 
2.54075 3.066793 2.826801 0 0 0 141 133 122 255 
-0.8383518 1.843927 4.468513 0 0 0 184 177 167 255 
-0.547599 1.956549 4.367429 0 0 0 180 171 161 255 
0.1465347 2.107386 4.075817 0 0 0 192 185 175 255 
1.453293 2.754959 3.599209 0 0 0 163 164 166 255 
2.577029 2.990085 3.0738 0 0 0 132 120 98 255 
1.013963 2.484812 3.854125 0 0 0 193 184 175 255 
1.391798 2.703039 3.689283 0 0 0 71 71 81 255 
-0.471727 1.737112 4.580798 0 0 0 188 181 176 255 
2.417577 2.965731 3.233987 0 0 0 102 95 87 255 
-0.1426394 1.838253 4.499547 0 0 0 135 128 120 255 
1.704093 2.689672 3.624783 0 0 0 167 160 150 255 
-0.2898332 1.645192 4.60102 0 0 0 188 179 171 255 
2.432482 2.874821 3.317056 0 0 0 154 146 135 255 
0.788009 2.20002 4.155695 0 0 0 177 168 158 255 
2.378341 2.739522 3.381226 0 0 0 193 186 176 255 
1.199229 2.306675 3.992134 0 0 0 154 142 128 255 
1.92401 2.558352 3.672842 0 0 0 183 175 164 255 
2.474358 2.715105 3.414829 0 0 0 201 192 183 255 
0.1234962 1.614433 4.567734 0 0 0 168 161 155 255 
0.09398206 1.541608 4.606199 0 0 0 188 184 175 255 
0.6143968 1.810183 4.416623 0 0 0 161 154 148 255 
2.109567 2.542068 3.710815 0 0 0 68 60 49 255 
1.928525 2.444058 3.801746 0 0 0 181 176 172 255 
0.1913759 1.501401 4.632705 0 0 0 185 178 170 255 
2.831622 2.778191 3.385129 0 0 0 168 157 144 255 
2.324144 2.492222 3.658558 0 0 0 194 186 175 255 
0.1105092 1.388735 4.72287 0 0 0 189 180 171 255 
2.92812 2.75643 3.39386 0 0 0 192 182 170 255 
2.904008 2.736697 3.446666 0 0 0 161 153 138 255 
0.5944815 1.586674 4.578501 0 0 0 89 80 71 255 
2.407645 2.45276 3.760545 0 0 0 120 108 94 255 
1.831734 2.199638 4.091305 0 0 0 95 86 70 255 
0.4965898 1.487562 4.736129 0 0 0 192 185 175 255 
1.063963 1.757215 4.548739 0 0 0 107 100 92 255 
0.7532182 1.536056 4.71319 0 0 0 185 177 166 255 
1.730741 2.091364 4.35447 0 0 0 185 176 166 255 
1.648753 2.052762 4.394141 0 0 0 168 161 153 255 
2.668909 2.428056 3.893136 0 0 0 82 74 63 255 
1.452174 1.93036 4.519638 0 0 0 180 170 161 255 
2.421016 2.189048 4.027864 0 0 0 180 171 162 255 
3.063824 2.520528 3.745601 0 0 0 156 146 136 255 
2.673017 2.348335 3.978857 0 0 0 194 187 171 255 
2.038661 2.098357 4.336443 0 0 0 93 84 69 255 
1.094861 1.636267 4.815435 0 0 0 174 165 155 255 
2.769001 2.276176 4.009787 0 0 0 189 181 170 255 
2.358349 2.035062 4.208865 0 0 0 102 90 75 255 
0.7988944 1.308315 4.961248 0 0 0 160 150 140 255 
0.8807517 1.322736 5.009974 0 0 0 121 113 100 255 
2.19827 2.051141 4.439137 0 0 0 167 162 156 255 
0.5594577 1.02711 5.154058 0 0 0 89 81 70 255 
1.721614 1.63286 4.698504 0 0 0 186 177 164 255 
2.065977 1.854636 4.587434 0 0 0 173 163 154 255 
2.553639 1.959656 4.34373 0 0 0 108 100 87 255 
1.570211 1.459962 4.832844 0 0 0 184 175 166 255 
0.6845639 1.014308 5.237803 0 0 0 112 104 93 255 
1.162111 1.29449 5.086699 0 0 0 72 62 50 255 
2.879099 1.976139 4.260533 0 0 0 91 81 69 255 
1.390815 1.325461 5.124768 0 0 0 174 170 158 255 
1.282972 1.274356 5.208049 0 0 0 75 66 51 255 
2.662 1.871417 4.59757 0 0 0 179 170 156 255 
2.567551 1.804306 4.663736 0 0 0 176 166 154 255 
2.186744 2.059882 4.294493 0 0 0 101 92 77 255 
2.153687 1.473167 4.915128 0 0 0 160 151 144 255 
1.856515 1.378235 5.114847 0 0 0 80 70 60 255 
2.450896 1.581455 4.833105 0 0 0 164 153 147 255 
1.46484 1.367103 4.945641 0 0 0 101 91 79 255 
2.381541 2.993099 2.978163 0 0 0 138 128 111 255 
-0.4749765 1.922373 4.429601 0 0 0 129 119 110 255 
-0.4537401 1.893057 4.456449 0 0 0 128 121 113 255 
1.151125 4.544432 1.079421 0 0 0 165 153 141 255 
1.048268 1.199187 5.38623 0 0 0 116 107 92 255 
-1.550669 3.931772 1.566274 0 0 0 183 176 168 255 
-0.4331266 4.52031 1.009951 0 0 0 227 218 211 255 
-2.169395 3.463307 2.169991 0 0 0 199 192 184 255 
1.068371 4.579136 0.7962478 0 0 0 184 173 164 255 
1.000917 4.513655 1.03801 0 0 0 196 187 178 255 
1.387155 4.503626 1.028128 0 0 0 188 180 167 255 
1.130731 4.498565 1.162669 0 0 0 226 217 208 255 
-2.281553 3.131672 2.75361 0 0 0 154 144 132 255 
-1.063322 3.454026 2.291963 0 0 0 224 219 215 255 
0.04037257 3.98768 1.748996 0 0 0 208 200 189 255 
1.369555 4.476158 1.167836 0 0 0 221 214 206 255 
1.258388 4.438217 1.239689 0 0 0 187 178 171 255 
1.587118 4.378144 1.152722 0 0 0 185 178 170 255 
0.5486079 4.076851 1.622631 0 0 0 215 207 198 255 
-2.206348 3.048075 2.898143 0 0 0 196 186 177 255 
-2.265294 3.004105 2.945147 0 0 0 148 134 131 255 
1.644678 4.366603 1.236412 0 0 0 232 223 214 255 
-1.534925 2.995867 2.79458 0 0 0 178 168 158 255 
-0.9824639 3.177522 2.631692 0 0 0 169 160 153 255 
0.8873955 3.770306 1.866295 0 0 0 209 200 193 255 
0.1930187 3.7646 2.109429 0 0 0 205 196 187 255 
-2.119763 2.468755 3.352121 0 0 0 188 179 172 255 
-1.280402 2.992557 2.953509 0 0 0 205 196 189 255 
-1.009742 3.134712 2.831311 0 0 0 91 79 67 255 
-1.784562 2.467149 3.405789 0 0 0 164 154 144 255 
-0.6227763 3.286079 2.792415 0 0 0 207 200 194 255 
-1.289508 2.59124 3.339049 0 0 0 189 178 172 255 
-1.592214 2.482197 3.505098 0 0 0 189 181 170 255 
-1.51166 2.492234 3.53311 0 0 0 146 136 126 255 
-1.571203 2.397877 3.654787 0 0 0 197 188 181 255 
1.383778 3.661457 2.260848 0 0 0 135 122 114 255 
-0.936206 2.702579 3.395781 0 0 0 169 155 144 255 
-1.082466 2.611391 3.493515 0 0 0 115 106 101 255 
1.606861 3.60735 2.26025 0 0 0 177 166 162 255 
0.598887 3.557018 2.682791 0 0 0 180 172 163 255 
1.026456 3.434233 2.693808 0 0 0 185 172 166 255 
-1.487319 2.100695 3.957506 0 0 0 193 184 175 255 
1.991481 3.506115 2.348768 0 0 0 187 177 168 255 
-1.472502 2.037275 4.051665 0 0 0 116 106 97 255 
2.200902 3.555946 2.329077 0 0 0 209 202 192 255 
-0.6546456 2.504756 3.699976 0 0 0 200 191 186 255 
2.053115 3.391335 2.501152 0 0 0 188 181 173 255 
2.268772 3.490774 2.473354 0 0 0 0 0 0 255 
-0.5631639 2.197887 3.873827 0 0 0 186 179 173 255 
0.6545696 4.664667 0.8511502 0 0 0 197 189 178 255 
1.068371 4.579136 0.7962478 0 0 0 184 173 164 255 
-2.278939 3.137831 2.728305 0 0 0 202 193 184 255 
1.216579 4.508206 1.133253 0 0 0 182 173 166 255 
0.9484575 4.425969 1.252909 0 0 0 162 151 145 255 
-1.063322 3.454026 2.291963 0 0 0 224 219 215 255 
0.04037257 3.98768 1.748996 0 0 0 208 200 189 255 
1.258388 4.438217 1.239689 0 0 0 187 178 171 255 
0.08355287 3.942839 1.858342 0 0 0 213 204 199 255 
1.644678 4.366603 1.236412 0 0 0 232 223 214 255 
0.3574313 3.852376 1.952919 0 0 0 211 201 192 255 
