ply
format ascii 1.0
comment VCGLIB generated
element vertex 1338
property float x
property float y
property float z
property float nx
property float ny
property float nz
element face 0
property list uchar int vertex_indices
end_header
0.458384 0.069075 -0.0375431 0 0 0 
0.459059 0.0690952 -0.0367457 0 0 0 
0.457799 0.069052 -0.0357969 0 0 0 
0.459157 0.0690946 -0.0350499 0 0 0 
0.458409 0.0690682 -0.0341436 0 0 0 
0.458687 0.0690754 -0.0333136 0 0 0 
0.458795 0.069077 -0.0324709 0 0 0 
0.458278 0.0690581 -0.0315856 0 0 0 
0.459585 0.069099 -0.0308226 0 0 0 
0.4581 0.0690484 -0.0298762 0 0 0 
0.459179 0.0690819 -0.0290948 0 0 0 
0.459234 0.0690817 -0.0282478 0 0 0 
0.458776 0.0690648 -0.0273708 0 0 0 
0.459174 0.0690759 -0.0265441 0 0 0 
0.459345 0.0690796 -0.0257036 0 0 0 
0.460089 0.069102 -0.0248929 0 0 0 
0.459804 0.0690908 -0.0240271 0 0 0 
0.460665 0.0691171 -0.0232188 0 0 0 
0.460725 0.0691171 -0.0223695 0 0 0 
0.460384 0.069104 -0.021502 0 0 0 
0.460503 0.069106 -0.0206558 0 0 0 
0.460565 0.0691061 -0.0198069 0 0 0 
0.461087 0.0691212 -0.0189763 0 0 0 
0.460576 0.0691026 -0.0181046 0 0 0 
0.461503 0.069131 -0.0172868 0 0 0 
0.46059 0.0690992 -0.0164026 0 0 0 
0.461403 0.0691239 -0.0155778 0 0 0 
0.462104 0.0691449 -0.0147468 0 0 0 
0.462229 0.069147 -0.0138966 0 0 0 
0.462239 0.0691454 -0.0130429 0 0 0 
0.462597 0.0691552 -0.012198 0 0 0 
0.462493 0.0691499 -0.0113411 0 0 0 
0.462853 0.0691597 -0.0104945 0 0 0 
0.462982 0.069162 -0.00964216 0 0 0 
0.462533 0.0691454 -0.00877917 0 0 0 
0.462721 0.0691496 -0.00792796 0 0 0 
0.463026 0.0691576 -0.00707772 0 0 0 
0.464379 0.0691998 -0.00623906 0 0 0 
0.464513 0.0692023 -0.00538292 0 0 0 
0.463424 0.0691648 -0.00451605 0 0 0 
0.464432 0.0691957 -0.00366694 0 0 0 
0.464801 0.0692059 -0.00281111 0 0 0 
0.46523 0.0692179 -0.00195409 0 0 0 
0.465251 0.0692166 -0.00109509 0 0 0 
0.465506 0.069223 -0.000235797 0 0 0 
0.465763 0.0692295 0.000624452 0 0 0 
0.465317 0.069213 0.00148245 0 0 0 
0.46622 0.0692405 0.00234749 0 0 0 
0.466892 0.0692604 0.00321398 0 0 0 
0.466858 0.0692574 0.00407583 0 0 0 
0.466531 0.0692448 0.00493407 0 0 0 
0.466911 0.0692552 0.00580093 0 0 0 
0.467647 0.0692772 0.00667483 0 0 0 
0.466848 0.0692493 0.00752457 0 0 0 
0.466995 0.0692521 0.00838975 0 0 0 
0.468089 0.0692858 0.00927566 0 0 0 
0.467646 0.0692694 0.0101302 0 0 0 
0.468269 0.0692877 0.0110097 0 0 0 
0.469491 0.0693255 0.0119077 0 0 0 
0.468097 0.0692782 0.0127353 0 0 0 
0.468308 0.0692831 0.0136068 0 0 0 
0.470249 0.0693443 0.0145352 0 0 0 
0.468674 0.0692911 0.0153505 0 0 0 
0.469365 0.0693116 0.0162419 0 0 0 
0.4697 0.0693206 0.0171224 0 0 0 
0.469618 0.0693159 0.0179877 0 0 0 
0.46906 0.0692958 0.0188329 0 0 0 
0.470832 0.0693515 0.0197776 0 0 0 
0.470632 0.069343 0.0206395 0 0 0 
0.470853 0.0693482 0.0215207 0 0 0 
0.470115 0.0693223 0.0223557 0 0 0 
0.471177 0.0693548 0.0232799 0 0 0 
0.470919 0.0693445 0.0241384 0 0 0 
0.471083 0.0693479 0.0250192 0 0 0 
0.471308 0.0693532 0.0259042 0 0 0 
0.471474 0.0693566 0.0267868 0 0 0 
0.4717 0.069362 0.0276738 0 0 0 
0.472109 0.0693733 0.0285731 0 0 0 
0.472036 0.069369 0.0294433 0 0 0 
0.471843 0.0693607 0.0303055 0 0 0 
0.471712 0.0693545 0.0311713 0 0 0 
0.472305 0.0693717 0.0320872 0 0 0 
0.472175 0.0693655 0.0329539 0 0 0 
0.472408 0.0693711 0.0338469 0 0 0 
0.472218 0.069363 0.0347092 0 0 0 
0.472392 0.0693667 0.035599 0 0 0 
0.474085 0.0694196 0.0366095 0 0 0 
0.472561 0.0693682 0.0373668 0 0 0 
0.472677 0.06937 0.0382541 0 0 0 
0.473523 0.0693954 0.0392037 0 0 0 
0.472791 0.0693697 0.0400204 0 0 0 
0.474247 0.0694149 0.0410277 0 0 0 
0.474367 0.0694168 0.0419203 0 0 0 
0.4751 0.0694385 0.0428699 0 0 0 
0.474671 0.0694226 0.0437136 0 0 0 
0.474305 0.0694088 0.0445619 0 0 0 
0.47394 0.069395 0.0454093 0 0 0 
0.474613 0.0694148 0.0463587 0 0 0 
0.474006 0.0693931 0.0471812 0 0 0 
0.472247 0.0693342 0.0478831 0 0 0 
0.471285 0.0693011 0.0486622 0 0 0 
0.47135 0.0693012 0.0495478 0 0 0 
0.470572 0.069274 0.0503424 0 0 0 
0.470759 0.0692781 0.0512409 0 0 0 
0.469805 0.0692452 0.0520122 0 0 0 
0.468319 0.0691952 0.0527194 0 0 0 
0.46791 0.06918 0.0535465 0 0 0 
0.467562 0.0691667 0.0543796 0 0 0 
0.4668 0.0691401 0.0551621 0 0 0 
0.466573 0.0691308 0.0560072 0 0 0 
0.465345 0.0690892 0.056728 0 0 0 
0.465121 0.0690799 0.0575704 0 0 0 
0.465133 0.0690783 0.0584425 0 0 0 
0.466146 0.0691091 0.0594445 0 0 0 
0.464922 0.0690676 0.0601572 0 0 0 
0.465112 0.0690718 0.0610536 0 0 0 
0.465538 0.0690836 0.0619831 0 0 0 
0.466794 0.0691222 0.063028 0 0 0 
0.466041 0.0690959 0.0637994 0 0 0 
0.466117 0.0690963 0.0646848 0 0 0 
0.467259 0.0691313 0.0657229 0 0 0 
0.466981 0.0691203 0.0665606 0 0 0 
0.467415 0.0691323 0.0675018 0 0 0 
0.467375 0.069129 0.0683748 0 0 0 
0.467812 0.0691412 0.0693195 0 0 0 
0.467952 0.0691437 0.0702213 0 0 0 
0.46995 0.0692061 0.0714096 0 0 0 
0.468653 0.0691623 0.0720931 0 0 0 
0.469515 0.0691881 0.0731122 0 0 0 
0.4696 0.0691889 0.074011 0 0 0 
0.470769 0.0692246 0.0750856 0 0 0 
0.471884 0.0692585 0.0761562 0 0 0 
0.472033 0.0692613 0.0770718 0 0 0 
0.470366 0.0692056 0.0776852 0 0 0 
0.471059 0.0692259 0.0786913 0 0 0 
0.471572 0.0692404 0.0796698 0 0 0 
0.472696 0.0692746 0.0807562 0 0 0 
0.472666 0.0692716 0.0816458 0 0 0 
0.472941 0.0692784 0.0825897 0 0 0 
0.473646 0.0692991 0.0836117 0 0 0 
0.474292 0.0693179 0.0846263 0 0 0 
0.475804 0.0693646 0.0858018 0 0 0 
0.475716 0.0693597 0.0866887 0 0 0 
0.475999 0.0693668 0.0876448 0 0 0 
0.476346 0.0693759 0.0886144 0 0 0 
0.476569 0.069381 0.0895626 0 0 0 
0.477104 0.0693962 0.0905718 0 0 0 
0.479206 0.0694617 0.091887 0 0 0 
0.479812 0.0694792 0.0929182 0 0 0 
0.480106 0.0694866 0.0938905 0 0 0 
0.480463 0.069496 0.0948773 0 0 0 
0.480696 0.0695014 0.0958408 0 0 0 
0.481627 0.0695293 0.0969476 0 0 0 
0.481609 0.0695266 0.0978638 0 0 0 
0.483056 0.069571 0.0990839 0 0 0 
0.481828 0.0695295 0.0997511 0 0 0 
0.483406 0.0695781 0.101006 0 0 0 
0.483583 0.0695817 0.101969 0 0 0 
0.484403 0.069606 0.103072 0 0 0 
0.484325 0.0696014 0.103983 0 0 0 
0.484569 0.0696071 0.104966 0 0 0 
0.484428 0.0696005 0.105865 0 0 0 
0.484417 0.069598 0.106792 0 0 0 
0.485373 0.0696266 0.107938 0 0 0 
0.48588 0.0696408 0.108986 0 0 0 
0.485289 0.0696197 0.109786 0 0 0 
0.485927 0.0696381 0.110868 0 0 0 
0.484369 0.069586 0.111442 0 0 0 
0.486236 0.0696438 0.112813 0 0 0 
0.485258 0.0696103 0.11352 0 0 0 
0.485317 0.06961 0.114471 0 0 0 
0.485118 0.0696015 0.115361 0 0 0 
0.486085 0.0696304 0.116533 0 0 0 
0.484206 0.0695681 0.117015 0 0 0 
0.484783 0.0695844 0.118094 0 0 0 
0.484007 0.0695574 0.118841 0 0 0 
0.484005 0.0695553 0.119778 0 0 0 
0.484132 0.0695572 0.120749 0 0 0 
0.484003 0.0695509 0.121656 0 0 0 
0.483745 0.0695406 0.122531 0 0 0 
0.482782 0.0695076 0.123223 0 0 0 
0.482142 0.069485 0.123996 0 0 0 
0.481632 0.0694665 0.124802 0 0 0 
0.481826 0.0694706 0.125791 0 0 0 
0.480871 0.0694379 0.126477 0 0 0 
0.481448 0.0694543 0.127569 0 0 0 
0.481069 0.0694401 0.128407 0 0 0 
0.481649 0.0694565 0.129504 0 0 0 
0.481207 0.0694402 0.130325 0 0 0 
0.481149 0.0694362 0.13125 0 0 0 
0.481538 0.0694466 0.1323 0 0 0 
0.481226 0.0694344 0.133157 0 0 0 
0.481297 0.0694346 0.134121 0 0 0 
0.481626 0.069443 0.135158 0 0 0 
0.482533 0.0694698 0.136362 0 0 0 
0.482672 0.0694721 0.13735 0 0 0 
0.481591 0.0694354 0.137987 0 0 0 
0.482694 0.0694685 0.139256 0 0 0 
0.482191 0.0694503 0.140059 0 0 0 
0.482589 0.0694609 0.141127 0 0 0 
0.481895 0.0694366 0.141873 0 0 0 
0.482551 0.0694554 0.143021 0 0 0 
0.482501 0.0694516 0.143959 0 0 0 
0.482709 0.0694561 0.144976 0 0 0 
0.483241 0.0694709 0.146094 0 0 0 
0.482419 0.0694425 0.146799 0 0 0 
0.4825 0.0694429 0.14778 0 0 0 
0.48271 0.0694475 0.148803 0 0 0 
0.483051 0.0694562 0.149867 0 0 0 
0.483394 0.069465 0.150935 0 0 0 
0.484062 0.0694841 0.152107 0 0 0 
0.483433 0.0694619 0.152871 0 0 0 
0.482677 0.0694356 0.153591 0 0 0 
0.483086 0.0694465 0.154685 0 0 0 
0.484016 0.0694739 0.155951 0 0 0 
0.484039 0.0694725 0.156925 0 0 0 
0.484322 0.0694793 0.157985 0 0 0 
0.483955 0.0694655 0.158833 0 0 0 
0.484175 0.0694703 0.159874 0 0 0 
0.484983 0.0694938 0.161114 0 0 0 
0.484551 0.0694779 0.161942 0 0 0 
0.485625 0.0695099 0.163277 0 0 0 
0.4848 0.0694814 0.163972 0 0 0 
0.484893 0.0694822 0.164978 0 0 0 
0.4863 0.0695247 0.166438 0 0 0 
0.485474 0.0694963 0.167132 0 0 0 
0.484586 0.0694658 0.167801 0 0 0 
0.485403 0.0694895 0.169064 0 0 0 
0.485433 0.0694883 0.170055 0 0 0 
0.48553 0.0694892 0.17107 0 0 0 
0.485299 0.0694796 0.17197 0 0 0 
0.485331 0.0694784 0.172963 0 0 0 
0.486286 0.0695065 0.174291 0 0 0 
0.485858 0.0694907 0.175122 0 0 0 
0.485958 0.0694917 0.176144 0 0 0 
0.485333 0.0694696 0.176902 0 0 0 
0.485368 0.0694685 0.177902 0 0 0 
0.486526 0.069503 0.179319 0 0 0 
0.486099 0.0694872 0.180151 0 0 0 
0.485344 0.069461 0.180859 0 0 0 
0.486174 0.0694851 0.182162 0 0 0 
0.484892 0.0694422 0.182669 0 0 0 
0.485325 0.0694537 0.183825 0 0 0 
0.486091 0.0694758 0.185111 0 0 0 
0.485139 0.0694433 0.185741 0 0 0 
0.485906 0.0694654 0.187031 0 0 0 
0.485814 0.0694602 0.187993 0 0 0 
0.484075 0.0694028 0.18831 0 0 0 
0.484444 0.0694123 0.189451 0 0 0 
0.484288 0.0694051 0.190386 0 0 0 
0.485783 0.0694502 0.191976 0 0 0 
0.483583 0.0693782 0.1921 0 0 0 
0.484679 0.0694107 0.193537 0 0 0 
0.483341 0.069366 0.193998 0 0 0 
0.48345 0.0693672 0.195042 0 0 0 
0.484218 0.0693893 0.196355 0 0 0 
0.484131 0.0693843 0.197322 0 0 0 
0.482795 0.0693397 0.197776 0 0 0 
0.48409 0.0693785 0.199313 0 0 0 
0.483083 0.0693443 0.1999 0 0 0 
0.482408 0.0693206 0.200622 0 0 0 
0.483111 0.0693406 0.201921 0 0 0 
0.482502 0.0693191 0.20267 0 0 0 
0.483207 0.0693391 0.203975 0 0 0 
0.483585 0.0693488 0.205145 0 0 0 
0.469908 0.0661674 -0.224708 0 0 0 
0.470649 0.0661821 -0.223061 0 0 0 
0.468151 0.0661153 -0.220887 0 0 0 
0.47443 0.0662751 -0.222835 0 0 0 
0.471264 0.0661912 -0.220355 0 0 0 
0.463484 0.0659882 -0.215747 0 0 0 
0.4755 0.0662959 -0.220319 0 0 0 
0.471945 0.0661997 -0.216684 0 0 0 
0.477283 0.0663351 -0.218123 0 0 0 
0.473645 0.0662391 -0.215468 0 0 0 
0.477021 0.0663238 -0.215996 0 0 0 
0.47657 0.0663099 -0.214791 0 0 0 
0.471377 0.0661739 -0.211468 0 0 0 
0.472004 0.0661878 -0.210759 0 0 0 
0.473137 0.0662148 -0.210273 0 0 0 
0.470325 0.0661357 -0.206077 0 0 0 
0.469211 0.0661048 -0.204611 0 0 0 
0.470581 0.0661379 -0.204226 0 0 0 
0.475745 0.0662685 -0.20547 0 0 0 
0.477663 0.0663156 -0.205303 0 0 0 
0.468182 0.0660695 -0.200266 0 0 0 
0.476774 0.0662882 -0.202941 0 0 0 
0.473546 0.066203 -0.200588 0 0 0 
0.477421 0.0663004 -0.201236 0 0 0 
0.48227 0.0664227 -0.202276 0 0 0 
0.472935 0.0661807 -0.197392 0 0 0 
0.46921 0.0660828 -0.194872 0 0 0 
0.471263 0.0661333 -0.194749 0 0 0 
0.472082 0.0661522 -0.194113 0 0 0 
0.470721 0.066115 -0.192584 0 0 0 
0.472474 0.0661578 -0.192327 0 0 0 
0.47361 0.0661848 -0.191814 0 0 0 
0.471247 0.066122 -0.18989 0 0 0 
0.476597 0.066257 -0.191062 0 0 0 
0.468798 0.0660548 -0.186982 0 0 0 
0.468075 0.0660341 -0.185734 0 0 0 
0.467415 0.066015 -0.184516 0 0 0 
0.469266 0.0660603 -0.184284 0 0 0 
0.468359 0.0660349 -0.182971 0 0 0 
0.4696 0.0660645 -0.182496 0 0 0 
0.469307 0.0660549 -0.181425 0 0 0 
0.466938 0.065992 -0.179559 0 0 0 
0.467319 0.0659996 -0.178753 0 0 0 
0.464912 0.0659358 -0.176889 0 0 0 
0.464268 0.0659172 -0.1757 0 0 0 
0.459532 0.0657939 -0.172979 0 0 0 
0.460022 0.0658043 -0.172229 0 0 0 
0.462112 0.0658557 -0.172072 0 0 0 
0.459943 0.0657981 -0.170334 0 0 0 
0.463283 0.0658814 -0.170629 0 0 0 
0.460986 0.0658205 -0.168853 0 0 0 
0.459594 0.0657828 -0.167416 0 0 0 
0.459909 0.0657888 -0.166601 0 0 0 
0.462472 0.0658522 -0.166594 0 0 0 
0.4606 0.0658023 -0.164993 0 0 0 
0.4608 0.0658053 -0.164136 0 0 0 
0.459178 0.0657618 -0.162635 0 0 0 
0.461732 0.0658249 -0.162609 0 0 0 
0.46217 0.065834 -0.161834 0 0 0 
0.460659 0.0657933 -0.160381 0 0 0 
0.462042 0.0658265 -0.159934 0 0 0 
0.460063 0.0657739 -0.158329 0 0 0 
0.46003 0.065771 -0.157396 0 0 0 
0.461232 0.0657996 -0.156883 0 0 0 
0.4612 0.0657967 -0.15595 0 0 0 
0.461935 0.0658134 -0.155275 0 0 0 
0.462554 0.0658271 -0.154559 0 0 0 
0.459523 0.0657477 -0.152633 0 0 0 
0.463797 0.0658546 -0.153124 0 0 0 
0.460811 0.0657764 -0.151223 0 0 0 
0.46084 0.0657751 -0.150315 0 0 0 
0.462579 0.0658173 -0.149961 0 0 0 
0.46196 0.0657995 -0.148843 0 0 0 
0.464898 0.0658722 -0.148864 0 0 0 
0.461963 0.0657954 -0.147011 0 0 0 
0.463947 0.0658439 -0.146721 0 0 0 
0.46529 0.065876 -0.146223 0 0 0 
0.462 0.0657902 -0.144278 0 0 0 
0.462918 0.0658115 -0.143648 0 0 0 
0.46242 0.0657967 -0.142581 0 0 0 
0.463045 0.0658106 -0.141858 0 0 0 
0.464265 0.0658395 -0.141315 0 0 0 
0.464716 0.0658489 -0.140536 0 0 0 
0.46493 0.0658523 -0.139685 0 0 0 
0.463659 0.0658179 -0.138391 0 0 0 
0.464705 0.0658424 -0.137789 0 0 0 
0.462316 0.0657797 -0.136174 0 0 0 
0.465076 0.0658478 -0.136071 0 0 0 
0.462215 0.065773 -0.134329 0 0 0 
0.463965 0.0658154 -0.133927 0 0 0 
0.465608 0.0658551 -0.133488 0 0 0 
0.463807 0.0658073 -0.132064 0 0 0 
0.46539 0.0658454 -0.131603 0 0 0 
0.465371 0.0658429 -0.130688 0 0 0 
0.46458 0.0658208 -0.129559 0 0 0 
0.465751 0.0658484 -0.128975 0 0 0 
0.466689 0.0658702 -0.128324 0 0 0 
0.465478 0.0658374 -0.127085 0 0 0 
0.466655 0.0658652 -0.126496 0 0 0 
0.4664 0.0658567 -0.125519 0 0 0 
0.468363 0.0659044 -0.125135 0 0 0 
0.465893 0.0658397 -0.123571 0 0 0 
0.466176 0.0658449 -0.12274 0 0 0 
0.469464 0.0659261 -0.122692 0 0 0 
0.466925 0.0658598 -0.121125 0 0 0 
0.467511 0.0658726 -0.12037 0 0 0 
0.468098 0.0658854 -0.119614 0 0 0 
0.468627 0.0658967 -0.118842 0 0 0 
0.468135 0.0658822 -0.117811 0 0 0 
0.467944 0.0658754 -0.116859 0 0 0 
0.470224 0.065931 -0.116518 0 0 0 
0.468826 0.0658936 -0.115267 0 0 0 
0.468877 0.0658928 -0.114375 0 0 0 
0.468989 0.0658936 -0.113498 0 0 0 
0.469402 0.065902 -0.112694 0 0 0 
0.469455 0.0659013 -0.111802 0 0 0 
0.471021 0.0659389 -0.111268 0 0 0 
0.470893 0.0659336 -0.110332 0 0 0 
0.470826 0.0659299 -0.109411 0 0 0 
0.472402 0.0659676 -0.108869 0 0 0 
0.470574 0.0659194 -0.107546 0 0 0 
0.471297 0.0659356 -0.106806 0 0 0 
0.471536 0.0659396 -0.105956 0 0 0 
0.47269 0.0659667 -0.105309 0 0 0 
0.471288 0.0659293 -0.104095 0 0 0 
0.470984 0.0659196 -0.103127 0 0 0 
0.471104 0.0659206 -0.102252 0 0 0 
0.472318 0.0659492 -0.101612 0 0 0 
0.472318 0.0659472 -0.10071 0 0 0 
0.474336 0.065996 -0.100234 0 0 0 
0.473357 0.0659693 -0.0991242 0 0 0 
0.474032 0.0659843 -0.0983612 0 0 0 
0.472812 0.0659515 -0.0972078 0 0 0 
0.472511 0.0659418 -0.0962461 0 0 0 
0.473368 0.0659614 -0.0955191 0 0 0 
0.473495 0.0659626 -0.0946437 0 0 0 
0.473622 0.0659638 -0.0937686 0 0 0 
0.473812 0.0659665 -0.0929055 0 0 0 
0.474369 0.0659785 -0.0921134 0 0 0 
0.473642 0.0659582 -0.0910736 0 0 0 
0.474139 0.0659686 -0.0902692 0 0 0 
0.474086 0.0659653 -0.0893602 0 0 0 
0.474156 0.065965 -0.0884748 0 0 0 
0.473555 0.0659479 -0.0874659 0 0 0 
0.473932 0.0659553 -0.086638 0 0 0 
0.472906 0.0659275 -0.0855564 0 0 0 
0.473588 0.0659426 -0.0847836 0 0 0 
0.47354 0.0659394 -0.0838798 0 0 0 
0.472762 0.0659178 -0.0828493 0 0 0 
0.472229 0.0659024 -0.0818646 0 0 0 
0.472304 0.0659023 -0.0809862 0 0 0 
0.472563 0.0659068 -0.0801387 0 0 0 
0.472275 0.0658975 -0.0791997 0 0 0 
0.471626 0.0658792 -0.0782024 0 0 0 
0.471946 0.0658853 -0.0773661 0 0 0 
0.471964 0.0658837 -0.0764804 0 0 0 
0.470656 0.0658488 -0.0753835 0 0 0 
0.470736 0.0658488 -0.0745107 0 0 0 
0.469436 0.0658142 -0.0734233 0 0 0 
0.470116 0.0658293 -0.0726456 0 0 0 
0.470558 0.0658384 -0.0718295 0 0 0 
0.469142 0.0658009 -0.0707336 0 0 0 
0.469106 0.065798 -0.0698476 0 0 0 
0.468236 0.0657742 -0.0688402 0 0 0 
0.46737 0.0657505 -0.0678371 0 0 0 
0.466685 0.0657313 -0.0668635 0 0 0 
0.46677 0.0657315 -0.066001 0 0 0 
0.465618 0.0657007 -0.064967 0 0 0 
0.465117 0.0656861 -0.0640267 0 0 0 
0.465086 0.0656834 -0.0631521 0 0 0 
0.464062 0.0656558 -0.0621457 0 0 0 
0.463566 0.0656414 -0.061213 0 0 0 
0.463015 0.0656256 -0.0602751 0 0 0 
0.462234 0.0656041 -0.0593105 0 0 0 
0.461976 0.0655957 -0.0584147 0 0 0 
0.461315 0.0655772 -0.0574704 0 0 0 
0.460887 0.0655646 -0.0565573 0 0 0 
0.46069 0.0655577 -0.0556738 0 0 0 
0.458722 0.0655065 -0.0545822 0 0 0 
0.460013 0.0655369 -0.053877 0 0 0 
0.459533 0.065523 -0.0529647 0 0 0 
0.457351 0.0654665 -0.0518632 0 0 0 
0.458238 0.0654867 -0.0511095 0 0 0 
0.456183 0.0654334 -0.0500329 0 0 0 
0.45622 0.0654325 -0.0491878 0 0 0 
0.455528 0.0654132 -0.0482663 0 0 0 
0.455174 0.0654025 -0.0473825 0 0 0 
0.454654 0.0653876 -0.0464834 0 0 0 
0.454694 0.0653867 -0.0456422 0 0 0 
0.454288 0.0653746 -0.0447576 0 0 0 
0.454609 0.0653807 -0.0439443 0 0 0 
0.454204 0.0653687 -0.043062 0 0 0 
0.454247 0.0653679 -0.0422225 0 0 0 
0.456645 0.0654258 -0.0415952 0 0 0 
0.45439 0.0653677 -0.0405489 0 0 0 
0.45371 0.0653488 -0.0396472 0 0 0 
0.455207 0.0653842 -0.038932 0 0 0 
0.454805 0.0653723 -0.0380547 0 0 0 
0.454964 0.0653743 -0.0372243 0 0 0 
0.455123 0.0653764 -0.0363936 0 0 0 
0.454779 0.0653659 -0.0355238 0 0 0 
0.454884 0.0653666 -0.0346891 0 0 0 
0.454542 0.0653562 -0.0338215 0 0 0 
0.455095 0.0653681 -0.0330193 0 0 0 
0.45537 0.065373 -0.0321958 0 0 0 
0.457051 0.065413 -0.0314668 0 0 0 
0.455865 0.0653816 -0.0305428 0 0 0 
0.455918 0.065381 -0.0297027 0 0 0 
0.455523 0.0653692 -0.0288348 0 0 0 
0.455857 0.0653757 -0.0280124 0 0 0 
0.456418 0.0653877 -0.0272021 0 0 0 
0.456192 0.0653802 -0.0263455 0 0 0 
0.456473 0.0653853 -0.0255175 0 0 0 
0.456643 0.0653876 -0.0246827 0 0 0 
0.456982 0.0653941 -0.0238562 0 0 0 
0.456477 0.0653797 -0.0229869 0 0 0 
0.457099 0.0653932 -0.022173 0 0 0 
0.457893 0.065411 -0.0213647 0 0 0 
0.457728 0.065405 -0.0205118 0 0 0 
0.457676 0.0654018 -0.0196643 0 0 0 
0.457964 0.0654071 -0.0188307 0 0 0 
0.457857 0.0654025 -0.017981 0 0 0 
0.45843 0.0654148 -0.0171565 0 0 0 
0.458494 0.0654145 -0.0163125 0 0 0 
0.457653 0.0653917 -0.0154389 0 0 0 
0.458454 0.0654097 -0.0146188 0 0 0 
0.458748 0.0654151 -0.0137812 0 0 0 
0.459269 0.0654261 -0.0129487 0 0 0 
0.460079 0.0654443 -0.0121216 0 0 0 
0.459862 0.065437 -0.0112677 0 0 0 
0.459304 0.0654212 -0.0104074 0 0 0 
0.45983 0.0654324 -0.00957036 0 0 0 
0.459844 0.0654308 -0.00872237 0 0 0 
0.460773 0.0654519 -0.00788882 0 0 0 
0.461189 0.0654603 -0.00704473 0 0 0 
0.460632 0.0654446 -0.00618734 0 0 0 
0.460935 0.0654501 -0.00534085 0 0 0 
0.461124 0.0654529 -0.00449231 0 0 0 
0.4612 0.0654529 -0.00364234 0 0 0 
0.461506 0.0654585 -0.00279319 0 0 0 
0.461697 0.0654613 -0.00194258 0 0 0 
0.461775 0.0654613 -0.00109115 0 0 0 
0.461738 0.0654585 -0.000239538 0 0 0 
0.462856 0.0654842 0.000615094 0 0 0 
0.462532 0.0654743 0.00146728 0 0 0 
0.463017 0.0654844 0.00232349 0 0 0 
0.462694 0.0654745 0.00317482 0 0 0 
0.46295 0.0654789 0.00403085 0 0 0 
0.463438 0.065489 0.00489065 0 0 0 
0.463812 0.0654963 0.00575072 0 0 0 
0.463549 0.0654879 0.00660221 0 0 0 
0.464099 0.0654995 0.00746704 0 0 0 
0.464593 0.0655098 0.00833288 0 0 0 
0.46468 0.06551 0.00919196 0 0 0 
0.464943 0.0655146 0.0100555 0 0 0 
0.464799 0.0655091 0.0109099 0 0 0 
0.465239 0.065518 0.0117795 0 0 0 
0.464571 0.0654996 0.012619 0 0 0 
0.465538 0.0655215 0.0135061 0 0 0 
0.465747 0.0655247 0.0143723 0 0 0 
0.467191 0.0655584 0.0152816 0 0 0 
0.466462 0.0655385 0.016118 0 0 0 
0.466086 0.0655273 0.0169652 0 0 0 
0.466828 0.0655436 0.0178555 0 0 0 
0.467219 0.0655513 0.0187342 0 0 0 
0.46767 0.0655605 0.019617 0 0 0 
0.467355 0.0655508 0.0204668 0 0 0 
0.468045 0.0655658 0.021363 0 0 0 
0.468086 0.0655649 0.0222301 0 0 0 
0.468601 0.0655756 0.0231217 0 0 0 
0.467933 0.0655572 0.0239528 0 0 0 
0.469877 0.0656031 0.0249243 0 0 0 
0.468493 0.0655671 0.0257152 0 0 0 
0.468123 0.065556 0.0265602 0 0 0 
0.468405 0.065561 0.0274434 0 0 0 
0.46851 0.0655616 0.0283167 0 0 0 
0.468913 0.0655696 0.0292097 0 0 0 
0.470093 0.0655967 0.0301554 0 0 0 
0.469068 0.0655695 0.0309566 0 0 0 
0.469296 0.0655731 0.0318412 0 0 0 
0.470061 0.06559 0.0327652 0 0 0 
0.470471 0.0655981 0.0336662 0 0 0 
0.470164 0.0655886 0.0345151 0 0 0 
0.470995 0.065607 0.0354507 0 0 0 
0.469553 0.0655696 0.0362103 0 0 0 
0.470622 0.0655939 0.0371676 0 0 0 
0.471217 0.0656066 0.0380898 0 0 0 
0.470673 0.0655912 0.0389182 0 0 0 
0.47163 0.0656128 0.0398745 0 0 0 
0.470546 0.0655842 0.0406547 0 0 0 
0.471504 0.0656057 0.0416148 0 0 0 
0.471082 0.0655934 0.042452 0 0 0 
0.471322 0.0655973 0.0433498 0 0 0 
0.471924 0.0656101 0.0442835 0 0 0 
0.471985 0.0656096 0.045167 0 0 0 
0.471144 0.065587 0.0459613 0 0 0 
0.471567 0.0655954 0.0468807 0 0 0 
0.470549 0.0655684 0.0476533 0 0 0 
0.469595 0.0655431 0.0484293 0 0 0 
0.468943 0.0655251 0.0492342 0 0 0 
0.468472 0.0655116 0.0500565 0 0 0 
0.468418 0.0655083 0.0509236 0 0 0 
0.468246 0.0655021 0.0517775 0 0 0 
0.46766 0.0654858 0.0525836 0 0 0 
0.467135 0.065471 0.053395 0 0 0 
0.466375 0.0654504 0.0541771 0 0 0 
0.46556 0.0654285 0.0549501 0 0 0 
0.464925 0.065411 0.055742 0 0 0 
0.4647 0.0654035 0.0565829 0 0 0 
0.464009 0.0653847 0.0573646 0 0 0 
0.465367 0.0654159 0.0584051 0 0 0 
0.465203 0.06541 0.0592542 0 0 0 
0.465568 0.0654169 0.0601726 0 0 0 
0.46564 0.0654167 0.0610536 0 0 0 
0.465596 0.0654137 0.0619196 0 0 0 
0.46567 0.0654135 0.0628019 0 0 0 
0.465626 0.0654105 0.0636686 0 0 0 
0.466291 0.0654247 0.064635 0 0 0 
0.466131 0.0654188 0.0654869 0 0 0 
0.467213 0.0654433 0.0665178 0 0 0 
0.467647 0.0654519 0.0674584 0 0 0 
0.467369 0.0654432 0.0682957 0 0 0 
0.467686 0.0654489 0.0692214 0 0 0 
0.467648 0.065446 0.0700948 0 0 0 
0.468086 0.0654547 0.0710416 0 0 0 
0.468704 0.0654678 0.0720187 0 0 0 
0.468429 0.0654591 0.0728577 0 0 0 
0.469529 0.0654839 0.0739153 0 0 0 
0.471177 0.0655221 0.0750661 0 0 0 
0.469819 0.065487 0.0757327 0 0 0 
0.469545 0.0654783 0.0765737 0 0 0 
0.470233 0.0654931 0.0775746 0 0 0 
0.471346 0.0655182 0.0786504 0 0 0 
0.472041 0.0655331 0.0796595 0 0 0 
0.472677 0.0655466 0.0806616 0 0 0 
0.472951 0.0655513 0.0816033 0 0 0 
0.473593 0.0655649 0.0826113 0 0 0 
0.473625 0.0655636 0.0835135 0 0 0 
0.475067 0.0655967 0.0846706 0 0 0 
0.475594 0.0656075 0.0856668 0 0 0 
0.475814 0.0656108 0.0866091 0 0 0 
0.476035 0.0656141 0.0875528 0 0 0 
0.476876 0.0656326 0.0886144 0 0 0 
0.477037 0.0656344 0.0895508 0 0 0 
0.479258 0.0656864 0.090883 0 0 0 
0.478297 0.065661 0.0916082 0 0 0 
0.47984 0.0656964 0.0928198 0 0 0 
0.480133 0.0657015 0.093791 0 0 0 
0.480994 0.0657203 0.0948773 0 0 0 
0.481417 0.0657285 0.095879 0 0 0 
0.481588 0.0657306 0.0968317 0 0 0 
0.48195 0.0657373 0.0978247 0 0 0 
0.482504 0.0657487 0.0988595 0 0 0 
0.48236 0.0657431 0.0997511 0 0 0 
0.483299 0.0657638 0.100871 0 0 0 
0.483156 0.0657583 0.101765 0 0 0 
0.483397 0.065762 0.102741 0 0 0 
0.484664 0.0657907 0.103942 0 0 0 
0.48433 0.0657805 0.104797 0 0 0 
0.484831 0.0657906 0.105836 0 0 0 
0.484498 0.0657804 0.106692 0 0 0 
0.485388 0.0657999 0.107822 0 0 0 
0.484605 0.0657788 0.108577 0 0 0 
0.484596 0.0657765 0.109507 0 0 0 
0.48433 0.0657679 0.110378 0 0 0 
0.484065 0.0657594 0.111248 0 0 0 
0.484571 0.0657695 0.112299 0 0 0 
0.483602 0.0657439 0.113004 0 0 0 
0.483788 0.0657463 0.113981 0 0 0 
0.483333 0.0657332 0.114805 0 0 0 
0.483456 0.0657341 0.115769 0 0 0 
0.482812 0.0657164 0.116546 0 0 0 
0.483064 0.0657204 0.117541 0 0 0 
0.483125 0.0657198 0.118491 0 0 0 
0.482995 0.0657145 0.119394 0 0 0 
0.482801 0.0657077 0.120281 0 0 0 
0.482289 0.0656932 0.121087 0 0 0 
0.481778 0.0656787 0.121893 0 0 0 
0.481268 0.0656643 0.122697 0 0 0 
0.48 0.0656316 0.123304 0 0 0 
0.479874 0.0656264 0.124204 0 0 0 
0.479686 0.0656198 0.125088 0 0 0 
0.479878 0.0656223 0.126073 0 0 0 
0.480134 0.0656264 0.127077 0 0 0 
0.479694 0.0656136 0.127895 0 0 0 
0.479888 0.0656162 0.128883 0 0 0 
0.480463 0.065628 0.129977 0 0 0 
0.480025 0.0656153 0.130796 0 0 0 
0.481558 0.0656501 0.132159 0 0 0 
0.480609 0.0656251 0.132837 0 0 0 
0.480616 0.0656232 0.13378 0 0 0 
0.481134 0.0656335 0.134869 0 0 0 
0.48127 0.0656347 0.135851 0 0 0 
0.481343 0.0656343 0.136817 0 0 0 
0.480397 0.0656094 0.13749 0 0 0 
0.480089 0.0655998 0.138345 0 0 0 
0.481056 0.065621 0.139572 0 0 0 
0.481195 0.0656222 0.140561 0 0 0 
0.48108 0.0656173 0.141475 0 0 0 
0.481669 0.0656293 0.142599 0 0 0 
0.481234 0.0656167 0.14342 0 0 0 
0.482403 0.0656427 0.144723 0 0 0 
0.481968 0.0656301 0.145545 0 0 0 
0.481984 0.0656283 0.146503 0 0 0 
0.481936 0.065625 0.147443 0 0 0 
0.482596 0.0656387 0.148603 0 0 0 
0.482614 0.065637 0.149565 0 0 0 
0.482117 0.0656229 0.150367 0 0 0 
0.483426 0.0656522 0.151738 0 0 0 
0.482799 0.0656349 0.1525 0 0 0 
0.482755 0.0656317 0.153447 0 0 0 
0.483487 0.0656471 0.154644 0 0 0 
0.483703 0.0656501 0.155677 0 0 0 
0.48379 0.06565 0.15667 0 0 0 
0.484137 0.0656562 0.15775 0 0 0 
0.483641 0.0656421 0.158554 0 0 0 
0.484836 0.0656686 0.159918 0 0 0 
0.484405 0.0656561 0.160744 0 0 0 
0.4843 0.0656513 0.161679 0 0 0 
0.484717 0.0656592 0.162791 0 0 0 
0.484417 0.0656498 0.163661 0 0 0 
0.484575 0.0656513 0.164688 0 0 0 
0.484929 0.0656576 0.165784 0 0 0 
0.484826 0.065653 0.166724 0 0 0 
0.485444 0.0656656 0.167915 0 0 0 
0.485081 0.0656547 0.168766 0 0 0 
0.485111 0.0656532 0.169755 0 0 0 
0.485011 0.0656486 0.170698 0 0 0 
0.485173 0.0656503 0.171736 0 0 0 
0.484485 0.0656316 0.17247 0 0 0 
0.485631 0.0656568 0.173864 0 0 0 
0.486257 0.0656695 0.175074 0 0 0 
0.486159 0.065665 0.176024 0 0 0 
0.486193 0.0656636 0.177023 0 0 0 
0.486162 0.0656606 0.177999 0 0 0 
0.486 0.0656545 0.178927 0 0 0 
0.485246 0.0656342 0.179635 0 0 0 
0.485348 0.0656344 0.180662 0 0 0 
0.484859 0.0656205 0.181467 0 0 0 
0.485291 0.0656286 0.182619 0 0 0 
0.486516 0.0656556 0.184077 0 0 0 
0.487152 0.0656686 0.185314 0 0 0 
0.487258 0.0656689 0.186351 0 0 0 
0.486966 0.0656596 0.187236 0 0 0 
0.48575 0.0656283 0.187761 0 0 0 
0.486055 0.0656334 0.188877 0 0 0 
0.486162 0.0656337 0.189917 0 0 0 
0.485543 0.0656167 0.190672 0 0 0 
0.484728 0.065595 0.191347 0 0 0 
0.485761 0.0656173 0.192757 0 0 0 
0.484024 0.0655737 0.193062 0 0 0 
0.484067 0.0655725 0.194078 0 0 0 
0.483914 0.0655665 0.195015 0 0 0 
0.484682 0.0655826 0.196328 0 0 0 
0.48374 0.0655579 0.196945 0 0 0 
0.484048 0.0655629 0.198073 0 0 0 
0.483633 0.0655508 0.198905 0 0 0 
0.483416 0.0655434 0.199818 0 0 0 
0.483069 0.0655328 0.200677 0 0 0 
0.483444 0.0655395 0.201838 0 0 0 
0.483294 0.0655337 0.202781 0 0 0 
0.483736 0.0655419 0.203975 0 0 0 
0.483851 0.0655424 0.205032 0 0 0 
0.461696 0.0623182 -0.220554 0 0 0 
0.476617 0.062584 -0.226653 0 0 0 
0.476738 0.0625839 -0.225699 0 0 0 
0.479703 0.0626348 -0.226083 0 0 0 
0.469336 0.0624464 -0.220213 0 0 0 
0.467723 0.0624153 -0.218468 0 0 0 
0.471766 0.0624856 -0.219356 0 0 0 
0.477031 0.0625777 -0.220792 0 0 0 
0.477347 0.0625811 -0.219932 0 0 0 
0.469451 0.0624373 -0.215311 0 0 0 
0.470508 0.062454 -0.214805 0 0 0 
0.475929 0.0625489 -0.216275 0 0 0 
0.471569 0.0624686 -0.213306 0 0 0 
0.472321 0.0624798 -0.212654 0 0 0 
0.473075 0.0624911 -0.212002 0 0 0 
0.472384 0.0624765 -0.210703 0 0 0 
0.472134 0.0624698 -0.209604 0 0 0 
0.469025 0.0624119 -0.207247 0 0 0 
0.469461 0.0624175 -0.206458 0 0 0 
0.475164 0.0625172 -0.20797 0 0 0 
0.470522 0.0624321 -0.204962 0 0 0 
0.46867 0.0623967 -0.203181 0 0 0 
0.472276 0.062459 -0.203758 0 0 0 
0.470784 0.0624301 -0.202138 0 0 0 
0.47266 0.0624614 -0.20196 0 0 0 
0.47204 0.0624481 -0.200717 0 0 0 
0.465764 0.0623339 -0.197088 0 0 0 
0.470063 0.0624084 -0.19793 0 0 0 
0.473874 0.0624742 -0.198552 0 0 0 
0.472814 0.0624531 -0.197131 0 0 0 
0.46781 0.0623617 -0.194083 0 0 0 
0.470527 0.0624079 -0.194238 0 0 0 
0.470721 0.0624092 -0.193348 0 0 0 
0.467899 0.0623567 -0.191227 0 0 0 
0.468154 0.0623591 -0.190368 0 0 0 
0.467493 0.0623452 -0.189139 0 0 0 
0.470266 0.0623924 -0.189293 0 0 0 
0.471266 0.062408 -0.188728 0 0 0 
0.466008 0.0623123 -0.185672 0 0 0 
0.472656 0.0624283 -0.187347 0 0 0 
0.468714 0.0623561 -0.184829 0 0 0 
0.466776 0.0623195 -0.183112 0 0 0 
0.464434 0.0622757 -0.181247 0 0 0 
0.46644 0.0623092 -0.181076 0 0 0 
0.465126 0.0622837 -0.179619 0 0 0 
0.463761 0.0622573 -0.178148 0 0 0 
0.465098 0.0622789 -0.177714 0 0 0 
0.463138 0.062242 -0.176025 0 0 0 
0.461314 0.0622075 -0.174396 0 0 0 
0.460682 0.0621942 -0.173222 0 0 0 
0.45888 0.0621601 -0.171615 0 0 0 
0.460956 0.0621949 -0.171456 0 0 0 
0.456362 0.0621113 -0.168827 0 0 0 
0.455748 0.0620983 -0.167678 0 0 0 
0.45943 0.0621615 -0.168101 0 0 0 
0.45608 0.0621001 -0.165957 0 0 0 
0.458363 0.0621384 -0.165862 0 0 0 
0.458152 0.0621326 -0.164862 0 0 0 
0.45981 0.0621599 -0.164531 0 0 0 
0.457038 0.0621087 -0.162621 0 0 0 
0.458222 0.0621276 -0.16212 0 0 0 
0.457086 0.0621054 -0.160801 0 0 0 
0.458853 0.0621346 -0.1605 0 0 0 
0.456847 0.0620971 -0.158884 0 0 0 
0.458147 0.062118 -0.158417 0 0 0 
0.457593 0.0621061 -0.157309 0 0 0 
0.46065 0.062158 -0.157436 0 0 0 
0.457878 0.062107 -0.155575 0 0 0 
0.457963 0.0621064 -0.154689 0 0 0 
0.458513 0.0621141 -0.15396 0 0 0 
0.461698 0.0621682 -0.154106 0 0 0 
0.459209 0.0621222 -0.152362 0 0 0 
0.458366 0.0621053 -0.15117 0 0 0 
0.460142 0.0621346 -0.150839 0 0 0 
0.458483 0.0621033 -0.149386 0 0 0 
0.459327 0.0621161 -0.148748 0 0 0 
0.459765 0.0621217 -0.147977 0 0 0 
0.460789 0.0621377 -0.147392 0 0 0 
0.459362 0.0621105 -0.146026 0 0 0 
0.460794 0.0621337 -0.145568 0 0 0 
0.464304 0.0621934 -0.145756 0 0 0 
0.463802 0.0621825 -0.144682 0 0 0 
0.460425 0.062121 -0.142721 0 0 0 
0.460575 0.0621216 -0.141859 0 0 0 
0.459561 0.0621017 -0.140641 0 0 0 
0.460586 0.0621177 -0.140046 0 0 0 
0.462202 0.0621441 -0.139627 0 0 0 
0.460891 0.062119 -0.138324 0 0 0 
0.462098 0.0621381 -0.137777 0 0 0 
0.462252 0.0621388 -0.136915 0 0 0 
0.462583 0.0621425 -0.136105 0 0 0 
0.463799 0.0621618 -0.135552 0 0 0 
0.462247 0.0621326 -0.134193 0 0 0 
0.461759 0.0621219 -0.133147 0 0 0 
0.462091 0.0621257 -0.132338 0 0 0 
0.464724 0.0621698 -0.132182 0 0 0 
0.464468 0.0621633 -0.131201 0 0 0 
0.462504 0.0621269 -0.129745 0 0 0 
0.463545 0.062143 -0.129131 0 0 0 
0.463764 0.0621448 -0.128288 0 0 0 
0.462219 0.0621158 -0.126961 0 0 0 
0.464262 0.0621495 -0.126617 0 0 0 
0.46348 0.0621337 -0.125502 0 0 0 
0.464644 0.0621521 -0.124913 0 0 0 
0.464039 0.0621395 -0.123849 0 0 0 
0.464497 0.0621454 -0.123069 0 0 0 
0.464897 0.0621504 -0.122273 0 0 0 
0.464529 0.0621419 -0.121275 0 0 0 
0.466235 0.0621697 -0.120816 0 0 0 
0.466104 0.0621654 -0.11988 0 0 0 
0.467403 0.062186 -0.119309 0 0 0 
0.466438 0.0621671 -0.118161 0 0 0 
0.466248 0.0621618 -0.117212 0 0 0 
0.466774 0.0621689 -0.116442 0 0 0 
0.466051 0.0621543 -0.115363 0 0 0 
0.467948 0.0621854 -0.114929 0 0 0 
0.4677 0.062179 -0.113967 0 0 0 
0.467155 0.0621675 -0.112935 0 0 0 
0.468522 0.0621893 -0.112363 0 0 0 
0.467977 0.0621777 -0.111332 0 0 0 
0.468929 0.0621923 -0.110656 0 0 0 
0.469103 0.0621933 -0.109796 0 0 0 
0.467243 0.0621589 -0.108465 0 0 0 
0.468014 0.0621703 -0.107745 0 0 0 
0.46819 0.0621713 -0.106888 0 0 0 
0.468845 0.0621807 -0.106139 0 0 0 
0.468363 0.0621703 -0.105133 0 0 0 
0.470583 0.0622068 -0.10473 0 0 0 
0.469197 0.0621807 -0.103524 0 0 0 
0.469737 0.0621881 -0.102745 0 0 0 
0.470037 0.0621913 -0.101913 0 0 0 
0.470579 0.0621987 -0.101131 0 0 0 
0.469616 0.0621799 -0.100029 0 0 0 
0.470038 0.0621852 -0.0992223 0 0 0 
0.470522 0.0621916 -0.0984274 0 0 0 
0.470524 0.0621896 -0.0975317 0 0 0 
0.470648 0.0621897 -0.0966612 0 0 0 
0.4718 0.0622077 -0.0959995 0 0 0 
0.471985 0.0622089 -0.0951398 0 0 0 
0.47024 0.0621766 -0.0938951 0 0 0 
0.471935 0.062204 -0.0933364 0 0 0 
0.471095 0.0621874 -0.0922763 0 0 0 
0.47213 0.0622033 -0.0915827 0 0 0 
0.472076 0.0622004 -0.0906772 0 0 0 
0.471057 0.0621807 -0.0895892 0 0 0 
0.472275 0.0621998 -0.0889256 0 0 0 
0.471619 0.0621864 -0.0879095 0 0 0 
0.470664 0.0621678 -0.0868415 0 0 0 
0.469834 0.0621515 -0.0858003 0 0 0 
0.470867 0.0621673 -0.0850983 0 0 0 
0.469559 0.0621427 -0.0839755 0 0 0 
0.470772 0.0621617 -0.0833028 0 0 0 
0.471267 0.0621682 -0.0825007 0 0 0 
0.47098 0.0621613 -0.0815622 0 0 0 
0.470214 0.062146 -0.0805434 0 0 0 
0.46963 0.0621339 -0.0795588 0 0 0 
0.470306 0.0621436 -0.0787869 0 0 0 
0.469783 0.0621326 -0.0778152 0 0 0 
0.468965 0.0621165 -0.0767977 0 0 0 
0.469102 0.0621168 -0.0759378 0 0 0 
0.469898 0.0621286 -0.0751827 0 0 0 
0.468308 0.0620992 -0.0740492 0 0 0 
0.468506 0.0621006 -0.0732005 0 0 0 
0.4674 0.0620796 -0.0721509 0 0 0 
0.467304 0.0620759 -0.0712591 0 0 0 
0.468691 0.0620978 -0.0705905 0 0 0 
0.466818 0.0620636 -0.0694345 0 0 0 
0.466194 0.0620509 -0.0684683 0 0 0 
0.465454 0.0620362 -0.0674884 0 0 0 
0.465891 0.0620417 -0.0666789 0 0 0 
0.465096 0.0620261 -0.0656952 0 0 0 
0.463896 0.0620035 -0.0646587 0 0 0 
0.463458 0.061994 -0.0637312 0 0 0 
0.462732 0.0619795 -0.0627669 0 0 0 
0.461778 0.0619612 -0.0617753 0 0 0 
0.46175 0.0619587 -0.060909 0 0 0 
0.460974 0.0619435 -0.0599466 0 0 0 
0.459801 0.0619214 -0.0589368 0 0 0 
0.460119 0.0619249 -0.0581188 0 0 0 
0.459009 0.0619039 -0.0571234 0 0 0 
0.45853 0.0618937 -0.0562093 0 0 0 
0.458222 0.0618865 -0.0553179 0 0 0 
0.458029 0.0618813 -0.0544414 0 0 0 
0.456764 0.0618577 -0.0534415 0 0 0 
0.456461 0.0618506 -0.0525565 0 0 0 
0.455262 0.0618281 -0.0515723 0 0 0 
0.454739 0.0618172 -0.0506675 0 0 0 
0.455 0.0618198 -0.04985 0 0 0 
0.4537 0.0617956 -0.0488653 0 0 0 
0.453238 0.0617858 -0.0479736 0 0 0 
0.453388 0.0617864 -0.0471469 0 0 0 
0.452431 0.0617682 -0.046208 0 0 0 
0.452416 0.061766 -0.0453663 0 0 0 
0.452015 0.0617572 -0.0444874 0 0 0 
0.452221 0.0617589 -0.0436683 0 0 0 
0.451822 0.0617502 -0.0427919 0 0 0 
0.452195 0.0617546 -0.0419882 0 0 0 
0.452625 0.0617601 -0.0411883 0 0 0 
0.452227 0.0617514 -0.0403142 0 0 0 
0.452326 0.0617512 -0.0394847 0 0 0 
0.452482 0.061752 -0.0386598 0 0 0 
0.452307 0.0617471 -0.0378072 0 0 0 
0.452794 0.0617535 -0.037009 0 0 0 
0.45262 0.0617487 -0.0361569 0 0 0 
0.452502 0.0617448 -0.0353101 0 0 0 
0.45244 0.0617418 -0.034468 0 0 0 
0.453817 0.0617634 -0.0337318 0 0 0 
0.453202 0.061751 -0.0328484 0 0 0 
0.45281 0.0617424 -0.0319831 0 0 0 
0.453913 0.0617594 -0.0312205 0 0 0 
0.453687 0.0617536 -0.0303665 0 0 0 
0.453628 0.0617507 -0.0295243 0 0 0 
0.453626 0.0617488 -0.0286859 0 0 0 
0.453901 0.0617516 -0.0278644 0 0 0 
0.453956 0.0617506 -0.0270291 0 0 0 
0.454122 0.0617515 -0.0262001 0 0 0 
0.454956 0.0617639 -0.0254072 0 0 0 
0.454345 0.0617516 -0.0245349 0 0 0 
0.454624 0.0617544 -0.0237105 0 0 0 
0.454515 0.0617507 -0.022866 0 0 0 
0.455466 0.0617649 -0.0220722 0 0 0 
0.455525 0.061764 -0.0212344 0 0 0 
0.454859 0.0617508 -0.020365 0 0 0 
0.455087 0.0617528 -0.0195354 0 0 0 
0.455092 0.061751 -0.0186963 0 0 0 
0.455266 0.0617521 -0.0178635 0 0 0 
0.455999 0.0617626 -0.0170505 0 0 0 
0.456175 0.0617637 -0.0162157 0 0 0 
0.456969 0.0617753 -0.0154005 0 0 0 
0.455856 0.0617545 -0.014524 0 0 0 
0.457493 0.0617804 -0.0137308 0 0 0 
0.45666 0.0617643 -0.0128651 0 0 0 
0.457064 0.0617693 -0.0120336 0 0 0 
0.457639 0.0617771 -0.0112045 0 0 0 
0.457144 0.0617668 -0.0103506 0 0 0 
0.457157 0.0617651 -0.00950849 0 0 0 
0.457114 0.0617625 -0.00866538 0 0 0 
0.457522 0.0617675 -0.00782958 0 0 0 
0.458554 0.0617831 -0.00700101 0 0 0 
0.457384 0.0617614 -0.00614202 0 0 0 
0.458643 0.0617808 -0.00531226 0 0 0 
0.458716 0.0617801 -0.00446792 0 0 0 
0.458904 0.0617814 -0.00362407 0 0 0 
0.459433 0.0617884 -0.00278114 0 0 0 
0.460592 0.0618061 -0.00193803 0 0 0 
0.459985 0.0617939 -0.00108891 0 0 0 
0.458925 0.0617741 -0.000242419 0 0 0 
0.460027 0.0617908 0.000606032 0 0 0 
0.460163 0.0617912 0.00145416 0 0 0 
0.460299 0.0617916 0.00230281 0 0 0 
0.459867 0.0617823 0.00314729 0 0 0 
0.460518 0.0617914 0.00400116 0 0 0 
0.460772 0.0617938 0.00485271 0 0 0 
0.46034 0.0617846 0.00569577 0 0 0 
0.461741 0.0618063 0.006566 0 0 0 
0.460908 0.0617903 0.0074023 0 0 0 
0.460993 0.0617898 0.00825336 0 0 0 
0.462284 0.0618097 0.00913042 0 0 0 
0.462832 0.061817 0.00999517 0 0 0 
0.462401 0.0618078 0.0108376 0 0 0 
0.462144 0.0618015 0.0116831 0 0 0 
0.463156 0.0618166 0.0125642 0 0 0 
0.462496 0.0618036 0.013398 0 0 0 
0.462875 0.0618081 0.0142631 0 0 0 
0.464008 0.0618252 0.0151556 0 0 0 
0.463521 0.0618151 0.0159939 0 0 0 
0.46431 0.0618264 0.0168788 0 0 0 
0.464637 0.06183 0.0177485 0 0 0 
0.464674 0.0618286 0.0186073 0 0 0 
0.465061 0.0618332 0.0194817 0 0 0 
0.465391 0.0618368 0.020355 0 0 0 
0.46543 0.0618355 0.021216 0 0 0 
0.46512 0.0618284 0.02206 0 0 0 
0.465102 0.0618262 0.022918 0 0 0 
0.465377 0.0618288 0.0237915 0 0 0 
0.465419 0.0618276 0.0246534 0 0 0 
0.46593 0.0618342 0.0255421 0 0 0 
0.465798 0.0618301 0.0263954 0 0 0 
0.466839 0.0618456 0.0273189 0 0 0 
0.46577 0.0618257 0.0281156 0 0 0 
0.465758 0.0618236 0.0289759 0 0 0 
0.466097 0.0618273 0.0298596 0 0 0 
0.465969 0.0618232 0.030713 0 0 0 
0.466486 0.0618299 0.031611 0 0 0 
0.466828 0.0618337 0.0324987 0 0 0 
0.467231 0.0618385 0.0333923 0 0 0 
0.467459 0.0618403 0.0342744 0 0 0 
0.465982 0.0618137 0.0350263 0 0 0 
0.466796 0.0618253 0.0359537 0 0 0 
0.467438 0.0618341 0.0368702 0 0 0 
0.468023 0.0618419 0.0377848 0 0 0 
0.467723 0.061835 0.038627 0 0 0 
0.467542 0.06183 0.0394786 0 0 0 
0.468011 0.0618359 0.0403871 0 0 0 
0.467772 0.0618299 0.0412339 0 0 0 
0.46848 0.0618398 0.042167 0 0 0 
0.468361 0.0618358 0.0430254 0 0 0 
0.467532 0.06182 0.0438158 0 0 0 
0.468302 0.0618309 0.0447592 0 0 0 
0.467534 0.0618161 0.045553 0 0 0 
0.468186 0.061825 0.0464879 0 0 0 
0.468485 0.0618281 0.0473891 0 0 0 
0.468192 0.0618212 0.0482295 0 0 0 
0.467427 0.0618065 0.0490188 0 0 0 
0.466606 0.0617909 0.0497995 0 0 0 
0.465906 0.0617773 0.0505907 0 0 0 
0.466088 0.0617783 0.0514787 0 0 0 
0.465919 0.0617736 0.0523276 0 0 0 
0.46622 0.0617766 0.0532307 0 0 0 
0.464704 0.0617495 0.053921 0 0 0 
0.462794 0.0617157 0.0545585 0 0 0 
0.462919 0.0617159 0.055437 0 0 0 
0.46316 0.0617179 0.0563307 0 0 0 
0.463402 0.06172 0.0572258 0 0 0 
0.464228 0.0617318 0.0581964 0 0 0 
0.464357 0.0617319 0.0590803 0 0 0 
0.464544 0.0617331 0.0599728 0 0 0 
0.464382 0.0617284 0.0608199 0 0 0 
0.464455 0.0617277 0.0616983 0 0 0 
0.465288 0.0617395 0.0626814 0 0 0 
0.465362 0.0617388 0.0635628 0 0 0 
0.465613 0.061741 0.0644696 0 0 0 
0.465865 0.0617432 0.0653779 0 0 0 
0.465647 0.0617376 0.0662198 0 0 0 
0.466903 0.0617564 0.0672766 0 0 0 
0.466627 0.0617499 0.0681117 0 0 0 
0.466764 0.0617502 0.0690083 0 0 0 
0.468088 0.0617701 0.0700858 0 0 0 
0.468466 0.0617744 0.0710233 0 0 0 
0.468072 0.0617659 0.0718426 0 0 0 
0.468809 0.0617761 0.0728389 0 0 0 
0.469849 0.0617913 0.0738867 0 0 0 
0.469634 0.0617857 0.0747365 0 0 0 
0.469719 0.0617852 0.0756348 0 0 0 
0.470465 0.0617955 0.076643 0 0 0 
0.470072 0.061787 0.0774642 0 0 0 
0.470881 0.0617983 0.0784874 0 0 0 
0.47248 0.0618227 0.0796491 0 0 0 
0.472146 0.0618152 0.0804835 0 0 0 
0.473147 0.0618297 0.0815502 0 0 0 
0.473483 0.0618332 0.0825036 0 0 0 
0.473393 0.0618297 0.083383 0 0 0 
0.47428 0.0618423 0.0844385 0 0 0 
0.474743 0.0618479 0.0854206 0 0 0 
0.476129 0.0618687 0.086575 0 0 0 
0.476474 0.0618724 0.0875413 0 0 0 
0.476819 0.061876 0.0885097 0 0 0 
0.477848 0.0618909 0.0896097 0 0 0 
0.478447 0.0618987 0.0906315 0 0 0 
0.47886 0.0619035 0.0916203 0 0 0 
0.479902 0.0619185 0.0927339 0 0 0 
0.480697 0.0619296 0.0938035 0 0 0 
0.481622 0.0619427 0.0949025 0 0 0 
0.481665 0.0619414 0.0958281 0 0 0 
0.483805 0.0619744 0.0971804 0 0 0 
0.483596 0.0619689 0.0980595 0 0 0 
0.483069 0.0619582 0.0988727 0 0 0 
0.483179 0.0619579 0.0998176 0 0 0 
0.483928 0.0619681 0.100898 0 0 0 
0.484424 0.0619742 0.101928 0 0 0 
0.484666 0.0619761 0.102906 0 0 0 
0.483055 0.0619475 0.103484 0 0 0 
0.484639 0.0619714 0.104755 0 0 0 
0.484947 0.0619744 0.105751 0 0 0 
0.483783 0.0619532 0.106422 0 0 0 
0.483452 0.0619457 0.107275 0 0 0 
0.483697 0.0619476 0.108258 0 0 0 
0.483751 0.0619464 0.109199 0 0 0 
0.484062 0.0619494 0.1102 0 0 0 
0.483542 0.0619388 0.11101 0 0 0 
0.482005 0.0619115 0.111581 0 0 0 
0.482188 0.0619124 0.112552 0 0 0 
0.48352 0.0619321 0.113798 0 0 0 
0.483899 0.0619362 0.114821 0 0 0 
0.482425 0.06191 0.115398 0 0 0 
0.482102 0.0619026 0.116251 0 0 0 
0.48299 0.061915 0.1174 0 0 0 
0.481904 0.0618952 0.118065 0 0 0 
0.481837 0.061892 0.11898 0 0 0 
0.481899 0.0618909 0.119928 0 0 0 
0.480439 0.061865 0.120492 0 0 0 
0.480121 0.0618577 0.121342 0 0 0 
0.478735 0.061833 0.121917 0 0 0 
0.478672 0.0618298 0.12283 0 0 0 
0.478672 0.0618278 0.12376 0 0 0 
0.478736 0.0618267 0.124707 0 0 0 
0.478612 0.0618226 0.125605 0 0 0 
0.478677 0.0618215 0.126554 0 0 0 
0.478932 0.0618236 0.127555 0 0 0 
0.47881 0.0618195 0.128456 0 0 0 
0.480964 0.0618524 0.129977 0 0 0 
0.478441 0.0618093 0.130223 0 0 0 
0.479645 0.0618267 0.131491 0 0 0 
0.479209 0.0618175 0.132307 0 0 0 
0.479279 0.0618165 0.133265 0 0 0 
0.478907 0.0618084 0.134098 0 0 0 
0.47942 0.0618146 0.135183 0 0 0 
0.479809 0.0618188 0.136234 0 0 0 
0.479502 0.0618117 0.137087 0 0 0 
0.479385 0.0618077 0.137995 0 0 0 
0.479966 0.061815 0.139107 0 0 0 
0.479597 0.0618068 0.139943 0 0 0 
0.480497 0.0618193 0.141154 0 0 0 
0.480001 0.0618091 0.141953 0 0 0 
0.481863 0.0618372 0.143458 0 0 0 
0.480791 0.0618177 0.144085 0 0 0 
0.482469 0.0618427 0.145545 0 0 0 
0.481204 0.0618201 0.146111 0 0 0 
0.480773 0.0618109 0.14693 0 0 0 
0.481236 0.0618163 0.148025 0 0 0 
0.481701 0.0618217 0.149124 0 0 0 
0.481335 0.0618136 0.149964 0 0 0 
0.481609 0.0618159 0.151006 0 0 0 
0.48182 0.0618171 0.15203 0 0 0 
0.482547 0.0618267 0.15322 0 0 0 
0.481924 0.0618145 0.153979 0 0 0 
0.482781 0.0618262 0.155216 0 0 0 
0.48261 0.0618212 0.156122 0 0 0 
0.482567 0.0618184 0.157071 0 0 0 
0.484531 0.0618479 0.158682 0 0 0 
0.483194 0.0618241 0.159206 0 0 0 
0.484905 0.0618496 0.160744 0 0 0 
0.484345 0.0618383 0.161526 0 0 0 
0.483981 0.0618303 0.162373 0 0 0 
0.485505 0.0618527 0.163861 0 0 0 
0.484554 0.0618351 0.16451 0 0 0 
0.485429 0.061847 0.165784 0 0 0 
0.484805 0.0618348 0.166543 0 0 0 
0.484703 0.0618309 0.167482 0 0 0 
0.485778 0.061846 0.168834 0 0 0 
0.486399 0.0618538 0.170032 0 0 0 
0.485577 0.0618384 0.170721 0 0 0 
0.485543 0.0618356 0.171689 0 0 0 
0.486099 0.0618424 0.172869 0 0 0 
0.485345 0.061828 0.17358 0 0 0 
0.486231 0.06184 0.174883 0 0 0 
0.486002 0.0618341 0.175784 0 0 0 
0.486694 0.061843 0.177023 0 0 0 
0.484693 0.0618087 0.177274 0 0 0 
0.484793 0.0618081 0.178295 0 0 0 
0.485616 0.061819 0.179586 0 0 0 
0.485717 0.0618184 0.180613 0 0 0 
0.485229 0.0618084 0.181418 0 0 0 
0.485923 0.0618173 0.182669 0 0 0 
0.484713 0.0617956 0.1832 0 0 0 
0.485736 0.0618098 0.184581 0 0 0 
0.485709 0.0618071 0.185563 0 0 0 
0.485683 0.0618045 0.186546 0 0 0 
0.485328 0.0617965 0.187403 0 0 0 
0.485961 0.0618044 0.188645 0 0 0 
0.485014 0.061787 0.18927 0 0 0 
0.485714 0.061796 0.190542 0 0 0 
0.486086 0.0617997 0.191687 0 0 0 
0.485139 0.0617823 0.19231 0 0 0 
0.48459 0.0617712 0.193088 0 0 0 
0.48437 0.0617655 0.193998 0 0 0 
0.486724 0.0618008 0.195951 0 0 0 
0.484064 0.0617561 0.195873 0 0 0 
0.484634 0.0617629 0.197106 0 0 0 
0.484745 0.0617624 0.198154 0 0 0 
0.483411 0.0617389 0.198607 0 0 0 
0.482998 0.06173 0.199437 0 0 0 
0.482979 0.0617274 0.200431 0 0 0 
0.483222 0.061729 0.201536 0 0 0 
0.483465 0.0617307 0.202643 0 0 0 
0.484039 0.0617375 0.203892 0 0 0 
0.482251 0.0617068 0.204139 0 0 0 
0.470015 0.0587694 -0.224291 0 0 0 
0.464287 0.0587093 -0.220577 0 0 0 
0.466483 0.0587293 -0.220629 0 0 0 
0.469691 0.0587594 -0.22115 0 0 0 
0.464282 0.0587026 -0.217625 0 0 0 
0.474201 0.0588004 -0.221266 0 0 0 
0.477705 0.0588335 -0.221891 0 0 0 
0.476739 0.0588215 -0.220437 0 0 0 
0.470363 0.058755 -0.216501 0 0 0 
0.467333 0.0587223 -0.214125 0 0 0 
0.465316 0.0586997 -0.212223 0 0 0 
0.473301 0.0587779 -0.214866 0 0 0 
0.470547 0.0587479 -0.21263 0 0 0 
0.473488 0.0587753 -0.212965 0 0 0 
0.474814 0.0587863 -0.212566 0 0 0 
0.473174 0.0587676 -0.210843 0 0 0 
0.476783 0.0588016 -0.211453 0 0 0 
0.470058 0.0587319 -0.207492 0 0 0 
0.465826 0.0586873 -0.204655 0 0 0 
0.473055 0.0587575 -0.206841 0 0 0 
0.470563 0.0587303 -0.204773 0 0 0 
0.465963 0.0586821 -0.201804 0 0 0 
0.47194 0.0587397 -0.203409 0 0 0 
0.469279 0.0587109 -0.201289 0 0 0 
0.470273 0.0587186 -0.200739 0 0 0 
0.470278 0.0587165 -0.199767 0 0 0 
0.468499 0.0586965 -0.198042 0 0 0 
0.468383 0.0586932 -0.197025 0 0 0 
0.469373 0.0587009 -0.196471 0 0 0 
0.468338 0.0586883 -0.195071 0 0 0 
0.469205 0.0586948 -0.194464 0 0 0 
0.468172 0.0586823 -0.193071 0 0 0 
0.472564 0.0587239 -0.193908 0 0 0 
0.473634 0.0587324 -0.193372 0 0 0 
0.470597 0.0586999 -0.191167 0 0 0 
0.469683 0.0586887 -0.189832 0 0 0 
0.464287 0.0586328 -0.1867 0 0 0 
0.466107 0.0586488 -0.186477 0 0 0 
0.464013 0.0586258 -0.184689 0 0 0 
0.46686 0.058652 -0.184866 0 0 0 
0.470541 0.0586863 -0.185361 0 0 0 
0.460725 0.0585868 -0.180557 0 0 0 
0.464249 0.0586196 -0.180989 0 0 0 
0.460285 0.0585782 -0.178508 0 0 0 
0.461423 0.0585873 -0.178009 0 0 0 
0.463161 0.0586024 -0.177736 0 0 0 
0.466659 0.0586349 -0.178128 0 0 0 
0.462066 0.0585874 -0.175438 0 0 0 
0.459258 0.0585575 -0.173441 0 0 0 
0.45776 0.0585406 -0.171948 0 0 0 
0.454549 0.0585068 -0.169823 0 0 0 
0.455201 0.0585111 -0.169144 0 0 0 
0.456604 0.0585229 -0.168742 0 0 0 
0.45651 0.0585199 -0.167784 0 0 0 
0.456474 0.0585174 -0.166849 0 0 0 
0.456958 0.0585201 -0.166104 0 0 0 
0.456518 0.0585137 -0.165024 0 0 0 
0.457639 0.0585227 -0.164507 0 0 0 
0.456506 0.0585095 -0.163182 0 0 0 
0.455323 0.0584957 -0.161844 0 0 0 
0.454718 0.0584877 -0.160716 0 0 0 
0.459361 0.0585313 -0.161433 0 0 0 
0.458164 0.0585175 -0.160094 0 0 0 
0.457841 0.0585122 -0.159064 0 0 0 
0.456137 0.0584934 -0.15756 0 0 0 
0.457488 0.0585046 -0.157111 0 0 0 
0.457977 0.0585074 -0.156363 0 0 0 
0.456792 0.0584937 -0.155047 0 0 0 
0.456819 0.0584919 -0.154144 0 0 0 
0.455699 0.0584789 -0.152858 0 0 0 
0.455728 0.0584771 -0.15196 0 0 0 
0.456387 0.0584815 -0.151271 0 0 0 
0.456704 0.0584825 -0.150468 0 0 0 
0.458521 0.0584983 -0.150154 0 0 0 
0.45832 0.0584942 -0.149178 0 0 0 
0.458292 0.0584919 -0.14826 0 0 0 
0.45717 0.0584789 -0.146991 0 0 0 
0.459107 0.0584958 -0.146704 0 0 0 
0.459313 0.0584957 -0.14586 0 0 0 
0.460275 0.0585031 -0.145255 0 0 0 
0.458624 0.0584849 -0.143828 0 0 0 
0.461977 0.0585155 -0.143967 0 0 0 
0.459386 0.0584882 -0.142253 0 0 0 
0.45861 0.0584786 -0.141109 0 0 0 
0.459628 0.0584865 -0.140517 0 0 0 
0.458391 0.0584724 -0.139236 0 0 0 
0.459062 0.0584769 -0.138537 0 0 0 
0.459909 0.0584831 -0.137888 0 0 0 
0.461459 0.0584961 -0.137446 0 0 0 
0.461554 0.058495 -0.136569 0 0 0 
0.458515 0.0584635 -0.134771 0 0 0 
0.460173 0.0584775 -0.134356 0 0 0 
0.459516 0.0584691 -0.133265 0 0 0 
0.458804 0.0584602 -0.132161 0 0 0 
0.460638 0.0584759 -0.131788 0 0 0 
0.460504 0.0584726 -0.13085 0 0 0 
0.460951 0.0584749 -0.130076 0 0 0 
0.459947 0.0584632 -0.128896 0 0 0 
0.460104 0.0584627 -0.128043 0 0 0 
0.462007 0.058479 -0.127672 0 0 0 
0.463632 0.0584927 -0.127218 0 0 0 
0.461917 0.0584741 -0.12585 0 0 0 
0.461553 0.0584686 -0.124853 0 0 0 
0.463174 0.0584822 -0.124392 0 0 0 
0.46275 0.058476 -0.123379 0 0 0 
0.461802 0.0584649 -0.122231 0 0 0 
0.462139 0.0584661 -0.121424 0 0 0 
0.462069 0.0584634 -0.120511 0 0 0 
0.462933 0.0584697 -0.11984 0 0 0 
0.463625 0.0584743 -0.119122 0 0 0 
0.463555 0.0584716 -0.118208 0 0 0 
0.464308 0.0584769 -0.117503 0 0 0 
0.463183 0.058464 -0.116324 0 0 0 
0.464406 0.0584738 -0.115735 0 0 0 
0.464338 0.0584711 -0.114823 0 0 0 
0.464212 0.0584679 -0.113897 0 0 0 
0.465087 0.0584742 -0.113216 0 0 0 
0.465257 0.0584738 -0.112362 0 0 0 
0.465841 0.0584774 -0.111607 0 0 0 
0.465953 0.0584765 -0.110739 0 0 0 
0.466598 0.0584806 -0.109996 0 0 0 
0.466474 0.0584774 -0.109072 0 0 0 
0.467836 0.0584884 -0.108492 0 0 0 
0.466584 0.0584744 -0.107308 0 0 0 
0.465988 0.0584667 -0.106279 0 0 0 
0.46516 0.0584568 -0.105199 0 0 0 
0.467287 0.0584751 -0.104786 0 0 0 
0.466751 0.0584679 -0.103773 0 0 0 
0.46764 0.0584744 -0.103077 0 0 0 
0.468712 0.0584826 -0.102418 0 0 0 
0.46752 0.0584692 -0.101266 0 0 0 
0.467343 0.0584655 -0.100336 0 0 0 
0.467344 0.0584635 -0.0994455 0 0 0 
0.469612 0.0584831 -0.0990327 0 0 0 
0.468597 0.0584714 -0.0979269 0 0 0 
0.468123 0.0584649 -0.0969373 0 0 0 
0.468603 0.0584675 -0.0961454 0 0 0 
0.468369 0.0584632 -0.0952072 0 0 0 
0.468076 0.0584585 -0.0942586 0 0 0 
0.468022 0.0584559 -0.0933592 0 0 0 
0.469041 0.0584636 -0.0926721 0 0 0 
0.467916 0.0584509 -0.0915629 0 0 0 
0.468518 0.0584546 -0.0907925 0 0 0 
