0.441603,-0.0827028,0.103806,137
0.441539,-0.0826844,0.104648,140
0.441526,-0.0826824,0.105502,135
0.441978,-0.0828273,0.106475,138
0.441657,-0.0827278,0.107253,135
0.442422,-0.0829712,0.10831,135
0.442204,-0.0829045,0.109115,138
0.442764,-0.0830834,0.110124,134
0.443223,-0.0832301,0.111108,139
0.44384,-0.0834268,0.112137,140
0.443936,-0.0834593,0.11303,136
0.443771,-0.0834094,0.113854,132
0.444392,-0.0836072,0.114891,133
0.444175,-0.0835411,0.115702,134
0.444012,-0.0834916,0.116528,135
0.444845,-0.0837566,0.11763,135
0.444315,-0.0835914,0.118355,146
0.445098,-0.0838406,0.119448,141
0.445147,-0.083858,0.120336,141
0.444722,-0.0837261,0.121091,136
0.444614,-0.0836939,0.121935,140
0.444086,-0.0835294,0.122658,147
0.444661,-0.083713,0.123701,146
0.443767,-0.0834328,0.124316,144
0.445027,-0.0838325,0.125565,148
0.444447,-0.0836515,0.126271,146
0.444078,-0.0835373,0.12704,149
0.443868,-0.083473,0.127855,155
0.44303,-0.0832106,0.12848,152
0.442613,-0.083081,0.12923,153
0.442092,-0.0829187,0.129947,149
0.441677,-0.0827898,0.130696,150
0.442095,-0.0829237,0.131704,153
0.440281,-0.0823532,0.132012,153
0.440025,-0.0822743,0.132807,154
0.439821,-0.082212,0.133618,150
0.43972,-0.0821823,0.134462,146
0.438849,-0.0819091,0.135058,142
0.439521,-0.0821235,0.136152,141
0.43901,-0.0819642,0.136862,137
0.438603,-0.0818377,0.137606,138
0.438659,-0.0818574,0.138502,137
0.438612,-0.0818448,0.139364,139
0.439132,-0.0820111,0.140417,134
0.438264,-0.0817389,0.141005,137
0.438989,-0.0819703,0.142131,137
0.4372,-0.0814074,0.142402,131
0.437463,-0.0814923,0.143371,130
0.437367,-0.0814642,0.144218,131
0.437784,-0.081598,0.145243,128
0.437229,-0.0814247,0.145931,130
0.43739,-0.0814778,0.14687,134
0.437296,-0.0814502,0.147719,129
0.437408,-0.0814875,0.148642,127
0.437161,-0.0814117,0.149438,124
0.43753,-0.0815301,0.150456,124
0.437591,-0.0815516,0.151364,127
0.437396,-0.0814922,0.15218,119
0.436946,-0.0813521,0.152903,125
0.437367,-0.0814872,0.153945,127
0.436764,-0.0812987,0.154611,126
0.437237,-0.0814503,0.155675,121
0.437352,-0.0814887,0.156609,122
0.437005,-0.0813814,0.157369,125
0.437224,-0.0814525,0.158344,123
0.436314,-0.0811673,0.158889,119
0.436379,-0.0811898,0.159806,123
0.436035,-0.0810832,0.160565,119
0.436458,-0.0812192,0.161622,118
0.436268,-0.0811612,0.162442,114
0.436181,-0.0811357,0.163302,118
0.436042,-0.0810941,0.164143,119
0.436776,-0.0813281,0.16533,114
0.43633,-0.0811893,0.16605,119
0.437324,-0.0815054,0.167346,117
0.437341,-0.081513,0.168254,115
0.436175,-0.0811468,0.168684,110
0.435732,-0.0810087,0.169403,114
0.435954,-0.0810812,0.170395,117
0.43628,-0.0811863,0.17143,108
0.436453,-0.0812431,0.172404,110
0.437246,-0.0814956,0.173638,104
0.436904,-0.0813898,0.174402,99
0.437079,-0.0814472,0.175382,101
0.436841,-0.0813742,0.176189,103
0.436759,-0.0813503,0.177063,101
0.436418,-0.0812449,0.177827,103
0.436646,-0.081319,0.178834,98
0.436771,-0.0813606,0.179798,102
0.436638,-0.0813207,0.180652,102
0.436608,-0.0813136,0.181552,99
0.436683,-0.0813393,0.182497,96
0.436706,-0.0813487,0.183421,95
0.436058,-0.081146,0.18405,95
0.436857,-0.0814007,0.185319,94
0.436622,-0.0813286,0.186132,97
0.436491,-0.0812894,0.186991,97
0.436464,-0.0812831,0.187897,91
0.436541,-0.0813095,0.188851,97
0.437189,-0.0815165,0.190066,92
0.437111,-0.0814941,0.190953,93
0.438023,-0.0817846,0.192294,90
0.437894,-0.0817459,0.193161,97
0.438183,-0.0818394,0.194222,95
0.437115,-0.081504,0.194653,100
0.438711,-0.0820106,0.196326,152
0.438111,-0.0818232,0.196976,100
0.437983,-0.081785,0.197847,105
0.436759,-0.0814005,0.198198,110
0.426828,-0.0808679,-0.205464,10
0.422608,-0.0795095,-0.202451,13
0.427292,-0.0810222,-0.203869,11
0.4205,-0.0788343,-0.199606,13
0.424201,-0.0800296,-0.200526,16
0.419421,-0.0784904,-0.197286,16
0.421596,-0.0791939,-0.197452,19
0.423014,-0.0796533,-0.197242,10
0.421862,-0.079284,-0.195788,12
0.420238,-0.0787623,-0.194114,16
0.421019,-0.0790165,-0.193597,18
0.426839,-0.0808955,-0.195473,16
0.426456,-0.0807739,-0.194388,12
0.423966,-0.079973,-0.192313,16
0.42257,-0.079525,-0.190763,16
0.422197,-0.0794069,-0.189698,17
0.423083,-0.0796947,-0.189219,17
0.423,-0.0796702,-0.188291,14
0.423938,-0.0799747,-0.187832,19
0.427289,-0.0810576,-0.188477,21
0.424748,-0.0802401,-0.186421,22
0.425742,-0.0805628,-0.185981,18
0.427976,-0.0812856,-0.186098,17
0.425626,-0.0805296,-0.184145,21
0.425739,-0.0805684,-0.183305,19
0.427527,-0.0811471,-0.183211,21
0.42705,-0.0809952,-0.182107,21
0.430545,-0.0821248,-0.182757,21
0.43031,-0.0820512,-0.181756,19
0.432035,-0.0826097,-0.181613,22
0.430844,-0.0822276,-0.180196,20
0.431815,-0.082543,-0.179721,15
0.429379,-0.0817593,-0.177776,23
0.431446,-0.0824284,-0.177769,21
0.430862,-0.0822419,-0.176626,24
0.432842,-0.0828828,-0.176572,23
0.430998,-0.0822901,-0.174899,25
0.432726,-0.0828497,-0.174733,23
0.434774,-0.0835124,-0.174693,21
0.433319,-0.0830452,-0.173191,26
0.435065,-0.0836107,-0.173019,22
0.434269,-0.0833561,-0.171795,21
0.432217,-0.0826959,-0.170062,22
0.439294,-0.0849814,-0.17205,25
0.437913,-0.0845381,-0.170589,21
0.436184,-0.0839823,-0.168993,28
0.436819,-0.0841895,-0.168352,24
0.440048,-0.0852332,-0.168742,20
0.436297,-0.0840251,-0.166355,24
0.437087,-0.0842822,-0.165773,22
0.438914,-0.0848738,-0.165595,28
0.439246,-0.0849832,-0.164827,29
0.440777,-0.0854794,-0.164524,31
0.439549,-0.0850852,-0.163151,32
0.441815,-0.0858186,-0.163124,30
0.440791,-0.0854902,-0.161833,31
0.440553,-0.0854156,-0.160846,31
0.441778,-0.085813,-0.160412,28
0.442221,-0.0859581,-0.15968,35
0.44277,-0.0861375,-0.158987,29
0.443796,-0.0864707,-0.158469,32
0.443134,-0.0862592,-0.157326,33
0.446664,-0.0874006,-0.157722,31
0.444982,-0.0868598,-0.156205,31
0.445166,-0.0869214,-0.155372,34
0.447328,-0.0876212,-0.155251,33
0.447139,-0.0875623,-0.15428,37
0.445456,-0.0870214,-0.152778,30
0.444158,-0.0866044,-0.151421,33
0.44371,-0.086462,-0.150369,31
0.445165,-0.0869339,-0.149985,34
0.445246,-0.0869621,-0.149118,40
0.445912,-0.0871791,-0.148453,34
0.44642,-0.0873451,-0.147733,36
0.442958,-0.08623,-0.145655,37
0.442517,-0.0860895,-0.144618,38
0.441816,-0.0858653,-0.143495,39
0.443836,-0.0865197,-0.143289,37
0.441409,-0.0857381,-0.141592,40
0.442326,-0.0860364,-0.141014,39
0.441628,-0.0858131,-0.139902,40
0.440467,-0.0854405,-0.138642,40
0.439468,-0.08512,-0.13744,42
0.439193,-0.0850332,-0.136476,36
0.440154,-0.0853454,-0.13591,46
0.439364,-0.0850925,-0.134784,40
0.439244,-0.0850559,-0.133873,45
0.438254,-0.0847385,-0.13269,45
0.439932,-0.085282,-0.132345,50
0.436545,-0.0841907,-0.130422,49
0.436076,-0.0840412,-0.129413,49
0.436568,-0.0842021,-0.128701,49
0.435998,-0.0840203,-0.127665,49
0.434828,-0.0836444,-0.126451,50
0.43552,-0.0838698,-0.1258,53
0.434003,-0.0833822,-0.124489,48
0.434693,-0.083607,-0.123838,53
0.435888,-0.083995,-0.123334,52
0.435827,-0.0839773,-0.122458,58
0.434763,-0.0836355,-0.121292,59
0.435305,-0.0838126,-0.120594,58
0.434744,-0.0836336,-0.119579,57
0.434636,-0.0836006,-0.118696,54
0.434228,-0.0834709,-0.117729,47
0.435321,-0.083826,-0.117184,60
0.433864,-0.0833575,-0.115927,67
0.434107,-0.0834379,-0.115145,67
0.4349,-0.083696,-0.114513,62
0.434344,-0.0835186,-0.113513,64
0.434339,-0.0835189,-0.112663,64
0.434434,-0.0835515,-0.111841,64
0.436032,-0.0840696,-0.111418,66
0.435375,-0.0838595,-0.110396,60
0.435471,-0.0838927,-0.109573,64
0.434518,-0.0835869,-0.108479,69
0.435365,-0.0838623,-0.107851,72
0.435313,-0.0838474,-0.106992,74
0.435361,-0.083865,-0.106159,77
0.436011,-0.0840769,-0.105477,72
0.436713,-0.0843058,-0.104806,71
0.436109,-0.0841127,-0.103811,77
0.436109,-0.0841146,-0.102966,79
0.436611,-0.084279,-0.102244,83
0.436562,-0.0842649,-0.101387,84
0.436764,-0.0843323,-0.100591,83
0.437269,-0.0844974,-0.0998668,83
0.437877,-0.0846958,-0.0991652,85
0.437879,-0.0846985,-0.0983205,89
0.438236,-0.0848158,-0.0975583,89
0.437834,-0.0846881,-0.0966215,85
0.437838,-0.0846913,-0.0957788,88
0.438449,-0.0848908,-0.0950732,87
0.437847,-0.0846982,-0.0940952,88
0.43851,-0.0849143,-0.0933995,92
0.43887,-0.0850327,-0.0926355,92
0.438623,-0.0849548,-0.0917387,90
0.439441,-0.0852212,-0.0910725,88
0.439042,-0.0850942,-0.0901441,95
0.4391,-0.085115,-0.0893144,97
0.439514,-0.0852509,-0.0885593,96
0.439879,-0.0853707,-0.0877928,96
0.440449,-0.0855567,-0.0870673,102
0.440764,-0.0856608,-0.0862884,99
0.441081,-0.0857651,-0.0855089,100
0.44104,-0.0857539,-0.0846575,96
0.441768,-0.0859912,-0.0839582,97
0.441626,-0.0859472,-0.0830867,94
0.441177,-0.085804,-0.0821569,95
0.442318,-0.0861747,-0.0815332,95
0.442074,-0.0860978,-0.0806435,96
0.442241,-0.086154,-0.0798322,94
0.442409,-0.0862103,-0.0790208,94
0.442784,-0.0863334,-0.078247,90
0.443521,-0.0865737,-0.0775379,85
0.443433,-0.0865473,-0.0766783,94
0.443449,-0.0865545,-0.0758379,103
0.44326,-0.0864951,-0.0749618,99
0.444519,-0.086904,-0.0743379,99
0.44464,-0.0869453,-0.0735145,102
0.444866,-0.0870203,-0.0727087,101
0.44504,-0.0870787,-0.0718939,105
0.44532,-0.0871711,-0.0710961,107
0.445913,-0.0873648,-0.0703488,104
0.446456,-0.0875423,-0.0695915,112
0.446372,-0.0875172,-0.0687324,109
0.446551,-0.0875769,-0.0679154,118
0.446468,-0.0875522,-0.0670574,111
0.446805,-0.087663,-0.0662645,116
0.447773,-0.087978,-0.0655663,110
0.44806,-0.0880728,-0.0647628,116
0.447979,-0.0880486,-0.0639042,121
0.448742,-0.0882974,-0.0631692,124
0.448293,-0.088154,-0.0622573,123
0.449164,-0.0884377,-0.0615346,115
0.448609,-0.0882603,-0.0606096,117
0.449589,-0.088579,-0.0598985,116
0.450094,-0.0887445,-0.0591195,122
0.449592,-0.0885841,-0.0582039,119
0.450205,-0.0887842,-0.0574377,120
0.44965,-0.088607,-0.0565178,121
0.449627,-0.0886016,-0.0556683,113
0.449817,-0.088665,-0.0548461,119
0.45054,-0.0889006,-0.0540894,122
0.449987,-0.0887239,-0.0531746,132
0.451458,-0.0892014,-0.0525051,129
0.450691,-0.0889555,-0.051566,127
0.450512,-0.0888996,-0.0506984,126
0.450493,-0.0888956,-0.04985,128
0.449785,-0.0886686,-0.0489247,123
0.450404,-0.0888709,-0.0481488,125
0.450653,-0.0889534,-0.0473306,129
0.450478,-0.0888986,-0.0464665,126
0.450675,-0.0889643,-0.0456422,127
0.449757,-0.0886696,-0.0447033,136
0.449214,-0.088496,-0.0438058,127
0.449306,-0.0885278,-0.0429733,131
0.44924,-0.0885085,-0.0421254,129
0.448964,-0.0884211,-0.0412581,135
0.448636,-0.0883171,-0.0403873,138
0.448362,-0.0882304,-0.0395228,138
0.448352,-0.088229,-0.0386831,140
0.447502,-0.0879563,-0.0377708,141
0.447441,-0.0879384,-0.0369289,137
0.447694,-0.0880224,-0.0361135,142
0.445704,-0.0873807,-0.0351158,145
0.444816,-0.0870955,-0.0342131,145
0.444913,-0.0871289,-0.0333898,138
0.444649,-0.0870454,-0.0325393,142
0.443871,-0.0867956,-0.0316524,146
0.443198,-0.0865801,-0.0307762,144
0.443554,-0.0866971,-0.029974,144
0.444323,-0.0869477,-0.0291982,143
0.443445,-0.0866659,-0.0283122,146
0.442982,-0.0865179,-0.027456,149
0.442827,-0.0864697,-0.0266206,147
0.442621,-0.0864053,-0.0257831,149
0.442213,-0.086275,-0.0249347,145
0.441856,-0.0861616,-0.024091,149
0.442163,-0.0862628,-0.0232843,154
0.441096,-0.0859196,-0.0224057,150
0.440288,-0.0856601,-0.0215442,154
0.440949,-0.085876,-0.020756,150
0.440092,-0.0856007,-0.0198959,148
0.44045,-0.0857184,-0.0190925,147
0.438993,-0.0852489,-0.0182118,155
0.438697,-0.0851551,-0.0173832,155
0.438352,-0.0850454,-0.016554,159
0.438058,-0.0849522,-0.0157281,154
0.437665,-0.0848271,-0.0149,156
0.436925,-0.0845897,-0.0140623,160
0.436437,-0.0844336,-0.0132352,154
0.436297,-0.0843901,-0.01242,158
0.435712,-0.0842028,-0.0115936,157
0.435425,-0.084112,-0.0107768,153
0.435584,-0.0841652,-0.00997114,156
0.435249,-0.0840589,-0.00915484,157
0.434375,-0.0837779,-0.00832987,156
0.434239,-0.083736,-0.0075206,152
0.43435,-0.0837738,-0.00671548,157
0.433579,-0.0835262,-0.00589877,156
0.433739,-0.08358,-0.0050951,152
0.433069,-0.0833651,-0.00428351,150
0.434013,-0.0836725,-0.00348561,152
0.433735,-0.0835843,-0.00267804,150
0.433702,-0.0835755,-0.00187229,151
0.43362,-0.0835511,-0.00106661,149
0.432807,-0.0832898,-0.000261916,144
0.433166,-0.0834079,0.000542975,146
0.43382,-0.0836214,0.00135069,147
0.433888,-0.0836453,0.00215702,146
0.433711,-0.08359,0.0029615,143
0.434074,-0.0837094,0.00377107,142
0.433899,-0.0836545,0.00457531,144
0.43392,-0.0836632,0.00538176,143
0.434186,-0.0837514,0.00619237,147
0.434356,-0.0838082,0.00700228,149
0.434428,-0.0838334,0.00781092,147
0.434845,-0.0839702,0.00862758,146
0.434623,-0.0839003,0.00943044,147
0.435534,-0.0841973,0.0102622,147
0.43556,-0.0842074,0.0110726,148
0.436031,-0.0843618,0.0118966,148
0.436702,-0.084581,0.012729,152
0.43653,-0.0845274,0.0135354,149
0.436409,-0.0844901,0.014343,148
0.436239,-0.0844369,0.0151484,147
0.436665,-0.0845767,0.015977,148
0.436496,-0.0845238,0.0167824,146
0.436327,-0.0844712,0.0175874,150
0.436904,-0.0846599,0.0184258,150
0.437683,-0.084914,0.0192763,150
0.437216,-0.0847648,0.0200681,149
0.439403,-0.0854746,0.0209949,146
0.437232,-0.0847737,0.0216975,144
0.437664,-0.0849157,0.022536,148
0.437798,-0.084961,0.0233591,149
0.438083,-0.0850552,0.0241919,151
0.438821,-0.085296,0.0250537,151
0.439411,-0.0854888,0.0259092,148
0.439397,-0.0854864,0.0267278,151
0.439687,-0.0855822,0.0275669,153
0.439171,-0.085417,0.0283516,151
0.439612,-0.085562,0.0292026,154
0.439854,-0.085642,0.0300407,155
0.439591,-0.0855589,0.0308423,152
0.440035,-0.0857048,0.0316974,154
0.439875,-0.0856546,0.0325067,153
0.440524,-0.0858667,0.033381,149
0.440972,-0.0860139,0.0342414,154
0.440965,-0.0860134,0.0350652,150
0.441976,-0.0863429,0.0359775,154
0.441205,-0.0860953,0.036736,153
0.440337,-0.085816,0.0374829,153
0.440433,-0.085849,0.0383158,155
0.441241,-0.0861126,0.0392167,154
0.440627,-0.0859158,0.0399838,155
0.441488,-0.0861966,0.0408938,157
0.440824,-0.0859834,0.0416544,153
0.441075,-0.086067,0.0425064,155
0.441991,-0.0863656,0.0434289,157
0.441939,-0.0863506,0.0442524,158
0.442194,-0.0864353,0.0451092,157
0.440716,-0.0859585,0.0457763,154
0.441276,-0.0861418,0.0466664,154
0.44235,-0.0864916,0.0476176,155
0.441636,-0.0862624,0.0483659,155
0.441384,-0.0861825,0.0491661,151
0.44042,-0.0858724,0.0498802,155
0.440119,-0.0857769,0.0506717,154
0.43987,-0.085698,0.0514687,156
0.439874,-0.0857015,0.052297,156
0.439778,-0.0856723,0.0531127,152
0.439632,-0.0856268,0.0539219,152
0.438427,-0.0852386,0.0545913,155
0.438988,-0.0854222,0.0554924,155
0.43839,-0.0852306,0.0562389,159
0.439457,-0.0855782,0.0572126,160
0.438809,-0.0853702,0.0579512,161
0.438264,-0.0851955,0.0587022,160
0.439332,-0.0855436,0.0596831,164
0.43995,-0.0857457,0.060603,166
0.438444,-0.0852599,0.0612124,158
0.439617,-0.0856418,0.0622166,162
0.439629,-0.0856476,0.06305,163
0.437825,-0.0850651,0.0636051,166
0.437335,-0.0849085,0.0643578,166
0.436798,-0.0847362,0.0651013,166
0.436461,-0.0846291,0.0658752,168
0.436026,-0.0844901,0.0666322,169
0.435791,-0.084416,0.0674206,168
0.434912,-0.084133,0.0681019,162
0.434481,-0.0839954,0.0688552,155
0.43534,-0.0842755,0.0698254,152
0.436053,-0.0845086,0.0707746,151
0.43617,-0.0845484,0.0716236,154
0.435191,-0.0842333,0.0722816,150
0.436105,-0.0845315,0.0732716,154
0.435028,-0.0841845,0.0739087,152
0.435993,-0.0844992,0.074912,147
0.435963,-0.0844913,0.0757373,146
0.435086,-0.0842092,0.0764061,147
0.435405,-0.0843145,0.0772957,145
0.436275,-0.0845982,0.0782911,146
0.435647,-0.0843969,0.0790043,149
0.436369,-0.0846327,0.079976,150
0.436342,-0.0846258,0.0808049,148
0.436415,-0.0846516,0.0816541,146
0.436088,-0.0845478,0.0824243,149
0.436213,-0.0845901,0.0832844,145
0.437241,-0.0849254,0.0843292,149
0.436764,-0.0847728,0.0850696,145
0.437042,-0.0848647,0.085965,153
0.436717,-0.0847613,0.0867359,141
0.437247,-0.0849351,0.0876865,150
0.437123,-0.0848971,0.0885006,144
0.437403,-0.0849899,0.0894014,146
0.437634,-0.0850666,0.0902931,143
0.438371,-0.0853077,0.0912974,142
0.437693,-0.0850899,0.091992,139
0.43727,-0.0849545,0.0927411,137
0.437856,-0.0851466,0.0937166,137
0.439156,-0.08557,0.0948572,138
0.439749,-0.0857643,0.0958415,137
0.439171,-0.0855787,0.0965577,139
0.440225,-0.0859227,0.0976532,138
0.440311,-0.0859525,0.0985254,139
0.439477,-0.0856841,0.0991802,139
0.440177,-0.085913,0.100199,141
0.440264,-0.0859433,0.101074,137
0.440865,-0.0861402,0.102075,136
0.44116,-0.0862377,0.103003,140
0.440837,-0.0861352,0.103781,140
0.44139,-0.0863166,0.104776,137
0.441533,-0.0863647,0.105671,141
0.441469,-0.0863461,0.106514,139
0.441974,-0.086512,0.107504,135
0.44217,-0.0865776,0.108416,136
0.442523,-0.0866939,0.109371,143
0.442773,-0.086777,0.1103,137
0.44344,-0.0869954,0.111342,137
0.442806,-0.086792,0.11204,139
0.443841,-0.0871295,0.113184,140
0.444147,-0.0872308,0.114136,141
0.44414,-0.0872306,0.115005,147
0.444186,-0.0872475,0.115888,143
0.444442,-0.0873326,0.116831,147
0.444646,-0.0874009,0.117761,141
0.444116,-0.0872312,0.118487,138
0.444059,-0.0872147,0.119344,145
0.443793,-0.0871305,0.120143,137
0.443789,-0.0871313,0.121016,141
0.443576,-0.0870644,0.121829,141
0.443416,-0.0870146,0.122658,139
0.443257,-0.086965,0.123487,140
0.444041,-0.0872212,0.124594,140
0.44362,-0.0870868,0.125347,146
0.443147,-0.0869357,0.126084,149
0.442416,-0.0867005,0.126741,149
0.442311,-0.0866686,0.127586,150
0.442467,-0.0867214,0.128511,159
0.442103,-0.0866053,0.129278,158
0.441687,-0.0864726,0.130028,160
0.440289,-0.0860211,0.130471,161
0.440497,-0.0860907,0.131412,155
0.439312,-0.0857083,0.131915,157
0.438902,-0.0855776,0.13266,145
0.438597,-0.0854805,0.133438,149
0.438291,-0.0853835,0.134215,145
0.438141,-0.0853367,0.135041,145
0.438144,-0.0853398,0.135918,143
0.437482,-0.0851273,0.136577,140
0.437895,-0.0852634,0.137589,138
0.437184,-0.0850346,0.13823,135
0.436831,-0.0849224,0.138989,137
0.436276,-0.0847443,0.139679,136
0.436027,-0.0846656,0.140471,130
0.436287,-0.084752,0.141435,129
0.436548,-0.0848386,0.142402,128
0.436503,-0.0848262,0.143265,134
0.436153,-0.0847149,0.144023,134
0.435855,-0.0846202,0.144799,135
0.435608,-0.0845423,0.145592,125
0.43587,-0.0846294,0.146564,130
0.436031,-0.0846837,0.147502,124
0.43548,-0.084507,0.148188,123
0.435744,-0.0845945,0.149164,122
0.435245,-0.0844346,0.149867,125
0.435661,-0.0845718,0.150901,128
0.436079,-0.0847095,0.151938,125
0.435173,-0.0844176,0.152491,137
0.435998,-0.0846876,0.153681,122
0.434839,-0.0843135,0.154138,123
0.435104,-0.0844017,0.155123,121
0.435116,-0.0844076,0.156014,120
0.43579,-0.0846286,0.157157,117
0.435548,-0.0845521,0.157955,116
0.436328,-0.0848072,0.159143,116
0.436393,-0.0848304,0.160061,119
0.435486,-0.0845384,0.160605,114
0.434787,-0.0843136,0.161226,111
0.434801,-0.0843203,0.162123,113
0.436606,-0.084908,0.163725,114
0.435086,-0.0844169,0.164022,111
0.434694,-0.0842917,0.164762,116
0.434709,-0.0842989,0.165663,113
0.434725,-0.0843062,0.166565,110
0.434691,-0.0842971,0.167448,111
0.435422,-0.0845367,0.168642,115
0.434368,-0.0841966,0.169112,119
0.434487,-0.0842374,0.17006,118
0.435271,-0.084494,0.171282,108
0.435187,-0.0844689,0.17215,106
0.435308,-0.0845103,0.173103,101
0.435122,-0.0844522,0.173929,96
0.434835,-0.084361,0.174712,93
0.435161,-0.0844692,0.175755,97
0.434465,-0.0842453,0.176365,100
0.434792,-0.0843536,0.177411,100
0.43512,-0.0844623,0.178459,98
0.43468,-0.0843216,0.179177,104
0.435112,-0.0844638,0.180273,100
0.434928,-0.0844064,0.181103,102
0.434848,-0.0843824,0.181979,97
0.434973,-0.0844252,0.182946,97
0.434585,-0.0843015,0.183687,97
0.435997,-0.0847621,0.185228,99
0.436021,-0.0847721,0.186155,95
0.435581,-0.0846314,0.186875,93
0.434167,-0.0841742,0.187155,91
0.434088,-0.084151,0.188035,96
0.43478,-0.0843778,0.189266,87
0.435372,-0.084572,0.190456,89
0.435243,-0.0845324,0.191317,85
0.435992,-0.0847779,0.192585,88
0.436382,-0.0849066,0.19369,92
0.436461,-0.0849346,0.194653,106
0.435504,-0.084626,0.195131,148
0.435842,-0.0847381,0.196217,96
0.435198,-0.084531,0.196839,103
0.434916,-0.0844417,0.197632,98
0.419164,-0.0818949,-0.201949,10
0.426436,-0.0843048,-0.204679,7
0.421641,-0.0827193,-0.201384,11
0.423207,-0.08324,-0.201257,8
0.419353,-0.0819658,-0.198456,13
0.422013,-0.0828488,-0.198865,10
0.424413,-0.0836457,-0.199136,11
0.42223,-0.0829249,-0.197172,20
0.420889,-0.0824831,-0.195625,13
0.430563,-0.0856888,-0.199387,14
0.422169,-0.0829114,-0.194451,13
0.424079,-0.0835459,-0.194466,14
0.421134,-0.0825726,-0.192169,15
0.426956,-0.0845032,-0.194029,18
0.424802,-0.0837918,-0.192112,22
0.4256,-0.0840583,-0.191588,13
0.42527,-0.083951,-0.190536,20
0.428397,-0.0849889,-0.191089,13
0.425248,-0.0839481,-0.188733,16
0.425459,-0.0840199,-0.187934,26
0.425473,-0.0840269,-0.187046,21
0.43035,-0.0856445,-0.188372,18
0.426781,-0.0844645,-0.185852,26
0.429627,-0.0854091,-0.186239,21
0.426713,-0.0844461,-0.184032,18
0.428958,-0.0851917,-0.18414,22
0.427831,-0.0848207,-0.182742,19
0.429687,-0.0854375,-0.182669,21
0.427468,-0.0847046,-0.180795,19
0.427386,-0.0846795,-0.179868,20
0.428988,-0.0852123,-0.179675,22
0.431505,-0.0860485,-0.179873,23
0.429071,-0.0852443,-0.177926,22
0.429936,-0.0855327,-0.177405,25
0.432564,-0.0864057,-0.177634,25
0.433899,-0.0868501,-0.177304,25
0.432397,-0.0863546,-0.175769,23
0.431107,-0.0859294,-0.174331,19
0.434003,-0.0868908,-0.17465,19
0.435653,-0.0874398,-0.17444,25
0.435671,-0.0874479,-0.173547,20
0.433652,-0.086781,-0.171816,23
0.435146,-0.0872782,-0.171534,25
0.432327,-0.0863464,-0.169488,27
0.435083,-0.0872615,-0.169716,24
0.434848,-0.0871858,-0.168726,26
0.435633,-0.0874481,-0.168147,27
0.436473,-0.0877284,-0.167588,26
0.437676,-0.0881293,-0.16717,26
0.438006,-0.0882408,-0.166403,17
0.4371,-0.0879427,-0.16515,21
0.439447,-0.0887224,-0.165172,23
0.440666,-0.0891287,-0.164747,27
0.440688,-0.089138,-0.163855,30
0.440136,-0.0889573,-0.162743,30
0.439846,-0.0888633,-0.161734,30
0.441329,-0.089357,-0.161401,29
0.442191,-0.0896448,-0.160828,28
0.443479,-0.0900737,-0.160412,33
0.443608,-0.0901186,-0.159558,27
0.442261,-0.0896745,-0.158156,30
0.442128,-0.0896324,-0.157209,28
0.444103,-0.090289,-0.157038,28
0.443335,-0.0900366,-0.155857,34
0.446387,-0.0910504,-0.156068,39
0.443332,-0.0900402,-0.154061,38
0.442779,-0.089859,-0.152966,37
0.445131,-0.0906405,-0.152911,39
0.443043,-0.0899505,-0.151271,38
0.443966,-0.0902586,-0.150703,36
0.443571,-0.0901299,-0.14967,34
0.44281,-0.0898798,-0.148512,36
0.442524,-0.089787,-0.147521,40
0.443287,-0.0900422,-0.146895,34
0.441276,-0.0893776,-0.145316,34
0.44115,-0.0893378,-0.144387,37
0.438749,-0.0885442,-0.142691,36
0.440535,-0.0891383,-0.142412,40
0.440877,-0.0892539,-0.141644,45
0.44008,-0.0889916,-0.140498,47
0.439905,-0.0889357,-0.13956,41
0.439731,-0.0888801,-0.138625,45
0.437609,-0.0881785,-0.137056,40
0.438973,-0.0886331,-0.136625,42
0.436861,-0.0879347,-0.135072,45
0.436743,-0.0878976,-0.134164,44
0.43627,-0.087743,-0.133146,44
0.438035,-0.0883301,-0.132835,48
0.434324,-0.0871019,-0.130803,49
0.435568,-0.0875162,-0.130328,51
0.434798,-0.0872632,-0.129227,49
0.433583,-0.0868622,-0.127992,47
0.43407,-0.0870258,-0.127283,42
0.430929,-0.0859864,-0.125473,44
0.433247,-0.086757,-0.125319,50
0.43244,-0.0864915,-0.124222,54
0.432628,-0.0865558,-0.123424,56
0.433364,-0.0868018,-0.122788,60
0.432757,-0.0866026,-0.121757,52
0.433046,-0.0867004,-0.120988,60
0.432292,-0.0864526,-0.119919,55
0.433227,-0.0867645,-0.119337,54
0.431338,-0.08614,-0.117948,50
0.434407,-0.08716,-0.117968,51
0.433153,-0.0867463,-0.116764,57
0.433196,-0.0867625,-0.115927,56
0.4321,-0.0864009,-0.114775,59
0.432886,-0.0866636,-0.114145,65
0.432484,-0.0865323,-0.113189,64
0.433322,-0.0868121,-0.112569,62
0.433317,-0.0868126,-0.111721,65
0.432421,-0.0865174,-0.110637,69
0.433458,-0.0868632,-0.110067,74
0.433355,-0.0868312,-0.109195,64
0.433302,-0.0868157,-0.108337,70
0.433746,-0.0869651,-0.107607,73
0.433496,-0.086884,-0.106699,74
0.434489,-0.0872155,-0.106108,75
0.433791,-0.0869859,-0.105088,79
0.43384,-0.0870041,-0.104257,84
0.434237,-0.0871379,-0.103514,83
0.434536,-0.087239,-0.102745,82
0.434935,-0.0873735,-0.102,85
0.435036,-0.0874089,-0.101181,79
0.434489,-0.0872294,-0.100208,86
0.434889,-0.0873642,-0.0994622,78
0.435441,-0.0875491,-0.0987511,79
0.435393,-0.0875354,-0.0978983,83
0.435496,-0.0875716,-0.0970812,86
0.4359,-0.0877076,-0.0963332,90
0.435904,-0.0877109,-0.095493,89
0.436209,-0.0878141,-0.0947213,88
0.436013,-0.0877512,-0.0938369,88
0.436269,-0.0878381,-0.0930539,86
0.436325,-0.0878587,-0.0922264,92
0.436432,-0.087896,-0.0914102,93
0.437092,-0.0881169,-0.0907132,97
0.43725,-0.0881714,-0.089907,96
0.437408,-0.088226,-0.0891008,91
0.437668,-0.0883143,-0.0883157,94
0.438485,-0.0885873,-0.0876455,96
0.43814,-0.0884749,-0.0867337,100
0.438858,-0.0887151,-0.0860401,98
0.438463,-0.088586,-0.0851198,102
0.439538,-0.0889448,-0.0844949,97
0.440058,-0.0891193,-0.0837564,94
0.439408,-0.0889056,-0.0827876,91
0.440081,-0.089131,-0.0820779,93
0.439992,-0.0891033,-0.0812199,95
0.439649,-0.0889915,-0.0803146,95
0.44063,-0.0893191,-0.0796595,94
0.440695,-0.0893427,-0.0788309,94
0.441477,-0.089604,-0.078134,97
0.442056,-0.0897983,-0.0773977,102
0.4412,-0.0895162,-0.0764016,100
0.441677,-0.0896765,-0.0756462,99
0.441847,-0.089735,-0.0748354,98
0.442121,-0.0898279,-0.0740423,96
0.44255,-0.0899722,-0.0732752,101
0.443444,-0.0902711,-0.0725858,100
0.443566,-0.0903136,-0.0717636,101
0.444258,-0.0905453,-0.0710359,105
0.444537,-0.0906399,-0.0702381,104
0.444817,-0.0907349,-0.0694398,109
0.445358,-0.0909165,-0.0686825,112
0.445328,-0.0909083,-0.0678331,109
0.445662,-0.0910214,-0.0670412,117
0.446312,-0.0912389,-0.0662967,117
0.446492,-0.0913007,-0.0654787,118
0.446725,-0.0913801,-0.0646684,117
0.446801,-0.0914075,-0.0638343,115
0.446983,-0.0914699,-0.0630157,117
0.44659,-0.0913412,-0.0621137,113
0.446982,-0.0914736,-0.0613254,112
0.447219,-0.0915541,-0.0605139,116
0.447929,-0.0917919,-0.0597673,119
0.448642,-0.0920308,-0.0590186,113
0.44846,-0.0919721,-0.0581472,116
0.448858,-0.0921064,-0.0573537,120
0.449629,-0.0923644,-0.0566074,125
0.449765,-0.0924117,-0.055777,126
0.449584,-0.0923534,-0.0549063,122
0.450625,-0.0927012,-0.0541885,121
0.449912,-0.0924665,-0.0532524,120
0.449627,-0.0923737,-0.0523707,120
0.449978,-0.0924924,-0.051566,120
0.450331,-0.0926115,-0.0507602,113
0.450738,-0.0927487,-0.0499596,127
0.450986,-0.0928332,-0.0491397,120
0.450596,-0.0927055,-0.0482486,126
0.450153,-0.0925606,-0.0473536,125
0.450296,-0.0926101,-0.046523,128
0.45044,-0.0926599,-0.0456922,128
0.450372,-0.0926392,-0.0448393,133
0.450092,-0.0925482,-0.0439656,127
0.450237,-0.0925986,-0.0431353,130
0.449906,-0.0924905,-0.0422584,128
0.450052,-0.0925412,-0.0414284,132
0.450147,-0.0925745,-0.0405932,135
0.449658,-0.0924143,-0.0397049,142
0.449753,-0.0924479,-0.0388706,140
0.449532,-0.0923763,-0.0380086,138
0.449364,-0.0923225,-0.0371522,139
0.44767,-0.0917619,-0.03617,135
0.447557,-0.0917265,-0.0353228,136
0.446974,-0.0915348,-0.034439,137
0.44702,-0.091552,-0.0336063,137
0.446544,-0.0913959,-0.0327343,144
0.445394,-0.091016,-0.0318149,142
0.444923,-0.0908616,-0.0309487,146
0.444712,-0.0907935,-0.0301024,145
0.444038,-0.0905715,-0.029226,142
0.443675,-0.0904529,-0.0283727,145
0.443108,-0.0902665,-0.027508,146
0.443929,-0.0905411,-0.0267311,146
0.442338,-0.0900146,-0.0258074,147
0.442133,-0.0899486,-0.02497,146
0.442031,-0.0899168,-0.0241392,149
0.441523,-0.0897498,-0.0232871,153
0.441168,-0.089634,-0.0224451,147
0.441171,-0.0896367,-0.0216223,150
0.44092,-0.0895553,-0.0207875,151
0.440619,-0.0894573,-0.0199516,153
0.439511,-0.0890912,-0.0190814,145
0.439667,-0.089145,-0.0182688,148
0.439571,-0.0891152,-0.0174455,154
0.43797,-0.0885852,-0.0165654,153
0.437527,-0.0884398,-0.0157335,150
0.437484,-0.0884275,-0.014917,153
0.437342,-0.0883822,-0.0140976,155
0.4372,-0.0883371,-0.0132788,156
0.436761,-0.0881931,-0.0124523,161
0.435926,-0.0879178,-0.011617,154
0.43554,-0.0877915,-0.0107961,156
0.435304,-0.0877148,-0.00998001,159
0.436602,-0.0881482,-0.00919645,159
0.434538,-0.0874641,-0.00834537,154
0.434353,-0.0874047,-0.00753364,156
0.434022,-0.0872966,-0.00672052,151
0.433741,-0.0872051,-0.00590936,152
0.433559,-0.0871464,-0.00510037,150
0.433524,-0.0871368,-0.00429342,147
0.433196,-0.0870299,-0.00348461,145
0.433065,-0.0869882,-0.00267804,147
0.433521,-0.0871416,-0.00187375,148
0.433537,-0.087149,-0.00106722,148
0.433603,-0.0871729,-0.000260581,145
0.433572,-0.0871644,0.000546048,149
0.43315,-0.087026,0.00135069,144
0.433756,-0.0872293,0.00216065,141
0.434758,-0.0875642,0.00297645,144
0.433306,-0.0870835,0.00377003,145
0.433914,-0.0872875,0.00458395,145
0.433886,-0.0872801,0.00539102,148
0.435532,-0.0878292,0.00622566,152
0.434666,-0.0875434,0.00702041,147
0.435281,-0.0877496,0.00784204,146
0.435898,-0.0879565,0.00866617,146
0.435625,-0.0878678,0.00947114,150
0.435501,-0.0878286,0.010279,151
0.43523,-0.0877404,0.0110824,152
0.435404,-0.0878001,0.0118981,152
0.435529,-0.0878437,0.0127131,146
0.435161,-0.0877232,0.0135118,150
0.435633,-0.0878821,0.0143394,150
0.436256,-0.088091,0.0151747,153
0.436285,-0.0881025,0.0159888,148
0.436215,-0.0880812,0.016799,151
0.436443,-0.0881591,0.0176221,151
0.436722,-0.0882538,0.0184486,151
0.437451,-0.0884981,0.0192977,149
0.437533,-0.0885272,0.0201176,151
0.436818,-0.0882913,0.0208968,150
0.436701,-0.0882546,0.0217055,147
0.436934,-0.0883339,0.0225332,150
0.437867,-0.0886459,0.0234022,148
0.438804,-0.0889596,0.0242753,148
0.438489,-0.0888565,0.0250753,155
0.438675,-0.0889206,0.025906,151
0.439115,-0.0890685,0.0267541,151
0.438951,-0.089016,0.0275635,151
0.438737,-0.0889471,0.028369,152
0.438374,-0.0888282,0.0291632,149
0.438765,-0.0889601,0.0300113,146
0.439308,-0.0891427,0.0308726,152
0.439399,-0.0891749,0.0317013,155
0.439188,-0.0891067,0.0325067,154
0.439432,-0.0891896,0.0333483,161
0.438919,-0.0890212,0.0341283,153
0.438711,-0.0889538,0.0349324,151
0.438352,-0.0888364,0.0357228,150
0.438747,-0.0889699,0.036579,157
0.439144,-0.0891039,0.0374371,159
0.43924,-0.0891376,0.038269,154
0.438883,-0.0890207,0.0390586,151
0.43913,-0.089105,0.0399056,152
0.439228,-0.0891394,0.040739,152
0.438821,-0.0890062,0.0415223,151
0.438718,-0.0889739,0.0423354,155
0.438968,-0.089059,0.0431852,153
0.438615,-0.0889433,0.043972,156
0.438966,-0.0890623,0.0448341,154
0.438061,-0.0887631,0.0455591,154
0.438212,-0.0888152,0.0463995,154
0.438514,-0.0889178,0.0472582,155
0.438667,-0.0889705,0.0481008,157
0.437915,-0.0887224,0.0488374,154
0.437416,-0.0885585,0.0496017,155
0.438373,-0.0888786,0.0505423,158
0.438025,-0.0887648,0.0513248,158
0.437477,-0.0885847,0.0520812,157
0.436532,-0.0882723,0.0527847,155
0.43819,-0.0888257,0.0538236,153
0.437243,-0.0885126,0.0545251,154
0.438303,-0.0888673,0.0554924,153
0.437056,-0.0884544,0.0561503,155
0.437214,-0.0885088,0.0569975,159
0.437272,-0.0885301,0.0578317,155
0.437983,-0.0887686,0.0587592,162
0.436889,-0.0884067,0.0594301,160
0.4362,-0.0881793,0.0601559,159
0.436559,-0.0883008,0.0610345,163
0.43652,-0.0882897,0.0618552,166
0.437131,-0.0884951,0.0627749,168
0.435894,-0.0880856,0.0634129,172
0.435906,-0.0880916,0.0642412,168
0.43567,-0.088015,0.0650306,168
0.435236,-0.0878724,0.0657878,162
0.433765,-0.0873849,0.0663759,166
0.433433,-0.0872767,0.0671453,156
0.433448,-0.0872834,0.067971,157
0.435045,-0.0878169,0.0690628,153
0.434863,-0.0877581,0.0698591,152
0.433346,-0.0872554,0.070426,151
0.433313,-0.0872465,0.0712451,152
0.43333,-0.087254,0.0720732,146
0.433446,-0.0872946,0.0729194,150
0.434007,-0.0874833,0.0738465,152
0.435067,-0.087838,0.0748668,147
0.434095,-0.0875163,0.0755185,144
0.435306,-0.0879213,0.0765722,150
0.434283,-0.087583,0.0772119,151
0.4348,-0.087757,0.07814,149
0.43507,-0.0878489,0.0790234,145
0.435641,-0.0880407,0.0799663,150
0.435963,-0.08815,0.0808636,146
0.435039,-0.0878443,0.0815161,147
0.43611,-0.088203,0.082564,148
0.435885,-0.0881298,0.0833549,147
0.43616,-0.0882234,0.0842475,146
0.436085,-0.0882005,0.0850696,149
0.436211,-0.0882445,0.0859337,144
0.436238,-0.0882553,0.0867779,142
0.436115,-0.0882163,0.0875909,140
0.436795,-0.0884446,0.0885757,139
0.436823,-0.0884561,0.0894231,138
0.437003,-0.0885179,0.0903041,142
0.437335,-0.0886303,0.0912197,136
0.437163,-0.0885752,0.0920255,140
0.437799,-0.088789,0.093012,138
0.437224,-0.0885996,0.093728,136
0.438166,-0.0889151,0.0947879,139
0.439011,-0.0891984,0.0958298,140
0.438993,-0.0891946,0.0966756,137
0.439537,-0.0893775,0.0976532,145
0.439673,-0.089425,0.0985375,144
0.440015,-0.0895408,0.0994717,143
0.440205,-0.0896058,0.100371,142
0.439933,-0.0895176,0.101161,136
0.439868,-0.0894977,0.102,138
0.440109,-0.0895803,0.102915,139
0.440661,-0.0897658,0.103908,138
0.440545,-0.0897292,0.104737,136
0.440789,-0.0898127,0.105658,137
0.441809,-0.0901543,0.106777,137
0.441849,-0.0901698,0.107649,136
0.441477,-0.0900477,0.108416,137
0.441932,-0.0902013,0.109398,138
0.442337,-0.0903381,0.110368,138
0.442224,-0.0903025,0.111204,141
0.443151,-0.0906133,0.112318,143
0.442934,-0.0905433,0.113128,139
0.442927,-0.0905428,0.113995,142
0.443024,-0.0905771,0.114891,145
0.443643,-0.0907856,0.115931,145
0.442958,-0.0905596,0.116614,144
0.442744,-0.0904903,0.117426,141
0.442947,-0.09056,0.118355,142
0.442786,-0.0905084,0.119182,144
0.443043,-0.0905959,0.120128,145
0.443195,-0.0906489,0.121046,140
0.442774,-0.0905107,0.121799,144
0.442094,-0.0902863,0.122476,138
0.441883,-0.0902182,0.123289,143
0.44235,-0.0903755,0.124301,142
0.442974,-0.0905856,0.125362,145
0.441618,-0.0901361,0.125834,143
0.441877,-0.0902245,0.126788,148
0.441461,-0.0900879,0.127539,146
0.441565,-0.0901246,0.128448,149
0.441253,-0.090023,0.12923,150
0.440891,-0.0899044,0.129995,157
0.440581,-0.0898033,0.130777,161
0.439807,-0.0895476,0.131412,157
0.439448,-0.08943,0.132175,154
0.438884,-0.0892443,0.132872,154
0.439246,-0.0893671,0.133865,154
0.437863,-0.0889084,0.134297,150
0.437661,-0.0888433,0.135107,150
0.437562,-0.0888124,0.135951,151
0.437106,-0.0886625,0.136678,140
0.437263,-0.0887169,0.137606,140
0.435588,-0.088161,0.137926,133
0.435238,-0.0880464,0.138683,133
0.435749,-0.0882189,0.13973,132
0.435298,-0.0880707,0.140454,133
0.435101,-0.0880071,0.141262,128
0.434702,-0.0878762,0.142002,134
0.434961,-0.0879646,0.142968,130
0.435119,-0.0880195,0.1439,127
0.434519,-0.0878216,0.144569,126
0.434577,-0.0878429,0.145468,126
0.434079,-0.0876792,0.146171,124
0.433986,-0.0876502,0.147016,130
0.434651,-0.087874,0.148133,126
0.434508,-0.0878284,0.148963,127
0.434416,-0.0877998,0.149812,126
0.434679,-0.0878894,0.15079,127
0.433677,-0.0875578,0.151307,129
0.433435,-0.0874792,0.1521,128
0.433849,-0.0876193,0.153136,130
0.433254,-0.0874231,0.153799,133
0.433669,-0.0875634,0.154838,126
0.433478,-0.087502,0.155652,126
0.433591,-0.0875417,0.15658,123
0.4333,-0.0874469,0.157357,120
0.434325,-0.0877905,0.158636,114
0.433426,-0.0874932,0.15918,123
0.433237,-0.0874323,0.159996,115
0.433453,-0.0875063,0.160969,122
0.433568,-0.0875468,0.161905,120
0.433077,-0.0873852,0.162603,118
0.433041,-0.0873753,0.16348,118
0.433359,-0.0874835,0.164499,117
0.433425,-0.0875076,0.165419,119
0.432935,-0.0873463,0.166117,121
0.433508,-0.0875394,0.167243,115
0.433119,-0.0874119,0.167981,119
0.433795,-0.0876393,0.169154,120
0.433051,-0.0873936,0.169747,112
0.43317,-0.0874353,0.170694,106
0.433441,-0.0875279,0.171706,112
0.435091,-0.08808,0.173295,100
0.433173,-0.0874429,0.173395,106
0.434669,-0.0879437,0.174928,104
0.432856,-0.0873414,0.175065,100
0.433587,-0.0875871,0.176279,100
0.433708,-0.0876299,0.177236,98
0.433474,-0.0875539,0.178041,97
0.433393,-0.087529,0.178913,103
0.433924,-0.0877081,0.180051,96
0.432825,-0.0873439,0.18048,97
0.432897,-0.0873702,0.181419,95
0.433122,-0.0874474,0.182428,93
0.433094,-0.08744,0.183325,89
0.434445,-0.0878926,0.184838,93
0.433598,-0.0876126,0.185374,99
0.432806,-0.0873505,0.185931,97
0.432676,-0.0873096,0.186786,95
0.432547,-0.0872688,0.187641,98
0.433592,-0.0876191,0.189032,97
0.433361,-0.0875444,0.189844,89
0.43313,-0.0874697,0.190656,89
0.43336,-0.0875485,0.19168,92
0.43262,-0.0873038,0.192256,85
0.432136,-0.0871447,0.192948,89
0.432927,-0.0874106,0.194239,138
0.432902,-0.0874046,0.195149,90
0.432368,-0.0872285,0.195818,95
0.432395,-0.0872397,0.196753,90
0.420331,-0.0858039,-0.202865,11
0.67496,-0.172344,-0.329803,0
0.4238,-0.0869872,-0.202789,14
0.425432,-0.0875442,-0.202691,12
0.41841,-0.0851596,-0.198315,19
0.425995,-0.0877397,-0.201147,19
0.423498,-0.0868933,-0.199016,12
0.4239,-0.0870321,-0.198309,13
0.422013,-0.0863928,-0.19649,19
0.425149,-0.0874608,-0.197105,11
0.423837,-0.087017,-0.195571,13
0.425368,-0.0875398,-0.195402,19
0.424008,-0.0870794,-0.193852,21
0.42628,-0.0878538,-0.194029,23
0.423935,-0.0870591,-0.19202,16
0.42789,-0.0884057,-0.192979,12
0.425333,-0.0875384,-0.190879,16
0.428363,-0.0885708,-0.19139,15
0.429926,-0.0891043,-0.191209,15
0.424541,-0.0872757,-0.187822,14
0.425192,-0.0874991,-0.187226,13
0.428516,-0.0886313,-0.187847,19
0.423854,-0.0870487,-0.18483,18
0.424406,-0.0872382,-0.184189,23
0.428509,-0.0886354,-0.185143,21
0.42768,-0.0883557,-0.183874,19
0.429586,-0.0890058,-0.183827,23
0.428953,-0.0887927,-0.182647,25
0.432028,-0.0898406,-0.183106,21
0.431892,-0.0897964,-0.182143,23
0.431202,-0.0895639,-0.18094,19
0.431218,-0.0895715,-0.180048,21
0.429333,-0.0889326,-0.178334,24
0.430449,-0.0893141,-0.17792,16
0.433695,-0.0904201,-0.178414,22
0.432596,-0.0900486,-0.177045,21
0.430852,-0.0894576,-0.175407,20
0.435429,-0.0910164,-0.176444,17
0.429789,-0.0891004,-0.173175,24
0.434392,-0.0906678,-0.174206,18
0.432383,-0.0899868,-0.172473,24
0.433261,-0.0902875,-0.171941,27
0.434855,-0.0908317,-0.171701,23
0.437388,-0.0916953,-0.171839,25
0.436326,-0.0913362,-0.170505,29
0.434556,-0.0907367,-0.16889,31
0.44004,-0.0926038,-0.170202,30
0.435821,-0.0911711,-0.167608,31
0.436765,-0.0914941,-0.167088,29
0.438229,-0.0919941,-0.166771,27
0.437836,-0.0918627,-0.165717,34
0.438322,-0.0920302,-0.16501,32
0.441942,-0.0932636,-0.165522,26
0.43852,-0.0921019,-0.163291,28
0.438957,-0.0922525,-0.162563,29
0.438151,-0.0919807,-0.161357,26
0.440092,-0.0926431,-0.161202,28
0.441998,-0.0932935,-0.161027,35
0.439618,-0.0924862,-0.159229,32
0.441572,-0.0931528,-0.159066,30
0.440394,-0.0927543,-0.157728,31
0.439276,-0.092376,-0.156418,32
0.439197,-0.0923513,-0.155497,34
0.441983,-0.0933013,-0.155626,31
0.440129,-0.0926727,-0.154054,30
0.44151,-0.0931447,-0.153662,30
0.4429,-0.0936197,-0.153269,35
0.441563,-0.0931668,-0.151894,31
0.441537,-0.0931602,-0.150992,33
0.439744,-0.0925521,-0.149465,35
0.439357,-0.0924229,-0.148442,31
0.440318,-0.0927518,-0.147892,36
0.440191,-0.0927106,-0.146961,34
0.441781,-0.0932538,-0.146624,39
0.439731,-0.0925584,-0.145031,36
0.437242,-0.0917137,-0.143298,35
0.437733,-0.0918827,-0.142587,35
0.438944,-0.0922971,-0.142117,38
0.440526,-0.0928371,-0.141766,38
0.435992,-0.0912966,-0.139375,34
0.437194,-0.0917078,-0.138899,44
0.436412,-0.0914437,-0.137768,42
0.435533,-0.0911465,-0.136609,47
0.43592,-0.0912805,-0.135865,43
0.43449,-0.090796,-0.134534,46
0.43523,-0.0910497,-0.133905,42
0.433957,-0.0906185,-0.132633,44
0.432642,-0.0901734,-0.131354,49
0.432877,-0.0902554,-0.130568,51
0.433313,-0.0904056,-0.129843,50
0.434702,-0.0908804,-0.129413,52
0.432539,-0.0901462,-0.127885,48
0.432079,-0.0899919,-0.126887,49
0.432216,-0.0900405,-0.126073,50
0.431412,-0.089769,-0.124975,50
0.430366,-0.0894151,-0.123808,52
0.429718,-0.0891966,-0.122765,61
0.430248,-0.089379,-0.122073,52
0.43019,-0.0893611,-0.121207,56
0.430476,-0.0894604,-0.120442,54
0.430222,-0.0893759,-0.11952,55
0.429137,-0.0890089,-0.118362,50
0.429765,-0.0892246,-0.117697,57
0.429758,-0.0892242,-0.11685,53
0.429702,-0.0892073,-0.11599,59
0.430137,-0.0893571,-0.115267,62
0.430768,-0.0895741,-0.114598,62
0.43037,-0.0894406,-0.113644,64
0.430856,-0.0896079,-0.112933,70
0.431195,-0.0897254,-0.112182,61
0.43124,-0.0897426,-0.11135,61
0.431285,-0.08976,-0.110519,65
0.431527,-0.0898446,-0.10974,73
0.431327,-0.0897785,-0.108845,70
0.43162,-0.0898801,-0.108079,73
0.432951,-0.0903353,-0.107582,67
0.432158,-0.0900672,-0.106534,75
0.432502,-0.0901864,-0.10578,74
0.43181,-0.0899529,-0.104764,73
0.432105,-0.0900553,-0.103997,76
0.431957,-0.0900069,-0.103121,77
0.43245,-0.0901769,-0.102403,75
0.432057,-0.0900448,-0.101467,82
0.433441,-0.0905184,-0.100965,77
0.432701,-0.0902681,-0.0999459,77
0.432752,-0.0902876,-0.0991196,84
0.433398,-0.0905094,-0.098434,87
0.433153,-0.0904281,-0.0975377,87
0.434397,-0.0908536,-0.0969886,90
0.434052,-0.0907383,-0.0960694,86
0.433659,-0.0906065,-0.0951411,85
0.433565,-0.0905764,-0.0942823,87
0.433768,-0.0906476,-0.0934912,86
0.434121,-0.0907698,-0.0927329,86
0.434425,-0.0908753,-0.091963,88
0.434979,-0.091066,-0.0912468,91
0.435086,-0.0911042,-0.0904322,95
0.434944,-0.0910578,-0.0895645,96
0.43555,-0.0912663,-0.0888565,93
0.436409,-0.0915609,-0.0881996,93
0.436217,-0.0914976,-0.0873211,96
0.436176,-0.0914856,-0.0864749,98
0.436989,-0.0917643,-0.0858035,95
0.436798,-0.0917013,-0.0849266,100
0.43711,-0.0918095,-0.0841515,95
0.437675,-0.0920039,-0.0834257,95
0.437837,-0.0920613,-0.0826192,95
0.438354,-0.0922394,-0.0818812,96
0.43862,-0.0923318,-0.0810934,102
0.438481,-0.0922865,-0.080228,102
0.439508,-0.0926384,-0.079583,98
0.439522,-0.0926452,-0.0787457,95
0.439283,-0.0925656,-0.0778621,100
0.439146,-0.0925209,-0.0769986,103
0.439821,-0.0927531,-0.0762824,101
0.440703,-0.0930556,-0.0756007,97
0.441231,-0.0932373,-0.0748535,98
0.440431,-0.0929668,-0.0738733,103
0.441368,-0.093288,-0.0731958,108
0.44195,-0.0934883,-0.0724545,103
0.442586,-0.0937068,-0.0717203,102
0.442759,-0.0937679,-0.0709072,104
0.44345,-0.0940052,-0.0701787,105
0.443315,-0.0939613,-0.0693139,105
0.443749,-0.0941112,-0.0685412,111
0.444652,-0.0944207,-0.0678413,116
0.444155,-0.0942534,-0.0669195,113
0.445112,-0.0945816,-0.0662243,113
0.445135,-0.0945914,-0.0653835,115
0.445993,-0.0948858,-0.0646684,111
0.446488,-0.0950564,-0.0638964,109
0.445885,-0.094853,-0.0629621,111
0.446748,-0.0951489,-0.0622421,109
0.447036,-0.0952491,-0.0614373,109
0.447535,-0.0954212,-0.0606613,116
0.447878,-0.0955401,-0.059862,117
0.447485,-0.0954081,-0.0589612,119
0.447934,-0.0955632,-0.0581756,121
0.447542,-0.0954315,-0.057277,116
0.44794,-0.0955691,-0.0564834,116
0.448603,-0.095797,-0.0557226,117
0.448,-0.0955938,-0.0547994,113
0.449193,-0.0960024,-0.0541026,120
0.44949,-0.0961056,-0.0532914,119
0.449417,-0.0960826,-0.0524346,120
0.449715,-0.0961863,-0.0516226,116
0.449643,-0.0961636,-0.0507664,122
0.450155,-0.0963402,-0.0499779,124
0.450296,-0.0963904,-0.0491458,124
0.4498,-0.0962234,-0.0482427,121
0.450049,-0.0963102,-0.0474229,125
0.449767,-0.0962161,-0.0465457,127
0.450389,-0.0964301,-0.0457647,130
0.450214,-0.0963726,-0.0448995,126
0.4502,-0.0963697,-0.0440513,126
0.450399,-0.0964395,-0.0432246,126
0.450439,-0.0964551,-0.042382,130
0.449948,-0.0962898,-0.0414889,133
0.449671,-0.0961973,-0.0406179,134
0.449659,-0.0961955,-0.0397724,136
0.449014,-0.0959774,-0.0388706,136
0.449215,-0.096048,-0.0380455,139
0.449576,-0.0961731,-0.0372333,142
0.449408,-0.096118,-0.036376,139
0.449559,-0.0961714,-0.0355453,142
0.448706,-0.0958826,-0.0346346,138
0.448646,-0.0958643,-0.0337889,141
0.447379,-0.0954341,-0.0328524,138
0.446797,-0.095238,-0.0319715,143
0.446636,-0.095185,-0.0311231,149
0.446214,-0.0950433,-0.0302574,147
0.445275,-0.094725,-0.0293586,145
0.444547,-0.0944789,-0.0284774,147
0.444287,-0.0943921,-0.027629,145
0.443615,-0.0941651,-0.0267564,149
0.443511,-0.0941317,-0.0259205,147
0.442895,-0.0939235,-0.0250556,150
0.442281,-0.0937161,-0.0241933,153
0.442026,-0.0936313,-0.0233529,151
0.442283,-0.0937209,-0.0225401,143
0.443105,-0.094003,-0.0217547,154
0.442186,-0.0936916,-0.0208827,146
0.441119,-0.0933299,-0.0200076,147
0.440362,-0.0930737,-0.0191504,149
0.440366,-0.0930772,-0.0183283,154
0.440068,-0.0929774,-0.0174941,155
0.439014,-0.0926201,-0.0166324,152
0.43882,-0.0925556,-0.015806,153
0.43938,-0.0927487,-0.0150063,158
0.438282,-0.0923762,-0.0141509,153
0.437689,-0.092176,-0.0133152,149
0.436551,-0.09179,-0.0124664,152
0.436461,-0.0917612,-0.0116498,156
0.436371,-0.0917326,-0.0108336,158
0.435638,-0.0914844,-0.0100034,159
0.435996,-0.0916083,-0.00919849,158
0.434919,-0.0912432,-0.00836553,162
0.434931,-0.0912493,-0.00755496,157
0.434156,-0.0909869,-0.00673279,157
0.434022,-0.090943,-0.00592186,156
0.434085,-0.0909664,-0.00511361,153
0.43356,-0.0907892,-0.00429992,147
0.433281,-0.0906959,-0.00349,142
0.433688,-0.0908367,-0.00268457,144
0.433116,-0.0906437,-0.00187463,148
0.433231,-0.0906846,-0.00106763,147
0.433345,-0.0907257,-0.000260179,146
0.433755,-0.0908673,0.000548575,143
0.434461,-0.09111,0.00136037,142
0.43389,-0.0909172,0.0021663,145
0.433468,-0.0907753,0.00297131,142
0.433537,-0.0908007,0.00377995,141
0.434195,-0.0910272,0.00459634,140
0.434413,-0.0911034,0.00540892,142
0.434779,-0.0912303,0.00622485,147
0.434605,-0.0911726,0.00703224,144
0.434381,-0.0910984,0.00783801,151
0.435144,-0.0913605,0.00866506,153
0.434576,-0.0911687,0.00946274,149
0.434699,-0.0912127,0.0102764,146
0.434922,-0.0912904,0.0110935,151
0.435343,-0.0914359,0.0119175,150
0.434974,-0.0913121,0.0127178,147
0.434951,-0.0913063,0.0135286,148
0.435078,-0.0913513,0.0143448,153
0.435204,-0.0913965,0.0151615,152
0.434937,-0.0913072,0.0159631,146
0.435262,-0.0914201,0.0167887,151
0.435144,-0.0913817,0.0175961,150
0.435421,-0.0914783,0.0184213,151
0.436793,-0.091948,0.0193001,153
0.435979,-0.0916725,0.0200755,154
0.436012,-0.0916855,0.0208917,153
0.436989,-0.0920211,0.0217589,150
0.435731,-0.0915935,0.0225056,149
0.43631,-0.0917933,0.0233534,150
0.437642,-0.0922494,0.0242485,152
0.436331,-0.091804,0.0249862,154
0.435919,-0.0916657,0.0257761,155
0.43775,-0.0922922,0.0267114,157
0.438038,-0.0923923,0.02755,152
0.436726,-0.0919468,0.0282788,156
0.436565,-0.0918938,0.0290848,152
0.436454,-0.091858,0.0298941,151
0.436444,-0.0918563,0.0307106,153
0.437382,-0.0921782,0.0316005,152
0.436226,-0.0917857,0.0323285,150
0.436217,-0.0917847,0.0331452,156
0.437555,-0.0922434,0.0340742,157
0.437848,-0.0923453,0.0349196,156
0.437641,-0.0922764,0.0357228,153
0.437384,-0.0921908,0.036521,153
0.436978,-0.0920543,0.0373048,151
0.437073,-0.0920885,0.0381338,153
0.437218,-0.09214,0.0389683,153
0.436167,-0.0917831,0.0396875,153
0.436362,-0.0918518,0.0405261,154
0.436359,-0.0918526,0.0413458,154
0.435611,-0.0915992,0.042089,148
0.435956,-0.0917191,0.0429442,150
0.436203,-0.0918055,0.0437905,153
0.436501,-0.0919091,0.0446436,150
0.435904,-0.0917071,0.0453989,149
0.435705,-0.0916412,0.0461972,153
0.435656,-0.0916265,0.047012,148
0.435558,-0.091595,0.0478213,151
0.435609,-0.0916145,0.0486482,152
0.435562,-0.0916003,0.0494636,152
0.435813,-0.0916881,0.0503158,151
0.435221,-0.0914878,0.0510642,146
0.436319,-0.0918645,0.0520244,153
0.435279,-0.0915115,0.0527145,146
0.435185,-0.0914814,0.0535243,149
0.437084,-0.0921316,0.054598,154
0.435942,-0.0917438,0.0552707,150
0.435849,-0.0917141,0.0560823,154
0.437255,-0.092196,0.0571014,157
0.435715,-0.0916723,0.0577128,159
0.435923,-0.0917451,0.0585672,157
0.435584,-0.0916312,0.0593438,158
0.435394,-0.0915685,0.0601414,154
0.435454,-0.0915909,0.0609755,164
0.435017,-0.0914438,0.0617356,164
0.434979,-0.0914326,0.062555,167
0.435338,-0.0915572,0.0634359,170
0.434655,-0.0913261,0.0641559,171
0.433236,-0.0908433,0.0647569,165
0.43256,-0.0906147,0.0654719,157
0.432377,-0.0905542,0.0662644,155
0.431999,-0.090427,0.0670245,150
0.432552,-0.0906179,0.0679384,150
0.432715,-0.0906752,0.068789,147
0.43273,-0.0906824,0.0696157,150
0.432451,-0.0905891,0.0703922,148
0.432615,-0.090647,0.0712451,149
0.432435,-0.0905876,0.0720386,149
0.432698,-0.0906794,0.0729106,148
0.432814,-0.0907211,0.0737577,151
0.433227,-0.0908639,0.0746596,151
0.433246,-0.0908724,0.0754912,150
0.433858,-0.0910836,0.0764337,149
0.434027,-0.0911432,0.0772957,145
0.434346,-0.0912539,0.0781872,149
0.434417,-0.0912801,0.0790329,147
0.433497,-0.0909682,0.079687,146
0.433916,-0.091113,0.0806003,146
0.434982,-0.0914791,0.0816442,143
0.435205,-0.0915572,0.082524,144
0.435129,-0.0915335,0.0833448,146
0.435454,-0.0916462,0.0842475,141
0.435529,-0.091674,0.0851006,140
0.435555,-0.0916848,0.0859441,142
0.436082,-0.0918669,0.0868937,139
0.435959,-0.0918268,0.0877078,137
0.436388,-0.0919753,0.0886403,139
0.436366,-0.0919698,0.0894774,136
0.436344,-0.0919645,0.0903151,140
0.436977,-0.0921828,0.0912974,141
0.437058,-0.0922123,0.0921599,140
0.437644,-0.0924145,0.0931367,134
0.438639,-0.0927563,0.094209,137
0.438163,-0.0925958,0.0949498,143
0.438145,-0.0925916,0.0957947,136
0.43889,-0.0928481,0.0968175,139
0.438618,-0.0927573,0.0976055,139
0.438754,-0.0928058,0.0984893,138
0.438534,-0.0927327,0.0992893,138
0.438875,-0.0928512,0.100224,135
0.439626,-0.0931097,0.10126,141
