ply
format ascii 1.0
comment VCGLIB generated
element vertex 1344
property float x
property float y
property float z
property float nx
property float ny
property float nz
element face 0
property list uchar int vertex_indices
end_header
0.402136 -0.221695 0.14575 0 0 0 
0.402747 -0.221431 0.147027 0 0 0 
0.40456 -0.22064 0.14862 0 0 0 
0.402864 -0.221385 0.149302 0 0 0 
0.402881 -0.22138 0.15043 0 0 0 
0.402047 -0.221748 0.151332 0 0 0 
0.402322 -0.221631 0.152529 0 0 0 
0.402257 -0.221662 0.153636 0 0 0 
0.403218 -0.221244 0.155023 0 0 0 
0.40307 -0.221312 0.15611 0 0 0 
0.40241 -0.221603 0.157056 0 0 0 
0.402264 -0.22167 0.158143 0 0 0 
0.401013 -0.22222 0.158919 0 0 0 
0.401976 -0.221802 0.160318 0 0 0 
0.400727 -0.222351 0.16109 0 0 0 
0.40101 -0.22223 0.162299 0 0 0 
0.401635 -0.221959 0.163609 0 0 0 
0.400476 -0.222469 0.164401 0 0 0 
0.400422 -0.222495 0.165514 0 0 0 
0.400624 -0.22241 0.166704 0 0 0 
0.400233 -0.222584 0.167718 0 0 0 
0.400097 -0.222646 0.168809 0 0 0 
0.39861 -0.223299 0.16949 0 0 0 
0.39949 -0.222917 0.170888 0 0 0 
0.399781 -0.222792 0.172109 0 0 0 
0.399396 -0.222964 0.173123 0 0 0 
0.399604 -0.222876 0.174321 0 0 0 
0.399389 -0.222972 0.175389 0 0 0 
0.400279 -0.222586 0.176805 0 0 0 
0.397866 -0.223644 0.177176 0 0 0 
0.396983 -0.224033 0.178027 0 0 0 
0.396522 -0.224238 0.179011 0 0 0 
0.395979 -0.224478 0.179967 0 0 0 
0.395772 -0.224572 0.181032 0 0 0 
0.395148 -0.224847 0.18196 0 0 0 
0.394443 -0.225158 0.182859 0 0 0 
0.393741 -0.225468 0.183756 0 0 0 
0.393372 -0.225632 0.184764 0 0 0 
0.395838 -0.224557 0.186726 0 0 0 
0.393136 -0.225741 0.186946 0 0 0 
0.395519 -0.224702 0.188892 0 0 0 
0.3939 -0.225412 0.189474 0 0 0 
0.391631 -0.226408 0.189825 0 0 0 
0.3916 -0.226424 0.190945 0 0 0 
0.392065 -0.226224 0.19224 0 0 0 
0.392035 -0.226239 0.193364 0 0 0 
0.39854 -0.223397 0.196805 0 0 0 
0.390741 -0.226811 0.195174 0 0 0 
0.391455 -0.226501 0.196565 0 0 0 
0.392174 -0.22619 0.197961 0 0 0 
0.392148 -0.226204 0.199091 0 0 0 
0.392207 -0.226181 0.200252 0 0 0 
0.394097 -0.225357 0.202088 0 0 0 
0.39349 -0.225626 0.20301 0 0 0 
0.39053 -0.230653 -0.259779 0 0 0 
0.394445 -0.228971 -0.260602 0 0 0 
0.384573 -0.233221 -0.254302 0 0 0 
0.383109 -0.233857 -0.251181 0 0 0 
0.38218 -0.234259 -0.249527 0 0 0 
0.385887 -0.232668 -0.250225 0 0 0 
0.372566 -0.238403 -0.241174 0 0 0 
0.391114 -0.230431 -0.248087 0 0 0 
0.396648 -0.228053 -0.249633 0 0 0 
0.385915 -0.232673 -0.243142 0 0 0 
0.392522 -0.22984 -0.242819 0 0 0 
0.394051 -0.229188 -0.241175 0 0 0 
0.386788 -0.232315 -0.236506 0 0 0 
0.393311 -0.229512 -0.238441 0 0 0 
0.389445 -0.231178 -0.23542 0 0 0 
0.390909 -0.230551 -0.234934 0 0 0 
0.392213 -0.229993 -0.234367 0 0 0 
0.394871 -0.228853 -0.234429 0 0 0 
0.388672 -0.231522 -0.230358 0 0 0 
0.389967 -0.230968 -0.229786 0 0 0 
0.386326 -0.232536 -0.226936 0 0 0 
0.39501 -0.228805 -0.229754 0 0 0 
0.392383 -0.229937 -0.227373 0 0 0 
0.394789 -0.228905 -0.227291 0 0 0 
0.401069 -0.226208 -0.228949 0 0 0 
0.400526 -0.226444 -0.227512 0 0 0 
0.388566 -0.23159 -0.220972 0 0 0 
0.397823 -0.227612 -0.22393 0 0 0 
0.393163 -0.229619 -0.220685 0 0 0 
0.389741 -0.231094 -0.218006 0 0 0 
0.388982 -0.231423 -0.216512 0 0 0 
0.399868 -0.226745 -0.220101 0 0 0 
0.395853 -0.228474 -0.217177 0 0 0 
0.391322 -0.230425 -0.214049 0 0 0 
0.398017 -0.22755 -0.215763 0 0 0 
0.399874 -0.226754 -0.215382 0 0 0 
0.394021 -0.229273 -0.211716 0 0 0 
0.397965 -0.22758 -0.21222 0 0 0 
0.407188 -0.223618 -0.214928 0 0 0 
0.401349 -0.226131 -0.211294 0 0 0 
0.399878 -0.226767 -0.209504 0 0 0 
0.398756 -0.227252 -0.207867 0 0 0 
0.40208 -0.225826 -0.208066 0 0 0 
0.40693 -0.223743 -0.208878 0 0 0 
0.399486 -0.226947 -0.204659 0 0 0 
0.405418 -0.224399 -0.205896 0 0 0 
0.402462 -0.225673 -0.203524 0 0 0 
0.40228 -0.225754 -0.202279 0 0 0 
0.401326 -0.226167 -0.200728 0 0 0 
0.399015 -0.227163 -0.198644 0 0 0 
0.402169 -0.22581 -0.198725 0 0 0 
0.406754 -0.223842 -0.199355 0 0 0 
0.400956 -0.226337 -0.195918 0 0 0 
0.401208 -0.226232 -0.194852 0 0 0 
0.402834 -0.225536 -0.194316 0 0 0 
0.404556 -0.224798 -0.193811 0 0 0 
0.39958 -0.22694 -0.190746 0 0 0 
0.399409 -0.227017 -0.189525 0 0 0 
0.405849 -0.224251 -0.190797 0 0 0 
0.404375 -0.224888 -0.189077 0 0 0 
0.408731 -0.223018 -0.189535 0 0 0 
0.410316 -0.22234 -0.188949 0 0 0 
0.411999 -0.221619 -0.188394 0 0 0 
0.408382 -0.223177 -0.185893 0 0 0 
0.415308 -0.220203 -0.187244 0 0 0 
0.402496 -0.225712 -0.181428 0 0 0 
0.408918 -0.222955 -0.182582 0 0 0 
0.40989 -0.22254 -0.181762 0 0 0 
0.410954 -0.222086 -0.180971 0 0 0 
0.409726 -0.222616 -0.179368 0 0 0 
0.407893 -0.223407 -0.177559 0 0 0 
0.415339 -0.22021 -0.178994 0 0 0 
0.410015 -0.222501 -0.175973 0 0 0 
0.41446 -0.220593 -0.176339 0 0 0 
0.43389 -0.212571 -0.0493927 0 0 0 
0.432534 -0.213156 -0.0481102 0 0 0 
0.433341 -0.212812 -0.0470549 0 0 0 
0.433492 -0.21275 -0.0459308 0 0 0 
0.431956 -0.213412 -0.0446405 0 0 0 
0.433046 -0.212947 -0.0436098 0 0 0 
0.432638 -0.213125 -0.0424336 0 0 0 
0.432326 -0.213262 -0.0412682 0 0 0 
0.43239 -0.213237 -0.0401383 0 0 0 
0.432455 -0.213212 -0.0390085 0 0 0 
0.43196 -0.213427 -0.0378305 0 0 0 
0.432216 -0.21332 -0.0367178 0 0 0 
0.432941 -0.213012 -0.035643 0 0 0 
0.432075 -0.213386 -0.0344381 0 0 0 
0.431308 -0.213718 -0.0332446 0 0 0 
0.431009 -0.213849 -0.03209 0 0 0 
0.432671 -0.213139 -0.0310821 0 0 0 
0.43116 -0.21379 -0.0298392 0 0 0 
0.430865 -0.213919 -0.0286878 0 0 0 
0.431877 -0.213488 -0.0276264 0 0 0 
0.431119 -0.213816 -0.0264446 0 0 0 
0.430457 -0.214103 -0.0252722 0 0 0 
0.429983 -0.214309 -0.0241144 0 0 0 
0.42868 -0.214871 -0.022909 0 0 0 
0.430154 -0.214241 -0.0218695 0 0 0 
0.429593 -0.214485 -0.0207108 0 0 0 
0.428757 -0.214846 -0.0195398 0 0 0 
0.428847 -0.21481 -0.0184202 0 0 0 
0.42857 -0.214932 -0.0172821 0 0 0 
0.42765 -0.215329 -0.0161147 0 0 0 
0.427009 -0.215607 -0.0149639 0 0 0 
0.427196 -0.21553 -0.0138519 0 0 0 
0.427109 -0.21557 -0.0127279 0 0 0 
0.428219 -0.215096 -0.0116517 0 0 0 
0.427215 -0.21553 -0.0104918 0 0 0 
0.426217 -0.215961 -0.00933629 0 0 0 
0.430838 -0.213981 -0.00837289 0 0 0 
0.4256 -0.216231 -0.00708119 0 0 0 
0.426436 -0.215875 -0.00598919 0 0 0 
0.425903 -0.216106 -0.00485649 0 0 0 
0.42601 -0.216063 -0.00374219 0 0 0 
0.424388 -0.216761 -0.00258729 0 0 0 
0.425591 -0.216248 -0.00149919 0 0 0 
0.425247 -0.216399 -0.000376386 0 0 0 
0.424178 -0.21686 0.000757414 0 0 0 
0.423929 -0.21697 0.00187435 0 0 0 
0.424316 -0.216806 0.00298186 0 0 0 
0.422623 -0.217535 0.00411415 0 0 0 
0.42238 -0.217642 0.00522628 0 0 0 
0.423131 -0.217323 0.00633032 0 0 0 
0.422529 -0.217584 0.00744429 0 0 0 
0.42157 -0.217998 0.00855691 0 0 0 
0.421962 -0.217832 0.00966422 0 0 0 
0.421727 -0.217936 0.0107725 0 0 0 
0.421313 -0.218116 0.0118793 0 0 0 
0.422159 -0.217756 0.0129908 0 0 0 
0.419331 -0.218972 0.0140799 0 0 0 
0.419995 -0.21869 0.0151891 0 0 0 
0.419411 -0.218943 0.0162873 0 0 0 
0.418652 -0.219271 0.0173808 0 0 0 
0.419051 -0.219103 0.0184889 0 0 0 
0.41874 -0.219239 0.0195864 0 0 0 
0.418519 -0.219336 0.0206845 0 0 0 
0.419279 -0.219013 0.0218025 0 0 0 
0.418172 -0.219491 0.0228803 0 0 0 
0.416805 -0.220079 0.0239471 0 0 0 
0.416503 -0.220211 0.0250376 0 0 0 
0.417351 -0.219851 0.0261605 0 0 0 
0.417405 -0.21983 0.0272622 0 0 0 
0.418347 -0.219429 0.0283938 0 0 0 
0.413998 -0.221296 0.0293421 0 0 0 
0.413881 -0.22135 0.0304312 0 0 0 
0.414202 -0.221215 0.0315372 0 0 0 
0.414963 -0.220891 0.0326629 0 0 0 
0.413886 -0.221355 0.0337119 0 0 0 
0.413163 -0.221668 0.0347728 0 0 0 
0.412879 -0.221793 0.0358517 0 0 0 
0.412335 -0.222029 0.0369168 0 0 0 
0.411533 -0.222375 0.0379666 0 0 0 
0.412642 -0.221902 0.0391156 0 0 0 
0.410977 -0.222619 0.040115 0 0 0 
0.411306 -0.22248 0.0412228 0 0 0 
0.409737 -0.223156 0.0422188 0 0 0 
0.409121 -0.223423 0.0432675 0 0 0 
0.408508 -0.223688 0.044314 0 0 0 
0.408754 -0.223586 0.0454147 0 0 0 
0.408486 -0.223703 0.0464819 0 0 0 
0.407707 -0.224039 0.0475124 0 0 0 
0.406506 -0.224557 0.0485097 0 0 0 
0.4065 -0.224562 0.0495906 0 0 0 
0.40675 -0.224458 0.0506911 0 0 0 
0.405981 -0.22479 0.0517135 0 0 0 
0.405809 -0.224867 0.0527807 0 0 0 
0.406147 -0.224724 0.0538893 0 0 0 
0.405638 -0.224945 0.0549283 0 0 0 
0.404707 -0.225347 0.0559293 0 0 0 
0.407428 -0.224183 0.0572483 0 0 0 
0.404798 -0.225313 0.0580965 0 0 0 
0.404296 -0.225531 0.0591304 0 0 0 
0.404555 -0.225423 0.0602342 0 0 0 
0.404056 -0.225639 0.0612663 0 0 0 
0.403643 -0.225819 0.0623052 0 0 0 
0.401807 -0.226609 0.0632 0 0 0 
0.401734 -0.226643 0.064268 0 0 0 
0.401829 -0.226604 0.0653536 0 0 0 
0.400424 -0.227209 0.0662803 0 0 0 
0.400355 -0.227242 0.0673464 0 0 0 
0.399042 -0.227807 0.0682752 0 0 0 
0.398563 -0.228015 0.0692927 0 0 0 
0.397837 -0.228329 0.0702804 0 0 0 
0.397033 -0.228676 0.0712563 0 0 0 
0.397711 -0.228388 0.0724051 0 0 0 
0.395598 -0.229297 0.0732202 0 0 0 
0.397178 -0.228622 0.0744802 0 0 0 
0.396544 -0.228896 0.0754709 0 0 0 
0.394932 -0.22959 0.0763353 0 0 0 
0.394143 -0.229931 0.0772996 0 0 0 
0.39531 -0.229433 0.078517 0 0 0 
0.394034 -0.229983 0.0794148 0 0 0 
0.392846 -0.230495 0.0803196 0 0 0 
0.393199 -0.230346 0.0814312 0 0 0 
0.393311 -0.2303 0.082511 0 0 0 
0.39497 -0.229592 0.08381 0 0 0 
0.392485 -0.23066 0.084523 0 0 0 
0.392357 -0.230717 0.0855685 0 0 0 
0.391988 -0.230878 0.0865785 0 0 0 
0.392428 -0.230692 0.087708 0 0 0 
0.393682 -0.230157 0.088963 0 0 0 
0.393396 -0.230282 0.0899873 0 0 0 
0.392706 -0.230581 0.0909482 0 0 0 
0.392503 -0.23067 0.0919835 0 0 0 
0.392383 -0.230724 0.0930315 0 0 0 
0.392588 -0.230639 0.094132 0 0 0 
0.391824 -0.230969 0.0950752 0 0 0 
0.393083 -0.230432 0.0963511 0 0 0 
0.392887 -0.230519 0.0973883 0 0 0 
0.396612 -0.228925 0.0990913 0 0 0 
0.393146 -0.230413 0.099574 0 0 0 
0.393602 -0.23022 0.100725 0 0 0 
0.393653 -0.230201 0.101808 0 0 0 
0.395176 -0.229551 0.103153 0 0 0 
0.39482 -0.229706 0.104166 0 0 0 
0.394548 -0.229825 0.105194 0 0 0 
0.395752 -0.229312 0.106493 0 0 0 
0.394744 -0.229747 0.107385 0 0 0 
0.394638 -0.229795 0.108444 0 0 0 
0.394453 -0.229877 0.109488 0 0 0 
0.395578 -0.229397 0.110784 0 0 0 
0.395066 -0.229619 0.111767 0 0 0 
0.394965 -0.229665 0.112829 0 0 0 
0.395686 -0.229359 0.114054 0 0 0 
0.396822 -0.228875 0.115366 0 0 0 
0.396065 -0.229202 0.1163 0 0 0 
0.39638 -0.22907 0.11745 0 0 0 
0.394641 -0.229817 0.118177 0 0 0 
0.397015 -0.228803 0.119758 0 0 0 
0.396178 -0.229164 0.120671 0 0 0 
0.396498 -0.22903 0.121828 0 0 0 
0.398229 -0.228291 0.123291 0 0 0 
0.397308 -0.228688 0.124185 0 0 0 
0.398214 -0.228303 0.125476 0 0 0 
0.398209 -0.228308 0.12657 0 0 0 
0.398787 -0.228063 0.127796 0 0 0 
0.400456 -0.22735 0.12927 0 0 0 
0.399701 -0.227677 0.1302 0 0 0 
0.398781 -0.228073 0.13109 0 0 0 
0.3997 -0.227682 0.132403 0 0 0 
0.399869 -0.227613 0.133544 0 0 0 
0.399871 -0.227615 0.134648 0 0 0 
0.400126 -0.227508 0.135813 0 0 0 
0.399209 -0.227903 0.136698 0 0 0 
0.399382 -0.227832 0.137844 0 0 0 
0.400311 -0.227437 0.139176 0 0 0 
0.400319 -0.227436 0.140285 0 0 0 
0.400412 -0.227399 0.141417 0 0 0 
0.400506 -0.227362 0.14255 0 0 0 
0.400265 -0.227468 0.143599 0 0 0 
0.401203 -0.227069 0.144949 0 0 0 
0.400374 -0.227426 0.145849 0 0 0 
0.400472 -0.227387 0.146986 0 0 0 
0.400824 -0.227239 0.148191 0 0 0 
0.401263 -0.227054 0.149421 0 0 0 
0.40069 -0.227302 0.150385 0 0 0 
0.400371 -0.227441 0.151415 0 0 0 
0.401065 -0.227147 0.152718 0 0 0 
0.401001 -0.227177 0.153819 0 0 0 
0.402377 -0.22659 0.155315 0 0 0 
0.400792 -0.227272 0.155999 0 0 0 
0.401831 -0.22683 0.157408 0 0 0 
0.402025 -0.226749 0.158585 0 0 0 
0.399518 -0.227826 0.159 0 0 0 
0.400639 -0.227348 0.160439 0 0 0 
0.399656 -0.227772 0.161279 0 0 0 
0.400274 -0.227511 0.162579 0 0 0 
0.399461 -0.227861 0.163465 0 0 0 
0.399743 -0.227743 0.16467 0 0 0 
0.399943 -0.22766 0.165853 0 0 0 
0.39947 -0.227866 0.166837 0 0 0 
0.399672 -0.227782 0.168023 0 0 0 
0.400465 -0.227445 0.169388 0 0 0 
0.399657 -0.227794 0.170271 0 0 0 
0.400368 -0.227492 0.171616 0 0 0 
0.400068 -0.227624 0.172654 0 0 0 
0.400022 -0.227646 0.173769 0 0 0 
0.398881 -0.228137 0.174544 0 0 0 
0.399932 -0.22769 0.176004 0 0 0 
0.398793 -0.228181 0.176776 0 0 0 
0.398919 -0.228129 0.177947 0 0 0 
0.397031 -0.22894 0.178473 0 0 0 
0.397074 -0.228925 0.179615 0 0 0 
0.397285 -0.228837 0.180814 0 0 0 
0.395244 -0.229714 0.181277 0 0 0 
0.39504 -0.229804 0.182337 0 0 0 
0.395086 -0.229787 0.18348 0 0 0 
0.393723 -0.230373 0.184154 0 0 0 
0.394515 -0.230037 0.185547 0 0 0 
0.39143 -0.23136 0.185634 0 0 0 
0.393866 -0.23032 0.187587 0 0 0 
0.393999 -0.230266 0.188762 0 0 0 
0.393718 -0.230389 0.189796 0 0 0 
0.391625 -0.231288 0.190202 0 0 0 
0.394236 -0.230173 0.19224 0 0 0 
0.391811 -0.231214 0.192523 0 0 0 
0.391207 -0.231475 0.19344 0 0 0 
0.392907 -0.23075 0.195174 0 0 0 
0.388863 -0.232484 0.194862 0 0 0 
0.390304 -0.23187 0.196507 0 0 0 
0.389624 -0.232164 0.197391 0 0 0 
0.390416 -0.231827 0.198809 0 0 0 
0.390556 -0.231771 0.199993 0 0 0 
0.389387 -0.232274 0.200696 0 0 0 
0.391989 -0.231162 0.202793 0 0 0 
0.377745 -0.24087 -0.252046 0 0 0 
0.358085 -0.249149 -0.240738 0 0 0 
0.392996 -0.234457 -0.257542 0 0 0 
0.39358 -0.234217 -0.255437 0 0 0 
0.385182 -0.237755 -0.249979 0 0 0 
0.387104 -0.236948 -0.249769 0 0 0 
0.38462 -0.237997 -0.247338 0 0 0 
0.395606 -0.233376 -0.251653 0 0 0 
0.390787 -0.235407 -0.248054 0 0 0 
0.390915 -0.235356 -0.246929 0 0 0 
0.389967 -0.235758 -0.245274 0 0 0 
0.383721 -0.23839 -0.241025 0 0 0 
0.385389 -0.23769 -0.240671 0 0 0 
0.383658 -0.238422 -0.238658 0 0 0 
0.388183 -0.23652 -0.239681 0 0 0 
0.389138 -0.236122 -0.238966 0 0 0 
0.390013 -0.235756 -0.238209 0 0 0 
0.391389 -0.23518 -0.237689 0 0 0 
0.389293 -0.236065 -0.235514 0 0 0 
0.383247 -0.238612 -0.231483 0 0 0 
0.387269 -0.236922 -0.232216 0 0 0 
0.384484 -0.238097 -0.229746 0 0 0 
0.389509 -0.235985 -0.230928 0 0 0 
0.389236 -0.236103 -0.229632 0 0 0 
0.389951 -0.235805 -0.228794 0 0 0 
0.388039 -0.236612 -0.226748 0 0 0 
0.388424 -0.236453 -0.225762 0 0 0 
0.392773 -0.234626 -0.226576 0 0 0 
0.388461 -0.236444 -0.223454 0 0 0 
0.394476 -0.233915 -0.225002 0 0 0 
0.396468 -0.23308 -0.224722 0 0 0 
0.387908 -0.236684 -0.21973 0 0 0 
0.392162 -0.234898 -0.22046 0 0 0 
0.394889 -0.233753 -0.2205 0 0 0 
0.394785 -0.2338 -0.219285 0 0 0 
0.399575 -0.231787 -0.220209 0 0 0 
0.395081 -0.233681 -0.217078 0 0 0 
0.398769 -0.232132 -0.217507 0 0 0 
0.405103 -0.22947 -0.219058 0 0 0 
0.401117 -0.23115 -0.216165 0 0 0 
0.398122 -0.232413 -0.213713 0 0 0 
0.400654 -0.231351 -0.213616 0 0 0 
0.399955 -0.231648 -0.212148 0 0 0 
0.399769 -0.231729 -0.210899 0 0 0 
0.39984 -0.231702 -0.209758 0 0 0 
0.396113 -0.233273 -0.207043 0 0 0 
0.404181 -0.229881 -0.209213 0 0 0 
0.398275 -0.232368 -0.205613 0 0 0 
0.400638 -0.231377 -0.205415 0 0 0 
0.404487 -0.229761 -0.205811 0 0 0 
0.400787 -0.23132 -0.203143 0 0 0 
0.399249 -0.23197 -0.20136 0 0 0 
0.400598 -0.231406 -0.200738 0 0 0 
0.405136 -0.2295 -0.201379 0 0 0 
0.405041 -0.229543 -0.20017 0 0 0 
0.400917 -0.23128 -0.197379 0 0 0 
0.401592 -0.230999 -0.196483 0 0 0 
0.401076 -0.231219 -0.195121 0 0 0 
0.406661 -0.228873 -0.19612 0 0 0 
0.402262 -0.230726 -0.19326 0 0 0 
0.403973 -0.230009 -0.192755 0 0 0 
0.399961 -0.231699 -0.190069 0 0 0 
0.399792 -0.231773 -0.188852 0 0 0 
0.401573 -0.231027 -0.18837 0 0 0 
0.403281 -0.230311 -0.187854 0 0 0 
0.405691 -0.229301 -0.187591 0 0 0 
0.407425 -0.228574 -0.18707 0 0 0 
0.405694 -0.229305 -0.185271 0 0 0 
0.404663 -0.229742 -0.183736 0 0 0 
0.406825 -0.228835 -0.183364 0 0 0 
0.40605 -0.229164 -0.181925 0 0 0 
0.408835 -0.227995 -0.181765 0 0 0 
0.407534 -0.228545 -0.18014 0 0 0 
0.409109 -0.227886 -0.179539 0 0 0 
0.41078 -0.227186 -0.178966 0 0 0 
0.409561 -0.227701 -0.177376 0 0 0 
0.411412 -0.226926 -0.176859 0 0 0 
0.416935 -0.224606 -0.177603 0 0 0 
0.416496 -0.224794 -0.176277 0 0 0 
0.41118 -0.227032 -0.173292 0 0 0 
0.436072 -0.216889 -0.0493827 0 0 0 
0.432933 -0.21821 -0.047915 0 0 0 
0.433643 -0.217915 -0.0468534 0 0 0 
0.435296 -0.217223 -0.0458837 0 0 0 
0.433758 -0.217872 -0.0445946 0 0 0 
0.43485 -0.217416 -0.0435646 0 0 0 
0.434817 -0.217433 -0.0424248 0 0 0 
0.43366 -0.217921 -0.041182 0 0 0 
0.433818 -0.217858 -0.0400624 0 0 0 
0.433696 -0.217912 -0.0389178 0 0 0 
0.434512 -0.217572 -0.0378547 0 0 0 
0.433643 -0.21794 -0.0366471 0 0 0 
0.432499 -0.218423 -0.0354208 0 0 0 
0.43257 -0.218396 -0.0342964 0 0 0 
0.435359 -0.217228 -0.0333832 0 0 0 
0.433089 -0.218183 -0.0320759 0 0 0 
0.432604 -0.21839 -0.0309096 0 0 0 
0.432122 -0.218595 -0.0297456 0 0 0 
0.431828 -0.218721 -0.0285969 0 0 0 
0.432093 -0.218613 -0.0274875 0 0 0 
0.432453 -0.218464 -0.0263834 0 0 0 
0.432535 -0.218432 -0.0252604 0 0 0 
0.432247 -0.218556 -0.0241144 0 0 0 
0.434574 -0.217582 -0.0231256 0 0 0 
0.430378 -0.219347 -0.0217521 0 0 0 
0.430743 -0.219196 -0.020649 0 0 0 
0.430831 -0.219162 -0.0195299 0 0 0 
0.429352 -0.219785 -0.0183299 0 0 0 
0.42972 -0.219633 -0.0172273 0 0 0 
0.430552 -0.219287 -0.0161454 0 0 0 
0.430277 -0.219405 -0.01501 0 0 0 
0.429174 -0.219871 -0.0138399 0 0 0 
0.42872 -0.220065 -0.0127013 0 0 0 
0.429002 -0.219949 -0.0115936 0 0 0 
0.430946 -0.219135 -0.010547 0 0 0 
0.427552 -0.220563 -0.00930399 0 0 0 
0.426559 -0.220982 -0.00815479 0 0 0 
0.426662 -0.220942 -0.00704399 0 0 0 
0.426858 -0.220862 -0.00593559 0 0 0 
0.425871 -0.221279 -0.00479429 0 0 0 
0.427437 -0.220625 -0.00372139 0 0 0 
0.425814 -0.221309 -0.00256829 0 0 0 
0.424926 -0.221684 -0.00143739 0 0 0 
0.4254 -0.221488 -0.000336186 0 0 0 
0.427151 -0.220756 0.000744914 0 0 0 
0.424539 -0.221854 0.00189912 0 0 0 
0.424745 -0.221771 0.00300574 0 0 0 
0.424771 -0.221763 0.00411515 0 0 0 
0.424256 -0.221982 0.00522958 0 0 0 
0.423203 -0.222426 0.00634572 0 0 0 
0.422514 -0.222718 0.00745575 0 0 0 
0.423534 -0.222292 0.00855774 0 0 0 
0.423207 -0.222433 0.00966527 0 0 0 
0.422433 -0.22276 0.010771 0 0 0 
0.423457 -0.222333 0.0118791 0 0 0 
0.420984 -0.223374 0.0129738 0 0 0 
0.421469 -0.223173 0.0140792 0 0 0 
0.420794 -0.223459 0.0151762 0 0 0 
0.419855 -0.223855 0.0162676 0 0 0 
0.41901 -0.224213 0.0173565 0 0 0 
0.419053 -0.224197 0.0184554 0 0 0 
0.419808 -0.223883 0.0195666 0 0 0 
0.419144 -0.224165 0.0206539 0 0 0 
0.418748 -0.224333 0.0217442 0 0 0 
0.418354 -0.224501 0.0228331 0 0 0 
0.418051 -0.224631 0.0239227 0 0 0 
0.417485 -0.224872 0.025004 0 0 0 
0.417361 -0.224926 0.026096 0 0 0 
0.417238 -0.22498 0.0271877 0 0 0 
0.415888 -0.225549 0.0282382 0 0 0 
0.415157 -0.225859 0.0293051 0 0 0 
0.416265 -0.225397 0.0304378 0 0 0 
0.415886 -0.225559 0.0315166 0 0 0 
0.419119 -0.224205 0.0327432 0 0 0 
0.414783 -0.226027 0.0336551 0 0 0 
0.414497 -0.226149 0.0347332 0 0 0 
0.413082 -0.226745 0.035757 0 0 0 
0.412454 -0.227012 0.0368139 0 0 0 
0.412347 -0.227059 0.0378953 0 0 0 
0.410948 -0.227649 0.0389073 0 0 0 
0.410586 -0.227803 0.0399714 0 0 0 
0.41143 -0.227452 0.0411035 0 0 0 
0.411242 -0.227533 0.0421778 0 0 0 
0.408912 -0.228513 0.0431198 0 0 0 
0.408729 -0.228593 0.0441889 0 0 0 
0.40812 -0.228851 0.0452297 0 0 0 
0.40709 -0.229286 0.0462396 0 0 0 
0.408016 -0.2289 0.0473817 0 0 0 
0.407413 -0.229155 0.0484183 0 0 0 
0.407407 -0.229161 0.0494966 0 0 0 
0.407062 -0.229308 0.0505495 0 0 0 
0.405535 -0.229951 0.0515094 0 0 0 
0.406631 -0.229494 0.0526724 0 0 0 
0.405447 -0.229994 0.0536538 0 0 0 
0.406122 -0.229713 0.0547863 0 0 0 
0.405195 -0.230105 0.0557843 0 0 0 
0.405365 -0.230036 0.0568753 0 0 0 
0.404863 -0.230249 0.0579068 0 0 0 
0.40386 -0.230672 0.0588905 0 0 0 
0.404033 -0.230602 0.0599808 0 0 0 
0.403454 -0.230848 0.061 0 0 0 
0.402542 -0.231233 0.0619846 0 0 0 
0.401885 -0.231511 0.0629911 0 0 0 
0.401979 -0.231474 0.064072 0 0 0 
0.400827 -0.23196 0.0650239 0 0 0 
0.401089 -0.231853 0.0661214 0 0 0 
0.399778 -0.232405 0.0670503 0 0 0 
0.399215 -0.232644 0.0680566 0 0 0 
0.399149 -0.232674 0.0691165 0 0 0 
0.397523 -0.233359 0.0699985 0 0 0 
0.39705 -0.23356 0.0710083 0 0 0 
0.396906 -0.233623 0.0720552 0 0 0 
0.396926 -0.233617 0.0731218 0 0 0 
0.39605 -0.233987 0.0740791 0 0 0 
0.395991 -0.234014 0.0751349 0 0 0 
0.395852 -0.234075 0.0761806 0 0 0 
0.394658 -0.234578 0.0770908 0 0 0 
0.393794 -0.234943 0.0780393 0 0 0 
0.393498 -0.23507 0.0790601 0 0 0 
0.393203 -0.235196 0.0800802 0 0 0 
0.393474 -0.235085 0.0811767 0 0 0 
0.392859 -0.235346 0.082152 0 0 0 
0.391444 -0.235942 0.0830127 0 0 0 
0.393407 -0.235121 0.0843499 0 0 0 
0.391911 -0.235751 0.0851949 0 0 0 
0.392025 -0.235706 0.0862707 0 0 0 
0.391499 -0.235929 0.0872521 0 0 0 
0.391295 -0.236017 0.0882803 0 0 0 
0.389655 -0.236707 0.0890886 0 0 0 
0.392255 -0.23562 0.0905474 0 0 0 
0.390851 -0.236211 0.0913889 0 0 0 
0.391373 -0.235995 0.0925312 0 0 0 
0.389975 -0.236584 0.0933671 0 0 0 
0.390977 -0.236166 0.0945891 0 0 0 
0.391262 -0.236049 0.0956972 0 0 0 
0.392513 -0.235527 0.0969686 0 0 0 
0.391515 -0.235948 0.0978647 0 0 0 
0.391964 -0.235763 0.0990053 0 0 0 
0.392255 -0.235643 0.100121 0 0 0 
0.392386 -0.235591 0.10121 0 0 0 
0.39276 -0.235437 0.102343 0 0 0 
0.391845 -0.235823 0.103247 0 0 0 
0.392382 -0.2356 0.104411 0 0 0 
0.393002 -0.235343 0.105594 0 0 0 
0.39322 -0.235254 0.106704 0 0 0 
0.393601 -0.235097 0.107847 0 0 0 
0.393093 -0.235313 0.108823 0 0 0 
0.393395 -0.235189 0.109953 0 0 0 
0.392646 -0.235505 0.110881 0 0 0 
0.393112 -0.235313 0.112045 0 0 0 
0.393499 -0.235153 0.113196 0 0 0 
0.394864 -0.234584 0.114544 0 0 0 
0.393953 -0.234968 0.115438 0 0 0 
0.393775 -0.235045 0.116479 0 0 0 
0.394412 -0.234781 0.117688 0 0 0 
0.394236 -0.234857 0.118731 0 0 0 
0.394876 -0.234592 0.119945 0 0 0 
0.394784 -0.234633 0.121007 0 0 0 
0.395919 -0.23416 0.122332 0 0 0 
0.395829 -0.2342 0.123398 0 0 0 
0.396478 -0.233931 0.124625 0 0 0 
0.39639 -0.23397 0.125693 0 0 0 
0.396467 -0.233941 0.126798 0 0 0 
0.397122 -0.233669 0.128033 0 0 0 
0.397284 -0.233604 0.129161 0 0 0 
0.396459 -0.233952 0.130063 0 0 0 
0.395637 -0.2343 0.130963 0 0 0 
0.396129 -0.234096 0.132168 0 0 0 
0.397945 -0.233338 0.133686 0 0 0 
0.397616 -0.233478 0.134704 0 0 0 
0.399778 -0.232575 0.136317 0 0 0 
0.397377 -0.233584 0.136837 0 0 0 
0.397796 -0.233411 0.138036 0 0 0 
0.397637 -0.23348 0.139095 0 0 0 
0.398723 -0.233028 0.140462 0 0 0 
0.398815 -0.232992 0.141586 0 0 0 
0.398161 -0.233269 0.142524 0 0 0 
0.39892 -0.232953 0.143818 0 0 0 
0.399098 -0.232881 0.144967 0 0 0 
0.399278 -0.232808 0.146119 0 0 0 
0.399209 -0.23284 0.147207 0 0 0 
0.399141 -0.232871 0.148295 0 0 0 
0.398658 -0.233076 0.149275 0 0 0 
0.399593 -0.232688 0.150631 0 0 0 
0.399361 -0.232787 0.151678 0 0 0 
0.398463 -0.233166 0.152545 0 0 0 
0.399819 -0.232601 0.154023 0 0 0 
0.398172 -0.233294 0.154682 0 0 0 
0.398944 -0.232973 0.156006 0 0 0 
0.399887 -0.232581 0.157381 0 0 0 
0.399242 -0.232853 0.158315 0 0 0 
0.399937 -0.232565 0.159626 0 0 0 
0.400216 -0.232451 0.160822 0 0 0 
0.399992 -0.232548 0.161875 0 0 0 
0.3991 -0.232924 0.162735 0 0 0 
0.398295 -0.233264 0.163616 0 0 0 
0.399243 -0.232869 0.165012 0 0 0 
0.398356 -0.233244 0.165867 0 0 0 
0.399475 -0.232778 0.167319 0 0 0 
0.399089 -0.232942 0.168324 0 0 0 
0.399626 -0.23272 0.169608 0 0 0 
0.398991 -0.232989 0.170537 0 0 0 
0.401129 -0.232096 0.172316 0 0 0 
0.399232 -0.232893 0.172858 0 0 0 
0.398935 -0.23302 0.17389 0 0 0 
0.398891 -0.233042 0.175001 0 0 0 
0.397928 -0.233448 0.175822 0 0 0 
0.398804 -0.233084 0.177225 0 0 0 
0.398427 -0.233244 0.178232 0 0 0 
0.398972 -0.233019 0.179534 0 0 0 
0.397261 -0.233738 0.180109 0 0 0 
0.396307 -0.234141 0.180924 0 0 0 
0.394861 -0.234749 0.181574 0 0 0 
0.39474 -0.234802 0.182658 0 0 0 
0.394786 -0.234786 0.183796 0 0 0 
0.394667 -0.234838 0.184881 0 0 0 
0.395459 -0.234509 0.186273 0 0 0 
0.391315 -0.236248 0.185996 0 0 0 
0.393328 -0.235408 0.187803 0 0 0 
0.392474 -0.235768 0.188635 0 0 0 
0.391134 -0.236332 0.189295 0 0 0 
0.390695 -0.236519 0.190265 0 0 0 
0.390664 -0.236534 0.191376 0 0 0 
0.391696 -0.236105 0.192862 0 0 0 
0.389143 -0.237177 0.193084 0 0 0 
0.38952 -0.237022 0.19434 0 0 0 
0.390305 -0.236695 0.195745 0 0 0 
0.388412 -0.237491 0.196188 0 0 0 
0.388953 -0.237267 0.197507 0 0 0 
0.391289 -0.236292 0.199484 0 0 0 
0.388013 -0.237666 0.199412 0 0 0 
0.392637 -0.235733 0.202244 0 0 0 
0.391301 -0.236295 0.202884 0 0 0 
0.385831 -0.242224 -0.255161 0 0 0 
0.381677 -0.243938 -0.251841 0 0 0 
0.387586 -0.241511 -0.252509 0 0 0 
0.392334 -0.239559 -0.253734 0 0 0 
0.399299 -0.236694 -0.256059 0 0 0 
0.39755 -0.237417 -0.253972 0 0 0 
0.389812 -0.240606 -0.248896 0 0 0 
0.389445 -0.24076 -0.247529 0 0 0 
0.391639 -0.23986 -0.247435 0 0 0 
0.391436 -0.239946 -0.24615 0 0 0 
0.394985 -0.238488 -0.24671 0 0 0 
0.390126 -0.240491 -0.243142 0 0 0 
0.379607 -0.244824 -0.236842 0 0 0 
0.394123 -0.238851 -0.242724 0 0 0 
0.384977 -0.242619 -0.237126 0 0 0 
0.393972 -0.238919 -0.240282 0 0 0 
0.39153 -0.239927 -0.237932 0 0 0 
0.39018 -0.240486 -0.236114 0 0 0 
0.390233 -0.240467 -0.234968 0 0 0 
0.386047 -0.242193 -0.231825 0 0 0 
0.390505 -0.240361 -0.232755 0 0 0 
0.395961 -0.238118 -0.234132 0 0 0 
0.379041 -0.245085 -0.225095 0 0 0 
0.392984 -0.239349 -0.230396 0 0 0 
0.389416 -0.24082 -0.227584 0 0 0 
0.394845 -0.238589 -0.228907 0 0 0 
0.391914 -0.239798 -0.226399 0 0 0 
0.38715 -0.241761 -0.223074 0 0 0 
0.38859 -0.241171 -0.222569 0 0 0 
0.39844 -0.237121 -0.225834 0 0 0 
0.391084 -0.240151 -0.221372 0 0 0 
0.392298 -0.239654 -0.220752 0 0 0 
0.397527 -0.237505 -0.221903 0 0 0 
0.392011 -0.239778 -0.218304 0 0 0 
0.398327 -0.237182 -0.219911 0 0 0 
0.397212 -0.237643 -0.218254 0 0 0 
0.404774 -0.234534 -0.220363 0 0 0 
0.397931 -0.237353 -0.216229 0 0 0 
0.397157 -0.237674 -0.21473 0 0 0 
0.400431 -0.23633 -0.214963 0 0 0 
0.39206 -0.239778 -0.210239 0 0 0 
0.393612 -0.239142 -0.209743 0 0 0 
0.39869 -0.237055 -0.210722 0 0 0 
0.394662 -0.238715 -0.207876 0 0 0 
0.397569 -0.237522 -0.20793 0 0 0 
0.403493 -0.235087 -0.20922 0 0 0 
0.406844 -0.233711 -0.209427 0 0 0 
0.39628 -0.238061 -0.203928 0 0 0 
0.397189 -0.23769 -0.203144 0 0 0 
0.402246 -0.235612 -0.204036 0 0 0 
0.401384 -0.235969 -0.202525 0 0 0 
0.40146 -0.235941 -0.201394 0 0 0 
0.405388 -0.234328 -0.201797 0 0 0 
0.410074 -0.232403 -0.202484 0 0 0 
0.399914 -0.236586 -0.197306 0 0 0 
0.400922 -0.236173 -0.196546 0 0 0 
0.399987 -0.236561 -0.195027 0 0 0 
0.40244 -0.235554 -0.194824 0 0 0 
0.401417 -0.235978 -0.193273 0 0 0 
0.39922 -0.236885 -0.191278 0 0 0 
0.403966 -0.234935 -0.191937 0 0 0 
0.40311 -0.23529 -0.190456 0 0 0 
0.404391 -0.234766 -0.189783 0 0 0 
0.405334 -0.234381 -0.188979 0 0 0 
0.402855 -0.235404 -0.186899 0 0 0 
0.406626 -0.233855 -0.187143 0 0 0 
0.402944 -0.235373 -0.184631 0 0 0 
0.404911 -0.234566 -0.1842 0 0 0 
0.405772 -0.234215 -0.183361 0 0 0 
0.409846 -0.232542 -0.183679 0 0 0 
0.409067 -0.232865 -0.182237 0 0 0 
0.408637 -0.233045 -0.180925 0 0 0 
0.411962 -0.23168 -0.180948 0 0 0 
0.414706 -0.230554 -0.180752 0 0 0 
0.407705 -0.233437 -0.177129 0 0 0 
0.412951 -0.231282 -0.177805 0 0 0 
0.410941 -0.232111 -0.175946 0 0 0 
0.413322 -0.231135 -0.175608 0 0 0 
0.417242 -0.229526 -0.175786 0 0 0 
0.415824 -0.230111 -0.174135 0 0 0 
0.41816 -0.229154 -0.173759 0 0 0 
0.424251 -0.226651 -0.174634 0 0 0 
0.435899 -0.222188 -0.0445854 0 0 0 
0.435302 -0.222436 -0.0433936 0 0 0 
0.434989 -0.222567 -0.0422311 0 0 0 
0.434677 -0.222698 -0.0410703 0 0 0 
0.43418 -0.222905 -0.0398945 0 0 0 
0.434246 -0.222881 -0.0387702 0 0 0 
0.434032 -0.222971 -0.0376221 0 0 0 
0.434287 -0.222869 -0.0365141 0 0 0 
0.435667 -0.222305 -0.0354972 0 0 0 
0.436019 -0.222163 -0.0343932 0 0 0 
0.43422 -0.222905 -0.0331213 0 0 0 
0.433734 -0.223107 -0.031956 0 0 0 
0.432972 -0.223423 -0.0307726 0 0 0 
0.433979 -0.223012 -0.0297189 0 0 0 
0.433219 -0.223327 -0.0285387 0 0 0 
0.435445 -0.222416 -0.0275631 0 0 0 
0.433286 -0.223305 -0.0262919 0 0 0 
0.432533 -0.223617 -0.0251187 0 0 0 
0.433452 -0.223242 -0.0240514 0 0 0 
0.433165 -0.223363 -0.022909 0 0 0 
0.431954 -0.223863 -0.0217149 0 0 0 
0.431948 -0.223868 -0.0205926 0 0 0 
0.43176 -0.223948 -0.0194607 0 0 0 
0.431665 -0.22399 -0.0183346 0 0 0 
0.43065 -0.224409 -0.0171636 0 0 0 
0.430283 -0.224563 -0.0160275 0 0 0 
0.429643 -0.224828 -0.0148806 0 0 0 
0.431948 -0.223884 -0.0138639 0 0 0 
0.43057 -0.224453 -0.0126861 0 0 0 
0.430484 -0.224491 -0.0115647 0 0 0 
0.429207 -0.225018 -0.0103994 0 0 0 
0.429217 -0.225017 -0.00928459 0 0 0 
0.429227 -0.225015 -0.00816999 0 0 0 
0.428782 -0.225201 -0.00704109 0 0 0 
0.428065 -0.225498 -0.00590629 0 0 0 
0.429176 -0.225044 -0.00482409 0 0 0 
0.42646 -0.226162 -0.00364109 0 0 0 
0.428662 -0.225261 -0.00258309 0 0 0 
0.42686 -0.226003 -0.00143159 0 0 0 
0.426518 -0.226146 -0.000315287 0 0 0 
0.426902 -0.225991 0.000787014 0 0 0 
0.426835 -0.226022 0.00189774 0 0 0 
0.426406 -0.2262 0.00301287 0 0 0 
0.426251 -0.226267 0.00412321 0 0 0 
0.425555 -0.226555 0.0052378 0 0 0 
0.425403 -0.22662 0.00634572 0 0 0 
0.425072 -0.226759 0.00745393 0 0 0 
0.423755 -0.227302 0.00856381 0 0 0 
0.423787 -0.227291 0.00966697 0 0 0 
0.423194 -0.227538 0.0107697 0 0 0 
0.422603 -0.227783 0.01187 0 0 0 
0.422104 -0.22799 0.0129684 0 0 0 
0.423304 -0.2275 0.0140767 0 0 0 
0.421291 -0.228329 0.015161 0 0 0 
0.421154 -0.228388 0.0162578 0 0 0 
0.421285 -0.228337 0.0173576 0 0 0 
0.420352 -0.228723 0.018442 0 0 0 
0.420662 -0.228598 0.0195439 0 0 0 
0.419911 -0.228909 0.0206269 0 0 0 
0.420312 -0.228747 0.0217311 0 0 0 
0.419035 -0.229274 0.0227984 0 0 0 
0.418644 -0.229437 0.0238828 0 0 0 
0.418167 -0.229636 0.0249634 0 0 0 
0.417692 -0.229833 0.0260422 0 0 0 
0.416607 -0.230281 0.0271002 0 0 0 
0.417889 -0.229758 0.0282323 0 0 0 
0.416805 -0.230205 0.0292867 0 0 0 
0.416425 -0.230364 0.0303629 0 0 0 
0.415351 -0.230807 0.0314105 0 0 0 
0.414368 -0.231213 0.0324576 0 0 0 
0.414515 -0.231155 0.0335498 0 0 0 
0.414317 -0.231239 0.034627 0 0 0 
0.413342 -0.231642 0.035667 0 0 0 
0.414445 -0.231192 0.0368054 0 0 0 
0.413127 -0.231736 0.0378244 0 0 0 
0.413107 -0.231746 0.0389073 0 0 0 
0.413089 -0.231757 0.0399905 0 0 0 
0.41118 -0.232542 0.0409655 0 0 0 
0.411937 -0.232234 0.042091 0 0 0 
0.411065 -0.232595 0.0431198 0 0 0 
0.410624 -0.232778 0.0441727 0 0 0 
0.410185 -0.232961 0.0452241 0 0 0 
0.409493 -0.233248 0.0462568 0 0 0 
0.408463 -0.233673 0.0472637 0 0 0 
0.408455 -0.233679 0.0483394 0 0 0 
0.407095 -0.23424 0.0493161 0 0 0 
0.407681 -0.234002 0.0504343 0 0 0 
0.410484 -0.232854 0.0517267 0 0 0 
0.408098 -0.233836 0.0526185 0 0 0 
0.406828 -0.23436 0.0535918 0 0 0 
0.407418 -0.23412 0.0547156 0 0 0 
0.40725 -0.234191 0.0557771 0 0 0 
0.406325 -0.234574 0.0567719 0 0 0 
0.40616 -0.234644 0.0578313 0 0 0 
0.404737 -0.23523 0.0587753 0 0 0 
0.404241 -0.235437 0.0598004 0 0 0 
0.403413 -0.235779 0.0607921 0 0 0 
0.403338 -0.235812 0.0618542 0 0 0 
0.402931 -0.235982 0.0628832 0 0 0 
0.402775 -0.236048 0.0639364 0 0 0 
0.401625 -0.236523 0.0648863 0 0 0 
0.400894 -0.236825 0.065876 0 0 0 
0.400495 -0.236991 0.066899 0 0 0 
0.398784 -0.237696 0.0677766 0 0 0 
0.399128 -0.237557 0.0688773 0 0 0 
0.398081 -0.237989 0.0698214 0 0 0 
0.398099 -0.237985 0.070885 0 0 0 
0.397547 -0.238214 0.0718818 0 0 0 
0.396103 -0.238808 0.0727699 0 0 0 
0.396611 -0.238602 0.0738904 0 0 0 
0.396309 -0.238729 0.0749129 0 0 0 
0.396576 -0.238622 0.0760062 0 0 0 
0.396276 -0.238748 0.0770284 0 0 0 
0.394925 -0.239304 0.0779131 0 0 0 
0.393904 -0.239726 0.0788363 0 0 0 
0.392807 -0.240178 0.0797456 0 0 0 
0.393719 -0.239807 0.0809241 0 0 0 
0.393187 -0.240028 0.0819073 0 0 0 
0.394263 -0.239589 0.0831142 0 0 0 
0.392368 -0.240369 0.0839034 0 0 0 
0.391522 -0.240718 0.0848366 0 0 0 
0.391875 -0.240576 0.0859422 0 0 0 
0.391192 -0.240859 0.0868959 0 0 0 
0.391947 -0.240552 0.0880634 0 0 0 
0.391026 -0.240932 0.0889792 0 0 0 
0.390587 -0.241114 0.089966 0 0 0 
0.391742 -0.240643 0.0912009 0 0 0 
0.390507 -0.241152 0.0920622 0 0 0 
0.390072 -0.241333 0.0930472 0 0 0 
0.389876 -0.241416 0.0940699 0 0 0 
0.391033 -0.240944 0.0953149 0 0 0 
0.389647 -0.241515 0.0961412 0 0 0 
0.391124 -0.240912 0.0974455 0 0 0 
0.390932 -0.240993 0.0984712 0 0 0 
0.391459 -0.24078 0.0996209 0 0 0 
0.391989 -0.240565 0.100774 0 0 0 
0.391639 -0.240711 0.101774 0 0 0 
0.390732 -0.241086 0.102673 0 0 0 
0.391424 -0.240805 0.103858 0 0 0 
0.392921 -0.240194 0.105195 0 0 0 
0.391133 -0.240929 0.105929 0 0 0 
0.392309 -0.240449 0.107212 0 0 0 
0.391725 -0.240692 0.108167 0 0 0 
0.391543 -0.240769 0.109198 0 0 0 
0.392887 -0.24022 0.110522 0 0 0 
0.392144 -0.240528 0.111446 0 0 0 
0.392125 -0.240538 0.11251 0 0 0 
0.392429 -0.240416 0.113638 0 0 0 
0.393056 -0.240162 0.114834 0 0 0 
0.393767 -0.239873 0.11605 0 0 0 
0.392463 -0.24041 0.116855 0 0 0 
0.393578 -0.239955 0.118157 0 0 0 
0.393324 -0.240062 0.119178 0 0 0 
0.393474 -0.240003 0.120283 0 0 0 
0.394111 -0.239745 0.121494 0 0 0 
0.394589 -0.239552 0.122674 0 0 0 
0.394987 -0.239391 0.12384 0 0 0 
0.396203 -0.238895 0.125187 0 0 0 
0.396197 -0.2389 0.126269 0 0 0 
0.394807 -0.239473 0.127041 0 0 0 
0.396108 -0.238942 0.128416 0 0 0 
0.395453 -0.239213 0.129351 0 0 0 
0.396186 -0.238915 0.130604 0 0 0 
0.395369 -0.239253 0.1315 0 0 0 
0.395941 -0.239021 0.13272 0 0 0 
0.396516 -0.238788 0.133943 0 0 0 
0.396765 -0.238689 0.135091 0 0 0 
0.396851 -0.238656 0.136202 0 0 0 
0.397843 -0.238252 0.137533 0 0 0 
0.39752 -0.238387 0.138548 0 0 0 
0.397856 -0.238252 0.139725 0 0 0 
0.398691 -0.237913 0.141028 0 0 0 
0.399197 -0.237708 0.142252 0 0 0 
0.399042 -0.237774 0.143312 0 0 0 
0.398557 -0.237976 0.144288 0 0 0 
0.398239 -0.238109 0.145305 0 0 0 
0.39751 -0.23841 0.146215 0 0 0 
0.397772 -0.238305 0.147382 0 0 0 
0.398862 -0.237861 0.14877 0 0 0 
0.398631 -0.237959 0.149811 0 0 0 
0.39898 -0.237818 0.151008 0 0 0 
0.39983 -0.237473 0.152342 0 0 0 
0.39877 -0.23791 0.15316 0 0 0 
0.399871 -0.237461 0.154568 0 0 0 
0.399311 -0.237694 0.155522 0 0 0 
0.399084 -0.237789 0.156567 0 0 0 
0.398113 -0.23819 0.157403 0 0 0 
0.399383 -0.237672 0.158869 0 0 0 
0.398578 -0.238005 0.159751 0 0 0 
0.39877 -0.237929 0.160916 0 0 0 
0.398383 -0.23809 0.161915 0 0 0 
0.398827 -0.237911 0.163155 0 0 0 
0.400357 -0.237287 0.164717 0 0 0 
0.398887 -0.237892 0.165399 0 0 0 
0.399168 -0.237779 0.166597 0 0 0 
0.398369 -0.238109 0.167474 0 0 0 
0.398237 -0.238166 0.168549 0 0 0 
0.398686 -0.237985 0.169801 0 0 0 
0.40014 -0.237392 0.171363 0 0 0 
0.400093 -0.237414 0.17247 0 0 0 
0.399713 -0.237572 0.173474 0 0 0 
0.397504 -0.23848 0.173906 0 0 0 
0.398207 -0.238195 0.175245 0 0 0 
0.397831 -0.238351 0.176247 0 0 0 
0.39754 -0.238473 0.177274 0 0 0 
0.39808 -0.238255 0.178568 0 0 0 
0.397458 -0.238513 0.17949 0 0 0 
0.397004 -0.238701 0.180465 0 0 0 
0.395808 -0.239194 0.181196 0 0 0 
0.39701 -0.238704 0.182712 0 0 0 
0.396641 -0.238858 0.183714 0 0 0 
0.394297 -0.239821 0.184056 0 0 0 
0.393933 -0.239973 0.185054 0 0 0 
0.393489 -0.240158 0.186024 0 0 0 
0.393537 -0.240141 0.18716 0 0 0 
0.392849 -0.240425 0.188045 0 0 0 
0.392327 -0.240642 0.188986 0 0 0 
0.390508 -0.24139 0.189476 0 0 0 
0.389749 -0.241703 0.190328 0 0 0 
0.389476 -0.241818 0.191349 0 0 0 
0.38985 -0.241667 0.192598 0 0 0 
0.389256 -0.241913 0.193505 0 0 0 
0.388342 -0.24229 0.194297 0 0 0 
0.389201 -0.241941 0.195722 0 0 0 
0.387806 -0.242515 0.196338 0 0 0 
0.386818 -0.242923 0.197096 0 0 0 
0.388317 -0.242311 0.198762 0 0 0 
0.388132 -0.24239 0.199814 0 0 0 
0.387948 -0.242468 0.200867 0 0 0 
0.387925 -0.24248 0.20198 0 0 0 
0.398829 -0.241724 -0.257179 0 0 0 
0.380967 -0.248917 -0.24694 0 0 0 
0.380141 -0.249253 -0.245362 0 0 0 
0.383527 -0.247893 -0.245899 0 0 0 
0.381341 -0.248775 -0.243643 0 0 0 
0.385628 -0.247053 -0.244612 0 0 0 
0.381674 -0.248647 -0.241488 0 0 0 
0.389131 -0.245648 -0.244 0 0 0 
0.378068 -0.250104 -0.237407 0 0 0 
0.381712 -0.248643 -0.236881 0 0 0 
0.386969 -0.24653 -0.238266 0 0 0 
0.384844 -0.247388 -0.236081 0 0 0 
0.399755 -0.241389 -0.242059 0 0 0 
0.390953 -0.244935 -0.236674 0 0 0 
0.384921 -0.247365 -0.232645 0 0 0 
0.390894 -0.244964 -0.234308 0 0 0 
0.383273 -0.248034 -0.229561 0 0 0 
0.389123 -0.245683 -0.231146 0 0 0 
0.39073 -0.245039 -0.230732 0 0 0 
0.391934 -0.244557 -0.230126 0 0 0 
0.393972 -0.24374 -0.229899 0 0 0 
0.385472 -0.247163 -0.224833 0 0 0 
0.39014 -0.245288 -0.225814 0 0 0 
0.397732 -0.242235 -0.228103 0 0 0 
0.395949 -0.242955 -0.226123 0 0 0 
0.395509 -0.243136 -0.224756 0 0 0 
0.39391 -0.243782 -0.222874 0 0 0 
0.39364 -0.243893 -0.221592 0 0 0 
0.395193 -0.243271 -0.221119 0 0 0 
0.391381 -0.244808 -0.218276 0 0 0 
0.401366 -0.240793 -0.221502 0 0 0 
0.396964 -0.242567 -0.218406 0 0 0 
0.3998 -0.241429 -0.218474 0 0 0 
0.400541 -0.241133 -0.217625 0 0 0 
0.398667 -0.24189 -0.21565 0 0 0 
0.395478 -0.243176 -0.213123 0 0 0 
0.394304 -0.243651 -0.211467 0 0 0 
0.40157 -0.240731 -0.213389 0 0 0 
0.394028 -0.243768 -0.209047 0 0 0 
0.399427 -0.241599 -0.210157 0 0 0 
0.395987 -0.242985 -0.207564 0 0 0 
0.402018 -0.240562 -0.208911 0 0 0 
0.399807 -0.241454 -0.206835 0 0 0 
0.405494 -0.239169 -0.208008 0 0 0 
0.403853 -0.239832 -0.206169 0 0 0 
0.398599 -0.241949 -0.202872 0 0 0 
0.402893 -0.240224 -0.203451 0 0 0 
0.404418 -0.239613 -0.202902 0 0 0 
0.402194 -0.240511 -0.200851 0 0 0 
0.398567 -0.241973 -0.198254 0 0 0 
0.401671 -0.240727 -0.19833 0 0 0 
0.40447 -0.239604 -0.198274 0 0 0 
0.398968 -0.24182 -0.194967 0 0 0 
0.401232 -0.240912 -0.194699 0 0 0 
0.403345 -0.240065 -0.194364 0 0 0 
0.402408 -0.240444 -0.19285 0 0 0 
0.403509 -0.240005 -0.192118 0 0 0 
0.404785 -0.239494 -0.19145 0 0 0 
0.405809 -0.239085 -0.190682 0 0 0 
0.404953 -0.239432 -0.189204 0 0 0 
0.40342 -0.240051 -0.18748 0 0 0 
0.410998 -0.237006 -0.189141 0 0 0 
0.405724 -0.23913 -0.186032 0 0 0 
0.410999 -0.237012 -0.186814 0 0 0 
0.406501 -0.238824 -0.184012 0 0 0 
0.409437 -0.237645 -0.183925 0 0 0 
0.40754 -0.238411 -0.182084 0 0 0 
0.412059 -0.236597 -0.18255 0 0 0 
0.411539 -0.236808 -0.181204 0 0 0 
0.416659 -0.234752 -0.181856 0 0 0 
0.414361 -0.235679 -0.179879 0 0 0 
0.411647 -0.236774 -0.177768 0 0 0 
0.413056 -0.23621 -0.177101 0 0 0 
0.412539 -0.23642 -0.175764 0 0 0 
0.413514 -0.236031 -0.174942 0 0 0 
0.418132 -0.234177 -0.175359 0 0 0 
0.416806 -0.234713 -0.173743 0 0 0 
0.419677 -0.233561 -0.173547 0 0 0 
0.4133 -0.236129 -0.170245 0 0 0 
0.420693 -0.233159 -0.171549 0 0 0 
0.437348 -0.226784 -0.0445121 0 0 0 
0.43769 -0.226649 -0.0434116 0 0 0 
0.437375 -0.226778 -0.0422487 0 0 0 
0.437156 -0.226869 -0.0410961 0 0 0 
0.437502 -0.226733 -0.0399951 0 0 0 
0.43738 -0.226785 -0.0388521 0 0 0 
0.436228 -0.22725 -0.0376221 0 0 0 
0.437046 -0.226924 -0.036561 0 0 0 
0.436553 -0.227125 -0.0353903 0 0 0 
0.436718 -0.227061 -0.0342741 0 0 0 
0.436229 -0.227261 -0.0331068 0 0 0 
0.435835 -0.227421 -0.031949 0 0 0 
0.436378 -0.227206 -0.0308615 0 0 0 
0.436174 -0.227291 -0.0297189 0 0 0 
0.435599 -0.227525 -0.0285517 0 0 0 
0.436426 -0.227195 -0.0274812 0 0 0 
0.434548 -0.227952 -0.0262312 0 0 0 
0.433795 -0.228257 -0.0250601 0 0 0 
0.434528 -0.227965 -0.0239831 0 0 0 
0.432945 -0.228604 -0.0227662 0 0 0 
0.433586 -0.228349 -0.0216831 0 0 0 
0.432656 -0.228725 -0.0205109 0 0 0 
0.432838 -0.228655 -0.0194017 0 0 0 
0.43302 -0.228584 -0.018292 0 0 0 
0.432005 -0.228994 -0.0171228 0 0 0 
0.43339 -0.228441 -0.016071 0 0 0 
0.432192 -0.228925 -0.0148972 0 0 0 
0.431827 -0.229074 -0.0137643 0 0 0 
0.430547 -0.22959 -0.0125954 0 0 0 
0.431012 -0.229407 -0.0114999 0 0 0 
0.430745 -0.229517 -0.0103755 0 0 0 
0.431029 -0.229405 -0.00927169 0 0 0 
0.428665 -0.230357 -0.00807919 0 0 0 
0.429224 -0.230135 -0.00698709 0 0 0 
0.428509 -0.230425 -0.00585589 0 0 0 
0.427889 -0.230677 -0.00473009 0 0 0 
0.430364 -0.229686 -0.00368459 0 0 0 
0.429924 -0.229865 -0.00256199 0 0 0 
0.428486 -0.230445 -0.00142009 0 0 0 
0.428053 -0.230621 -0.000303186 0 0 0 
0.427712 -0.230761 0.000810314 0 0 0 
0.426469 -0.231262 0.00193598 0 0 0 
0.426314 -0.231327 0.00304244 0 0 0 
0.427062 -0.23103 0.00413824 0 0 0 
0.425736 -0.231564 0.0052558 0 0 0 
0.425495 -0.231664 0.00636037 0 0 0 
0.424449 -0.232087 0.00746803 0 0 0 
0.425377 -0.231717 0.00856546 0 0 0 
0.424602 -0.23203 0.00966838 0 0 0 
0.422761 -0.232772 0.0107672 0 0 0 
0.424851 -0.231936 0.0118703 0 0 0 
0.426056 -0.231455 0.0129773 0 0 0 
0.423138 -0.232629 0.0140605 0 0 0 
0.422821 -0.232758 0.0151554 0 0 0 
0.422773 -0.23278 0.016252 0 0 0 
0.421218 -0.233407 0.0173288 0 0 0 
0.420819 -0.23357 0.0184168 0 0 0 
0.421217 -0.233413 0.0195168 0 0 0 
0.422593 -0.232863 0.020637 0 0 0 
0.420162 -0.233842 0.0216828 0 0 0 
0.41977 -0.234002 0.0227659 0 0 0 
0.419379 -0.234161 0.0238476 0 0 0 
0.419079 -0.234284 0.0249301 0 0 0 
0.418079 -0.234688 0.0259913 0 0 0 
0.417958 -0.234739 0.0270758 0 0 0 
0.418012 -0.23472 0.0281657 0 0 0 
0.417719 -0.23484 0.0292438 0 0 0 
0.416468 -0.235345 0.0302853 0 0 0 
0.41731 -0.235009 0.0314036 0 0 0 
0.415631 -0.235686 0.032422 0 0 0 
0.415865 -0.235595 0.0335161 0 0 0 
0.41584 -0.235607 0.0345996 0 0 0 
0.414691 -0.236071 0.0356303 0 0 0 
0.413033 -0.236739 0.0366316 0 0 0 
0.413098 -0.236715 0.0377143 0 0 0 
0.412735 -0.236863 0.0387747 0 0 0 
0.412717 -0.236873 0.0398529 0 0 0 
0.41494 -0.235984 0.041059 0 0 0 
0.411572 -0.237338 0.0419439 0 0 0 
0.411046 -0.237552 0.0429891 0 0 0 
0.410948 -0.237594 0.0440594 0 0 0 
0.410255 -0.237874 0.0450908 0 0 0 
0.40999 -0.237983 0.0461482 0 0 0 
0.410916 -0.237614 0.0472872 0 0 0 
0.409972 -0.237995 0.0482971 0 0 0 
0.409033 -0.238375 0.0493037 0 0 0 
0.408943 -0.238413 0.0503707 0 0 0 
0.408854 -0.238452 0.0514375 0 0 0 
0.409444 -0.238218 0.052558 0 0 0 
0.408934 -0.238425 0.0535918 0 0 0 
0.406911 -0.239239 0.0544979 0 0 0 
0.407248 -0.239106 0.0555972 0 0 0 
0.406242 -0.239512 0.0565811 0 0 0 
0.406413 -0.239446 0.0576662 0 0 0 
0.405915 -0.239649 0.0586911 0 0 0 
0.404002 -0.240419 0.0595825 0 0 0 
0.404341 -0.240285 0.0606809 0 0 0 
0.403436 -0.240651 0.0616598 0 0 0 
0.403362 -0.240683 0.0627181 0 0 0 
0.402379 -0.24108 0.0636842 0 0 0 
0.401071 -0.241607 0.0646131 0 0 0 
0.401166 -0.241572 0.0656848 0 0 0 
0.400194 -0.241964 0.0666427 0 0 0 
0.399717 -0.242158 0.0676511 0 0 0 
0.399079 -0.242416 0.06864 0 0 0 
0.397712 -0.242967 0.0695439 0 0 0 
0.397162 -0.24319 0.070537 0 0 0 
0.397911 -0.242892 0.0716807 0 0 0 
0.396715 -0.243375 0.0725955 0 0 0 
0.396009 -0.24366 0.0735653 0 0 0 
0.395628 -0.243816 0.0745727 0 0 0 
0.396782 -0.243356 0.0757716 0 0 0 
0.395192 -0.243996 0.0766257 0 0 0 
0.395459 -0.243891 0.0777142 0 0 0 
0.3946 -0.244238 0.0786562 0 0 0 
0.393506 -0.244679 0.0795635 0 0 0 
0.393694 -0.244606 0.0806408 0 0 0 
0.393005 -0.244885 0.0815983 0 0 0 
0.392397 -0.245132 0.0825649 0 0 0 
0.391872 -0.245345 0.0835411 0 0 0 
0.39286 -0.244951 0.0847332 0 0 0 
0.390589 -0.245864 0.0854546 0 0 0 
0.390228 -0.246011 0.0864495 0 0 0 
0.390343 -0.245968 0.0875146 0 0 0 
0.391886 -0.245352 0.0887976 0 0 0 
0.391924 -0.245339 0.0898557 0 0 0 
0.391089 -0.245676 0.0907782 0 0 0 
0.389232 -0.246424 0.0915363 0 0 0 
0.390378 -0.245967 0.0927678 0 0 0 
0.388685 -0.246648 0.0935444 0 0 0 
0.389436 -0.246349 0.0947156 0 0 0 
0.389874 -0.246176 0.0958384 0 0 0 
0.390315 -0.246002 0.0969637 0 0 0 
0.390678 -0.245859 0.0980783 0 0 0 
0.390329 -0.246001 0.0990721 0 0 0 
0.390457 -0.245953 0.100148 0 0 0 
0.389795 -0.246221 0.101086 0 0 0 
0.390637 -0.245886 0.10229 0 0 0 
0.390689 -0.245868 0.103355 0 0 0 
0.390662 -0.245881 0.104407 0 0 0 
0.390478 -0.245957 0.10543 0 0 0 
0.393164 -0.244883 0.106988 0 0 0 
0.391304 -0.245631 0.1077 0 0 0 
0.39192 -0.245387 0.108877 0 0 0 
0.393018 -0.24495 0.11015 0 0 0 
0.391002 -0.24576 0.110822 0 0 0 
0.392979 -0.24497 0.112273 0 0 0 
0.391363 -0.24562 0.113017 0 0 0 
0.391825 -0.245438 0.114172 0 0 0 
0.391809 -0.245447 0.115233 0 0 0 
0.391794 -0.245456 0.116295 0 0 0 
0.3925 -0.245175 0.117507 0 0 0 
0.392487 -0.245183 0.118571 0 0 0 
0.392957 -0.244997 0.119739 0 0 0 
0.392305 -0.245261 0.120669 0 0 0 
0.393902 -0.244624 0.122082 0 0 0 
0.393009 -0.244984 0.12296 0 0 0 
0.393806 -0.244668 0.124207 0 0 0 
0.394445 -0.244414 0.125422 0 0 0 
0.393714 -0.24471 0.126334 0 0 0 
0.395164 -0.244131 0.127736 0 0 0 
0.394433 -0.244427 0.128648 0 0 0 
0.393785 -0.244689 0.129577 0 0 0 
0.395564 -0.243979 0.131066 0 0 0 
0.396133 -0.243753 0.13228 0 0 0 
0.395079 -0.244178 0.133115 0 0 0 
0.395406 -0.24405 0.134274 0 0 0 
0.396304 -0.243693 0.135572 0 0 0 
0.396308 -0.243694 0.136659 0 0 0 
0.396232 -0.243727 0.137726 0 0 0 
0.395506 -0.24402 0.138634 0 0 0 
0.397882 -0.243071 0.14031 0 0 0 
0.395848 -0.243889 0.140892 0 0 0 
0.397327 -0.243299 0.142353 0 0 0 
0.396438 -0.243657 0.143219 0 0 0 
0.397104 -0.243393 0.14448 0 0 0 
0.397773 -0.243128 0.145746 0 0 0 
0.399352 -0.242498 0.147253 0 0 0 
0.397556 -0.24322 0.147879 0 0 0 
0.399136 -0.24259 0.149394 0 0 0 
0.398246 -0.242949 0.150256 0 0 0 
0.398017 -0.243043 0.151293 0 0 0 
0.397954 -0.243071 0.152375 0 0 0 
0.397235 -0.243362 0.153277 0 0 0 
0.398985 -0.242664 0.154859 0 0 0 
0.397606 -0.243219 0.155579 0 0 0 
0.398535 -0.242849 0.15694 0 0 0 
0.399303 -0.242544 0.15826 0 0 0 
0.399328 -0.242537 0.159374 0 0 0 
0.39828 -0.24296 0.160181 0 0 0 
0.398719 -0.242786 0.161413 0 0 0 
0.39883 -0.242745 0.162553 0 0 0 
0.397951 -0.243099 0.163404 0 0 0 
0.398641 -0.242826 0.164714 0 0 0 
0.398176 -0.243015 0.165686 0 0 0 
0.39796 -0.243104 0.166731 0 0 0 
0.398571 -0.242862 0.168025 0 0 0 
0.396873 -0.243545 0.168622 0 0 0 
0.397648 -0.243237 0.169968 0 0 0 
0.398013 -0.243093 0.171191 0 0 0 
0.397637 -0.243247 0.172188 0 0 0 
0.397839 -0.243169 0.173364 0 0 0 
0.397547 -0.243288 0.174387 0 0 0 
0.397256 -0.243408 0.17541 0 0 0 
0.396226 -0.243823 0.176198 0 0 0 
0.39602 -0.243908 0.177245 0 0 0 
0.396143 -0.243862 0.178399 0 0 0 
0.395037 -0.244307 0.179155 0 0 0 
0.394834 -0.244391 0.180203 0 0 0 
0.394959 -0.244344 0.181358 0 0 0 
0.395249 -0.24423 0.182569 0 0 0 
0.394475 -0.244543 0.183428 0 0 0 
0.394848 -0.244396 0.184669 0 0 0 
0.394159 -0.244675 0.185555 0 0 0 
0.393146 -0.245083 0.186328 0 0 0 
0.391976 -0.245555 0.187045 0 0 0 
0.392348 -0.245408 0.188287 0 0 0 
0.389973 -0.246362 0.188582 0 0 0 
0.393017 -0.245146 0.190752 0 0 0 
0.389107 -0.246714 0.190503 0 0 0 
0.390042 -0.246343 0.191944 0 0 0 
0.388727 -0.246872 0.192593 0 0 0 
0.387021 -0.247558 0.193098 0 0 0 
0.386357 -0.247826 0.19397 0 0 0 
0.387364 -0.247426 0.195442 0 0 0 
0.388778 -0.246862 0.197067 0 0 0 
0.386754 -0.247675 0.197445 0 0 0 
0.386889 -0.247624 0.198608 0 0 0 
0.387903 -0.247221 0.200096 0 0 0 
0.388842 -0.246848 0.201562 0 0 0 
0.387217 -0.247501 0.202076 0 0 0 
0.379451 -0.254162 -0.244016 0 0 0 
0.389958 -0.25004 -0.244588 0 0 0 
0.382764 -0.252873 -0.239886 0 0 0 
0.384214 -0.252308 -0.238282 0 0 0 
0.393931 -0.248488 -0.241827 0 0 0 
0.381147 -0.25352 -0.234494 0 0 0 
0.388273 -0.250723 -0.235601 0 0 0 
0.382093 -0.253156 -0.231506 0 0 0 
0.384367 -0.252265 -0.231435 0 0 0 
0.388675 -0.250573 -0.232312 0 0 0 
0.394044 -0.248464 -0.233667 0 0 0 
0.394429 -0.248315 -0.232678 0 0 0 
0.387468 -0.251056 -0.228281 0 0 0 
0.387203 -0.251163 -0.227007 0 0 0 
0.395342 -0.247965 -0.229594 0 0 0 
0.388446 -0.25068 -0.225275 0 0 0 
0.394711 -0.248218 -0.226974 0 0 0 
0.398852 -0.246593 -0.227684 0 0 0 
0.39824 -0.246836 -0.226236 0 0 0 
0.388926 -0.250502 -0.220893 0 0 0 
0.407128 -0.243346 -0.227863 0 0 0 
0.387519 -0.251061 -0.217974 0 0 0 
0.403213 -0.244892 -0.223761 0 0 0 
0.394146 -0.24846 -0.218601 0 0 0 
0.395447 -0.247951 -0.218015 0 0 0 
0.397836 -0.247015 -0.217897 0 0 0 
0.394998 -0.248134 -0.215508 0 0 0 
0.404983 -0.24421 -0.218653 0 0 0 
0.398868 -0.246617 -0.214859 0 0 0 
0.398433 -0.246791 -0.213513 0 0 0 
0.400681 -0.24591 -0.213308 0 0 0 
0.396241 -0.247659 -0.210274 0 0 0 
0.402676 -0.245131 -0.211822 0 0 0 
0.402915 -0.24504 -0.210758 0 0 0 
0.396864 -0.247422 -0.207081 0 0 0 
0.405015 -0.24422 -0.209298 0 0 0 
0.399421 -0.246422 -0.205834 0 0 0 
0.403965 -0.244638 -0.206537 0 0 0 
0.399651 -0.246338 -0.203621 0 0 0 
0.40267 -0.245153 -0.20369 0 0 0 
0.406666 -0.243585 -0.20414 0 0 0 
0.400042 -0.246192 -0.200326 0 0 0 
0.408368 -0.242921 -0.202488 0 0 0 
0.406637 -0.243605 -0.200636 0 0 0 
0.40543 -0.244082 -0.199 0 0 0 
0.399348 -0.246476 -0.195462 0 0 0 
0.40287 -0.245094 -0.195688 0 0 0 
0.402527 -0.245232 -0.194405 0 0 0 
