0.401772,-0.204864,-0.133204,51
0.400126,-0.203761,-0.131741,42
0.400518,-0.204026,-0.131006,47
0.398751,-0.202842,-0.129513,49
0.397979,-0.202325,-0.128376,50
0.398234,-0.202499,-0.127598,51
0.398401,-0.202613,-0.12679,54
0.396923,-0.201623,-0.125419,53
0.397045,-0.201707,-0.124599,58
0.396946,-0.201643,-0.123705,53
0.395922,-0.200957,-0.122502,57
0.395693,-0.200805,-0.121569,62
0.395815,-0.20089,-0.120753,64
0.394756,-0.200181,-0.119551,62
0.394923,-0.200295,-0.118752,58
0.39461,-0.200087,-0.117799,62
0.393993,-0.199675,-0.11675,62
0.393726,-0.199498,-0.115816,64
0.394285,-0.199875,-0.115145,64
0.393152,-0.199117,-0.113941,64
0.392543,-0.19871,-0.112907,63
0.391894,-0.198276,-0.111863,68
0.39189,-0.198275,-0.11102,73
0.390775,-0.197528,-0.109841,68
0.390772,-0.197529,-0.109002,70
0.390259,-0.197186,-0.108012,71
0.389579,-0.196731,-0.106975,68
0.390425,-0.197302,-0.106391,70
0.38983,-0.196904,-0.105383,70
0.389829,-0.196906,-0.10455,76
0.389786,-0.196879,-0.103706,76
0.390463,-0.197337,-0.103068,80
0.390294,-0.197225,-0.102187,89
0.39004,-0.197057,-0.101285,87
0.389872,-0.196946,-0.100408,86
0.389535,-0.196722,-0.0994852,88
0.389917,-0.196981,-0.0987617,88
0.389877,-0.196956,-0.0979223,84
0.390006,-0.197045,-0.0971293,79
0.39022,-0.197192,-0.0963589,82
0.39035,-0.197282,-0.0955658,84
0.390523,-0.1974,-0.0947838,89
0.391249,-0.19789,-0.0941453,93
0.390616,-0.197467,-0.0931537,97
0.390452,-0.197359,-0.092285,96
0.390161,-0.197165,-0.0913857,89
0.39042,-0.197342,-0.0906262,94
0.39085,-0.197633,-0.0899084,92
0.390856,-0.197639,-0.0890848,97
0.390778,-0.197589,-0.0882411,96
0.391337,-0.197967,-0.0875522,90
0.391429,-0.198031,-0.0867495,94
0.39131,-0.197953,-0.0858965,100
0.391786,-0.198276,-0.0851845,96
0.39205,-0.198455,-0.0844215,100
0.391846,-0.198321,-0.0835498,94
0.392026,-0.198444,-0.0827671,96
0.392505,-0.198768,-0.0820516,97
0.392302,-0.198634,-0.0811818,96
0.392313,-0.198643,-0.0803607,96
0.392153,-0.198538,-0.0795027,102
0.392848,-0.199008,-0.078831,100
0.392946,-0.199075,-0.0780285,109
0.393044,-0.199144,-0.077226,109
0.393099,-0.199183,-0.0764146,108
0.392941,-0.199079,-0.075559,110
0.39334,-0.19935,-0.074819,106
0.393655,-0.199563,-0.0740603,106
0.393112,-0.199201,-0.0731285,108
0.393341,-0.199357,-0.0723527,106
0.3937,-0.1996,-0.0716017,108
0.394102,-0.199873,-0.070858,107
0.394248,-0.199973,-0.0700636,113
0.394868,-0.200392,-0.0693589,118
0.394669,-0.200261,-0.0684984,113
0.394989,-0.200478,-0.067735,110
0.395829,-0.201046,-0.0670658,113
0.395025,-0.200507,-0.0660963,114
0.395131,-0.20058,-0.0652929,114
0.39541,-0.20077,-0.0645199,114
0.395386,-0.200756,-0.0636934,116
0.395796,-0.201034,-0.0629417,119
0.396817,-0.201723,-0.0622918,118
0.396664,-0.201622,-0.0614417,120
0.396773,-0.201698,-0.0606358,124
0.396621,-0.201598,-0.0597874,118
0.397385,-0.202114,-0.0590866,120
0.39719,-0.201985,-0.0582313,117
0.397169,-0.201973,-0.0574044,118
0.396975,-0.201845,-0.0565512,114
0.397218,-0.202011,-0.0557653,117
0.397636,-0.202294,-0.0550046,116
0.397968,-0.20252,-0.0542297,124
0.398126,-0.202628,-0.0534285,124
0.398988,-0.203209,-0.0527268,119
0.398926,-0.203171,-0.0518926,126
0.399351,-0.203458,-0.0511257,133
0.399467,-0.203539,-0.0503154,125
0.399407,-0.203501,-0.0494815,126
0.399304,-0.203433,-0.0486424,126
0.400484,-0.204229,-0.0479691,127
0.400292,-0.204102,-0.0471174,131
0.4009,-0.204514,-0.0463661,130
0.399911,-0.20385,-0.0454176,133
0.401007,-0.20459,-0.0447233,134
0.400595,-0.204315,-0.0438473,130
0.401116,-0.204668,-0.0430809,127
0.401149,-0.204693,-0.0422572,129
0.401183,-0.204717,-0.0414336,126
0.401886,-0.205193,-0.0406828,132
0.403312,-0.206154,-0.0400057,132
0.402135,-0.205365,-0.0390519,133
0.402216,-0.205421,-0.0382314,136
0.402342,-0.205508,-0.0374154,127
0.402782,-0.205806,-0.0366295,136
0.403404,-0.206227,-0.0358591,133
0.403442,-0.206255,-0.035032,139
0.403481,-0.206283,-0.0342049,135
0.40352,-0.206312,-0.0333779,138
0.40392,-0.206583,-0.032582,143
0.404096,-0.206704,-0.0317656,143
0.404046,-0.206672,-0.0309302,141
0.403952,-0.206611,-0.0300917,143
0.404763,-0.207159,-0.0293235,145
0.404488,-0.206977,-0.0284706,145
0.405121,-0.207404,-0.027685,141
0.406122,-0.20808,-0.0269226,144
0.406853,-0.208574,-0.0261374,149
0.406897,-0.208606,-0.025304,151
0.406943,-0.208639,-0.0244705,151
0.406897,-0.208611,-0.0236313,151
0.406944,-0.208644,-0.0227979,151
0.406807,-0.208555,-0.0219539,147
0.406993,-0.208682,-0.0211284,145
0.407225,-0.20884,-0.0203045,148
0.406998,-0.20869,-0.0194567,143
0.407323,-0.20891,-0.0186364,145
0.407281,-0.208885,-0.017798,147
0.407653,-0.209137,-0.016978,149
0.407198,-0.208834,-0.0161221,153
0.40794,-0.209335,-0.0153152,143
0.408224,-0.209528,-0.0144881,150
0.408461,-0.20969,-0.0136583,153
0.409164,-0.210165,-0.0128425,154
0.408708,-0.209861,-0.0119886,152
0.409041,-0.210087,-0.011159,155
0.409328,-0.210282,-0.0103267,154
0.409338,-0.210291,-0.00948661,149
0.409487,-0.210394,-0.00864953,153
0.410383,-0.210999,-0.00782603,153
0.409509,-0.210413,-0.00696881,153
0.409521,-0.210424,-0.00612843,156
0.409254,-0.210247,-0.00528459,153
0.4095,-0.210414,-0.00444712,153
0.409281,-0.210269,-0.00360492,155
0.410928,-0.211379,-0.00277423,159
0.409681,-0.210543,-0.00192632,158
0.410163,-0.210869,-0.00108602,157
0.40948,-0.210412,-0.000244771,157
0.410008,-0.21077,0.00059741,154
0.410492,-0.211098,0.00144172,158
0.410884,-0.211364,0.0022875,160
0.410107,-0.210843,0.0031234,159
0.410827,-0.21133,0.00397414,160
0.410846,-0.211345,0.004818,158
0.410492,-0.211109,0.00565577,161
0.409766,-0.210622,0.00648498,155
0.411001,-0.211456,0.00735245,161
0.409994,-0.210781,0.0081731,166
0.40997,-0.210767,0.00901445,161
0.409759,-0.210627,0.0098506,165
0.410857,-0.211368,0.0107252,162
0.410319,-0.211009,0.011552,162
0.410671,-0.211248,0.0124071,164
0.409902,-0.210732,0.0132227,167
0.409927,-0.210752,0.014066,166
0.410607,-0.211212,0.0149364,171
0.410493,-0.211137,0.0157755,166
0.41024,-0.210969,0.0166078,169
0.409988,-0.210802,0.0174391,172
0.410717,-0.211295,0.0183186,174
0.41084,-0.21138,0.0191698,177
0.410869,-0.211402,0.0200165,181
0.41104,-0.211519,0.0208715,183
0.410088,-0.210881,0.0216611,186
0.410867,-0.211408,0.0225527,186
0.408755,-0.209988,0.0232641,184
0.40837,-0.209731,0.0240799,178
0.408171,-0.2096,0.0249069,179
0.407696,-0.209282,0.0257136,182
0.407499,-0.209152,0.0265386,174
0.406064,-0.208189,0.0272703,175
0.405642,-0.207906,0.0280737,172
0.404857,-0.207381,0.0288467,177
0.404801,-0.207345,0.0296757,174
0.404972,-0.207463,0.0305237,176
0.40469,-0.207275,0.0313337,182
0.404681,-0.207271,0.0321667,181
0.403316,-0.206355,0.0328772,179
0.403759,-0.206655,0.0337494,174
0.402716,-0.205955,0.0344827,174
0.401768,-0.20532,0.0352208,174
0.401538,-0.205167,0.0360262,177
0.401711,-0.205286,0.0368717,179
0.401661,-0.205254,0.0376951,176
0.399833,-0.204026,0.0383299,175
0.399696,-0.203936,0.0391399,178
0.399162,-0.203579,0.0399056,176
0.399027,-0.20349,0.0407141,175
0.399024,-0.20349,0.0415375,178
0.39823,-0.202958,0.0422684,174
0.39814,-0.2029,0.0430801,164
0.397569,-0.202518,0.0438331,160
0.396348,-0.201698,0.0445031,162
0.396999,-0.202139,0.0454044,161
0.397479,-0.202464,0.0462869,166
0.398356,-0.203056,0.0472237,158
0.396782,-0.201999,0.0478387,155
0.39687,-0.202061,0.0486717,151
0.397352,-0.202387,0.0495596,155
0.397441,-0.20245,0.0503951,153
0.398496,-0.203162,0.0513685,154
0.398192,-0.202959,0.0521508,153
0.398108,-0.202905,0.0529643,151
0.397323,-0.202379,0.0536735,152
0.398732,-0.20333,0.0547109,155
0.398342,-0.203069,0.055479,156
0.398259,-0.203016,0.0562936,155
0.398353,-0.203082,0.0571361,153
0.397965,-0.202822,0.0579019,151
0.39894,-0.203481,0.058888,153
0.398683,-0.20331,0.0596759,152
0.399,-0.203526,0.0605587,149
0.398744,-0.203356,0.0613464,153
0.399018,-0.203543,0.0622242,150
0.398895,-0.203462,0.0630347,148
0.399303,-0.203739,0.0639384,152
0.398784,-0.203392,0.0646789,146
0.399547,-0.203908,0.0656491,152
0.399559,-0.203918,0.0664857,150
0.400862,-0.204798,0.0675619,148
0.39985,-0.204119,0.0682105,150
0.40071,-0.2047,0.0692099,149
0.399922,-0.204172,0.0698974,150
0.400158,-0.204333,0.0707807,147
0.400441,-0.204526,0.0716745,147
0.401889,-0.205503,0.0728018,148
0.401591,-0.205305,0.0735849,143
0.401562,-0.205288,0.0744219,143
0.401849,-0.205483,0.0753241,146
0.401957,-0.205558,0.0761908,145
0.403104,-0.206333,0.0772769,143
0.402264,-0.20577,0.0779464,140
0.402735,-0.206089,0.0788941,145
0.40271,-0.206074,0.0797367,143
0.402956,-0.206243,0.0806393,142
0.403385,-0.206534,0.081584,141
0.403771,-0.206796,0.0825212,143
0.404477,-0.207274,0.0835333,146
0.40418,-0.207076,0.0843199,142
0.404569,-0.20734,0.0852639,145
0.405005,-0.207636,0.0862211,145
0.405258,-0.207809,0.087138,141
0.405283,-0.207828,0.0880021,138
0.405907,-0.208251,0.0890106,140
0.405565,-0.208023,0.0897883,140
0.405545,-0.208012,0.090644,137
0.406542,-0.208685,0.0917509,138
0.406246,-0.208488,0.0925409,142
0.40632,-0.208541,0.0934231,140
0.407556,-0.209375,0.0946011,140
0.407539,-0.209366,0.0954643,143
0.407756,-0.209515,0.0963885,141
0.407833,-0.209569,0.0972778,140
0.408285,-0.209876,0.0982666,141
0.408364,-0.209931,0.099159,138
0.407835,-0.209577,0.0998896,136
0.40857,-0.210075,0.10096,139
0.408838,-0.210258,0.101906,133
0.408402,-0.209967,0.102662,133
0.409141,-0.210467,0.103741,138
0.409271,-0.210557,0.104654,139
0.410488,-0.211379,0.105875,134
0.409815,-0.210928,0.106565,138
0.410704,-0.211529,0.1077,137
0.410031,-0.211078,0.108388,142
0.410828,-0.211617,0.109502,143
0.410154,-0.211166,0.110189,142
0.411239,-0.211899,0.111393,138
0.410233,-0.211224,0.11198,139
0.411224,-0.211894,0.113162,138
0.411551,-0.212117,0.114149,138
0.410591,-0.211473,0.114745,137
0.41049,-0.211407,0.115602,139
0.411247,-0.211919,0.116724,137
0.410574,-0.211468,0.117404,143
0.411333,-0.211982,0.118532,138
0.410661,-0.211531,0.119211,140
0.411756,-0.212272,0.120452,145
0.411657,-0.212207,0.121314,137
0.41108,-0.211821,0.122022,137
0.411317,-0.211983,0.122993,140
0.411363,-0.212017,0.123903,140
0.411937,-0.212406,0.124989,146
0.41136,-0.21202,0.125694,145
0.411312,-0.21199,0.126575,138
0.410738,-0.211605,0.127279,136
0.410929,-0.211737,0.128241,141
0.411265,-0.211965,0.129254,138
0.410835,-0.211678,0.130006,139
0.410741,-0.211617,0.130873,146
0.411318,-0.212008,0.131974,142
0.411801,-0.212336,0.133046,149
0.412093,-0.212535,0.134053,152
0.411519,-0.212151,0.134754,153
0.410373,-0.211381,0.135246,162
0.410711,-0.211612,0.136271,158
0.410285,-0.211327,0.13702,161
0.409813,-0.211011,0.137751,164
0.409009,-0.210472,0.138358,159
0.408777,-0.210318,0.139174,157
0.408261,-0.209973,0.139884,154
0.408362,-0.210043,0.140823,152
0.407187,-0.209254,0.141282,153
0.406817,-0.209007,0.142042,155
0.406261,-0.208635,0.142729,159
0.405332,-0.208011,0.143271,154
0.406368,-0.208712,0.144572,154
0.40474,-0.207618,0.144838,148
0.404515,-0.207468,0.145648,154
0.404244,-0.207288,0.14644,153
0.403557,-0.206827,0.147066,151
0.40338,-0.206711,0.147893,150
0.402466,-0.206097,0.148424,149
0.402428,-0.206074,0.149306,152
0.40184,-0.20568,0.149964,149
0.401344,-0.205348,0.150658,147
0.40085,-0.205018,0.151351,150
0.400312,-0.204658,0.152024,149
0.400094,-0.204513,0.152829,147
0.400059,-0.204492,0.15371,145
0.39975,-0.204286,0.154476,150
0.39908,-0.203837,0.155089,148
0.399136,-0.203877,0.156008,139
0.398107,-0.203186,0.156464,140
0.398569,-0.2035,0.157558,129
0.397768,-0.202963,0.158108,129
0.397825,-0.203003,0.159028,123
0.397881,-0.203044,0.15995,123
0.398345,-0.203359,0.161052,121
0.398087,-0.203187,0.161837,117
0.398145,-0.203228,0.162762,114
0.397932,-0.203087,0.163568,117
0.398307,-0.203343,0.164638,118
0.398004,-0.203141,0.165403,116
0.398562,-0.20352,0.16656,109
0.399031,-0.203838,0.16768,99
0.399046,-0.203851,0.168594,111
0.39897,-0.203802,0.169467,108
0.399168,-0.203938,0.170468,107
0.399778,-0.204352,0.171663,103
0.399932,-0.204458,0.172648,108
0.399492,-0.204164,0.173353,111
0.399464,-0.204147,0.174253,100
0.400123,-0.204594,0.175481,96
0.400646,-0.20495,0.176649,97
0.400942,-0.205151,0.177711,88
0.399903,-0.204453,0.178127,85
0.401999,-0.205869,0.180068,95
0.401695,-0.205666,0.180843,94
0.401391,-0.205464,0.181618,89
0.402993,-0.206547,0.183337,94
0.402315,-0.206092,0.183929,91
0.402058,-0.205921,0.184729,94
0.402966,-0.206536,0.186115,95
0.402662,-0.206333,0.186894,94
0.403059,-0.206604,0.188028,95
0.403035,-0.20659,0.188951,94
0.403575,-0.206957,0.190163,91
0.403553,-0.206944,0.191089,89
0.403295,-0.206773,0.191894,78
0.403838,-0.207142,0.193115,84
0.404099,-0.20732,0.194193,85
0.404929,-0.207883,0.195572,85
0.404672,-0.207712,0.196381,85
0.404178,-0.207381,0.197066,81
0.404773,-0.207785,0.198329,77
0.405419,-0.208223,0.199623,83
0.405304,-0.208148,0.200512,141
0.405142,-0.208042,0.201376,78
0.405076,-0.208,0.202292,80
0.40482,-0.20783,0.203105,77
0.384477,-0.197093,-0.204328,6
0.392597,-0.202639,-0.208078,13
0.387241,-0.198985,-0.204091,12
0.388463,-0.199822,-0.203873,11
0.38895,-0.200157,-0.203233,16
0.385327,-0.197686,-0.200276,16
0.385935,-0.198104,-0.199712,11
0.38573,-0.197966,-0.19869,15
0.386856,-0.198737,-0.198411,14
0.38265,-0.195868,-0.195178,11
0.389258,-0.200383,-0.197922,8
0.387746,-0.199353,-0.196182,11
0.387065,-0.19889,-0.194904,8
0.387204,-0.198987,-0.194076,12
0.386183,-0.198292,-0.192621,15
0.385296,-0.19769,-0.191244,15
0.387063,-0.198898,-0.191293,13
0.388933,-0.200178,-0.19139,12
0.388336,-0.199773,-0.190169,17
0.388001,-0.199546,-0.189091,17
0.388315,-0.199763,-0.188356,22
0.389455,-0.200544,-0.188052,21
0.388425,-0.199843,-0.186614,17
0.38723,-0.19903,-0.185097,16
0.391371,-0.20186,-0.186337,17
0.390069,-0.200973,-0.184765,16
0.389646,-0.200687,-0.183649,15
0.391847,-0.202192,-0.183869,19
0.388199,-0.199704,-0.181122,16
0.390819,-0.201495,-0.181547,20
0.388918,-0.200199,-0.179697,15
0.391064,-0.201668,-0.179873,17
0.390336,-0.201173,-0.178614,22
0.395074,-0.204411,-0.180057,21
0.392028,-0.202333,-0.177656,18
0.39257,-0.202706,-0.177023,22
0.392321,-0.202538,-0.176004,20
0.392072,-0.20237,-0.174987,23
0.392527,-0.202684,-0.174311,23
0.392718,-0.202817,-0.173507,25
0.394194,-0.203827,-0.173314,25
0.396623,-0.205489,-0.173567,24
0.394269,-0.203884,-0.171555,24
0.395533,-0.204749,-0.17125,23
0.393505,-0.203366,-0.169406,27
0.394896,-0.204319,-0.169158,27
0.395538,-0.20476,-0.168558,27
0.394309,-0.203923,-0.167098,23
0.396332,-0.205308,-0.167129,27
0.399242,-0.207297,-0.167553,28
0.394806,-0.20427,-0.164646,28
0.396386,-0.205351,-0.164464,28
0.395867,-0.205,-0.163338,28
0.396109,-0.205168,-0.162553,36
0.397339,-0.20601,-0.162204,28
0.398441,-0.206766,-0.161793,32
0.397378,-0.206041,-0.160432,33
0.399251,-0.207323,-0.160353,32
0.397328,-0.206012,-0.158624,32
0.398882,-0.207076,-0.158401,34
0.399356,-0.207403,-0.157709,33
0.398923,-0.207109,-0.15663,40
0.399852,-0.207746,-0.156129,35
0.400512,-0.208199,-0.155511,37
0.400716,-0.208341,-0.154701,38
0.400236,-0.208016,-0.153606,36
0.401217,-0.208689,-0.153117,35
0.401882,-0.209145,-0.152495,36
0.402872,-0.209824,-0.152003,37
0.402249,-0.209401,-0.150853,39
0.403473,-0.210239,-0.15045,37
0.401195,-0.208685,-0.14864,46
0.401219,-0.208704,-0.147758,37
0.401243,-0.208723,-0.146877,39
0.400994,-0.208555,-0.145888,38
0.401705,-0.209044,-0.145278,40
0.401684,-0.209032,-0.14438,39
0.402536,-0.209617,-0.14382,43
0.401324,-0.208791,-0.142464,40
0.402818,-0.209814,-0.142147,38
0.401972,-0.209239,-0.140937,45
0.40177,-0.209103,-0.139974,44
0.401204,-0.208719,-0.138876,41
0.400232,-0.208056,-0.13763,42
0.399671,-0.207676,-0.136542,45
0.400153,-0.208007,-0.13584,46
0.399458,-0.207535,-0.134708,50
0.399398,-0.207496,-0.133809,46
0.397499,-0.206201,-0.132249,49
0.398828,-0.207112,-0.131853,57
0.39841,-0.206828,-0.130831,47
0.399159,-0.207343,-0.130224,56
0.397712,-0.206356,-0.128843,54
0.396277,-0.205378,-0.127475,52
0.39662,-0.205615,-0.126728,57
0.39546,-0.204824,-0.125465,58
0.395537,-0.204879,-0.124629,60
0.394823,-0.204394,-0.123526,53
0.395076,-0.204569,-0.122753,57
0.395155,-0.204625,-0.12192,59
0.394575,-0.204232,-0.120869,58
0.394042,-0.20387,-0.119837,62
0.393251,-0.203331,-0.118724,64
0.392463,-0.202795,-0.117616,67
0.392932,-0.203118,-0.116918,61
0.393925,-0.203799,-0.116385,59
0.393006,-0.203173,-0.115241,69
0.393564,-0.203557,-0.114568,65
0.392735,-0.202992,-0.113459,71
0.391781,-0.202343,-0.112315,67
0.391347,-0.202049,-0.111337,70
0.390615,-0.201551,-0.11027,73
0.389717,-0.200939,-0.109157,68
0.389545,-0.200824,-0.108267,65
0.38933,-0.200679,-0.107366,70
0.38861,-0.200189,-0.106316,75
0.387725,-0.199587,-0.105222,78
0.387514,-0.199445,-0.104329,76
0.388438,-0.200079,-0.103766,89
0.387555,-0.199478,-0.102681,83
0.387891,-0.199709,-0.101948,79
0.387934,-0.199741,-0.10113,71
0.387683,-0.199572,-0.100231,81
0.388524,-0.200149,-0.0996369,75
0.388358,-0.200037,-0.0987617,88
0.388024,-0.199811,-0.097842,85
0.388867,-0.20039,-0.0972433,81
0.388365,-0.200049,-0.0962799,84
0.388621,-0.200226,-0.095521,85
0.388078,-0.199858,-0.0945508,83
0.388502,-0.20015,-0.0938364,87
0.388422,-0.200097,-0.09299,94
0.388427,-0.200103,-0.0921662,95
0.389443,-0.2008,-0.0916003,90
0.389322,-0.200719,-0.0907432,88
0.38899,-0.200495,-0.0898347,89
0.389081,-0.200559,-0.0890326,95
0.388961,-0.200479,-0.0881791,95
0.389305,-0.200717,-0.0874393,95
0.389777,-0.201042,-0.0867291,99
0.389574,-0.200905,-0.0858562,99
0.391023,-0.201898,-0.085375,101
0.390056,-0.201239,-0.0843224,102
0.3907,-0.201682,-0.0836481,104
0.390371,-0.201459,-0.0827477,97
0.390423,-0.201497,-0.081936,101
0.390433,-0.201506,-0.0811151,104
0.390613,-0.201631,-0.0803324,99
0.390921,-0.201844,-0.0795775,108
0.391103,-0.201971,-0.0787939,110
0.390648,-0.201662,-0.0778728,108
0.391595,-0.202312,-0.0772533,105
0.39131,-0.202119,-0.0763697,110
0.392048,-0.202626,-0.0757014,110
0.391805,-0.202462,-0.0748278,110
0.391691,-0.202386,-0.0739819,112
0.392175,-0.202719,-0.0732576,113
0.39155,-0.202294,-0.0723102,108
0.392034,-0.202628,-0.0715849,112
0.392093,-0.20267,-0.0707747,108
0.392579,-0.203005,-0.0700471,110
0.392896,-0.203223,-0.0692853,111
0.393471,-0.203619,-0.0685711,112
0.39323,-0.203457,-0.0677031,116
0.3948,-0.204533,-0.067169,116
0.393567,-0.203692,-0.0661197,113
0.393629,-0.203736,-0.0653083,117
0.393907,-0.203928,-0.0645351,117
0.393711,-0.203797,-0.0636784,122
0.394983,-0.204669,-0.0630758,120
0.395004,-0.204685,-0.062255,117
0.394247,-0.20417,-0.061304,113
0.39496,-0.20466,-0.0606,119
0.394852,-0.204588,-0.0597591,121
0.395264,-0.204872,-0.0590027,122
0.395331,-0.20492,-0.05819,129
0.395137,-0.20479,-0.0573366,124
0.395378,-0.204957,-0.0565512,124
0.39588,-0.205302,-0.0558049,125
0.396166,-0.2055,-0.0550242,126
0.397108,-0.206147,-0.0543392,125
0.395999,-0.205391,-0.0533526,118
0.396243,-0.20556,-0.0525646,122
0.397056,-0.206118,-0.0518557,128
0.397346,-0.206318,-0.0510711,125
0.397417,-0.20637,-0.0502557,128
0.398589,-0.207173,-0.0495875,127
0.397957,-0.206743,-0.0486771,129
0.398735,-0.207278,-0.047952,131
0.398942,-0.207421,-0.047151,131
0.398222,-0.206932,-0.0462339,130
0.398738,-0.207286,-0.0454716,131
0.399299,-0.207673,-0.0447127,132
0.398978,-0.207455,-0.0438473,129
0.399275,-0.207661,-0.0430552,131
0.400017,-0.208171,-0.0423125,132
0.400006,-0.208165,-0.041483,132
0.399996,-0.20816,-0.0406537,130
0.400386,-0.208429,-0.0398675,132
0.400198,-0.208304,-0.0390193,137
0.40059,-0.208574,-0.0382314,134
0.401474,-0.209181,-0.0374913,134
0.401914,-0.209484,-0.0367039,136
0.401951,-0.209512,-0.0358763,135
0.402393,-0.209816,-0.0350864,138
0.402477,-0.209876,-0.0342621,138
0.402516,-0.209904,-0.0334337,137
0.402735,-0.210057,-0.0326209,139
0.403046,-0.210272,-0.0318149,144
0.402951,-0.210209,-0.0309745,141
0.404395,-0.211199,-0.0302574,141
0.403349,-0.210486,-0.029341,143
0.404116,-0.211013,-0.0285659,142
0.403932,-0.210889,-0.027718,142
0.404112,-0.211014,-0.0268969,141
0.404473,-0.211264,-0.0260875,144
0.405155,-0.211733,-0.0252979,147
0.405246,-0.211798,-0.0244675,149
0.405201,-0.211769,-0.0236284,150
0.404973,-0.211615,-0.0227789,143
0.405339,-0.211868,-0.0219644,144
0.406394,-0.212592,-0.0211863,151
0.406075,-0.212376,-0.0203311,152
0.406124,-0.212412,-0.019496,146
0.406632,-0.212762,-0.0186829,146
0.406361,-0.212578,-0.0178318,150
0.407377,-0.213276,-0.0170384,156
0.405637,-0.212088,-0.0161259,146
0.406835,-0.21291,-0.0153369,144
0.407025,-0.213042,-0.0145052,154
0.407401,-0.213301,-0.0136791,151
0.407408,-0.213309,-0.0128395,151
0.407508,-0.21338,-0.0120026,154
0.408303,-0.213926,-0.011185,155
0.408451,-0.214029,-0.010347,154
0.407443,-0.213342,-0.00948115,155
0.407591,-0.213445,-0.00864459,157
0.407555,-0.213423,-0.00780386,157
0.408353,-0.213972,-0.00697741,156
0.408087,-0.213792,-0.00613182,157
0.409354,-0.214661,-0.00530647,157
0.407927,-0.213687,-0.00444806,162
0.409008,-0.214429,-0.00361594,156
0.407908,-0.213678,-0.00276659,160
0.40885,-0.214326,-0.00192919,157
0.409378,-0.214689,-0.00108707,159
0.409394,-0.214702,-0.000243108,161
0.40927,-0.21462,0.000600475,161
0.409054,-0.214474,0.00144301,158
0.409118,-0.21452,0.00228678,166
0.409369,-0.214694,0.00313273,161
0.409294,-0.214646,0.00397585,161
0.409407,-0.214725,0.00482139,160
0.40966,-0.2149,0.00566983,166
0.409027,-0.21447,0.00650262,160
0.408955,-0.214423,0.00734453,163
0.409489,-0.214791,0.00820042,165
0.409278,-0.214648,0.00903958,160
0.409161,-0.21457,0.00988049,165
0.40937,-0.214716,0.0107308,166
0.409581,-0.214862,0.0115822,168
0.409139,-0.214562,0.012412,167
0.40921,-0.214613,0.0132588,168
0.409003,-0.214474,0.0140951,169
0.408982,-0.214462,0.0149383,165
0.408358,-0.214037,0.0157552,168
0.408014,-0.213804,0.0165822,172
0.408273,-0.213983,0.0174368,174
0.409231,-0.214642,0.018328,179
0.409167,-0.2146,0.0191698,181
0.408917,-0.214431,0.0200012,176
0.407232,-0.21328,0.0207495,180
0.406893,-0.21305,0.0215704,177
0.406509,-0.21279,0.0223872,177
0.406402,-0.212719,0.02322,181
0.40625,-0.212617,0.0240495,183
0.405458,-0.212077,0.0248347,180
0.404214,-0.211228,0.0255847,179
0.40402,-0.211098,0.0264056,181
0.403917,-0.21103,0.0272328,175
0.403589,-0.210807,0.0280422,175
0.40317,-0.210523,0.0288431,176
0.403115,-0.210487,0.029672,174
0.402429,-0.21002,0.0304478,174
0.402239,-0.209892,0.0312637,168
0.401557,-0.209428,0.0320352,175
0.401638,-0.209486,0.0328732,172
0.401138,-0.209145,0.0336576,173
0.400907,-0.20899,0.0344656,171
0.400499,-0.208712,0.0352555,176
0.40027,-0.208558,0.0360617,172
0.400131,-0.208465,0.0368763,181
0.399415,-0.207977,0.0376303,176
0.399854,-0.20828,0.0385043,173
0.39914,-0.207794,0.0392552,180
0.398122,-0.207099,0.0399691,180
0.397723,-0.206828,0.0407489,174
0.397325,-0.206558,0.0415274,175
0.396973,-0.206319,0.0423096,167
0.397364,-0.206589,0.0431799,172
0.397144,-0.20644,0.0439773,167
0.39723,-0.206502,0.0448123,161
0.396792,-0.206204,0.0455813,155
0.396836,-0.206236,0.0464108,154
0.396181,-0.20579,0.0471491,153
0.396487,-0.206002,0.0480131,154
0.397583,-0.206754,0.0489862,159
0.397541,-0.206728,0.0498073,157
0.397367,-0.206611,0.05061,157
0.397239,-0.206525,0.0514186,159
0.39733,-0.20659,0.0522588,154
0.396546,-0.206055,0.0529707,151
0.396462,-0.206001,0.0537843,155
0.396118,-0.205767,0.0545582,151
0.397128,-0.206461,0.0555397,148
0.397222,-0.206527,0.0563827,155
0.397579,-0.206775,0.0572683,147
0.397718,-0.206872,0.0581207,154
0.397593,-0.206789,0.058931,151
0.398129,-0.207158,0.0598506,152
0.397741,-0.206894,0.0606178,151
0.398367,-0.207326,0.0615561,150
0.399707,-0.208245,0.0626207,154
0.398962,-0.207737,0.0633276,149
0.399105,-0.207838,0.0641887,149
0.399205,-0.207908,0.065043,150
0.398463,-0.207403,0.0657453,151
0.398563,-0.207474,0.0665994,156
0.398842,-0.207666,0.0674875,151
0.399121,-0.20786,0.0683775,148
0.400069,-0.208512,0.0693967,144
0.399059,-0.207822,0.0700428,148
0.399919,-0.208414,0.0710498,144
0.399756,-0.208304,0.071859,146
0.400263,-0.208653,0.0728018,147
0.400592,-0.208881,0.0737115,145
0.400654,-0.208926,0.0745683,146
0.400761,-0.209001,0.0754353,149
0.401048,-0.2092,0.0763408,146
0.401606,-0.209585,0.0773055,145
0.402032,-0.209879,0.0782447,147
0.402912,-0.210484,0.0792846,144
0.402932,-0.2105,0.0801413,147
0.40309,-0.21061,0.0810287,142
0.402747,-0.210378,0.081806,141
0.402951,-0.21052,0.0827051,143
0.403292,-0.210756,0.0836369,141
0.403405,-0.210836,0.0845185,144
0.403566,-0.210948,0.0854119,147
0.404001,-0.211249,0.086371,142
0.405035,-0.211959,0.0874745,142
0.404371,-0.211507,0.0881772,138
0.404764,-0.211778,0.0891325,142
0.404929,-0.211893,0.0900344,141
0.405001,-0.211946,0.0909151,138
0.405721,-0.212441,0.0919572,139
0.406398,-0.212907,0.0929924,136
0.405408,-0.212231,0.0936097,141
0.406549,-0.213015,0.0947669,138
0.406532,-0.213006,0.0956317,137
0.406562,-0.213029,0.0965092,139
0.407059,-0.213371,0.0975096,142
0.40709,-0.213395,0.0983899,139
0.406982,-0.213324,0.0992336,141
0.407435,-0.213636,0.100228,140
0.4085,-0.214368,0.101392,137
0.408251,-0.2142,0.102202,140
0.408051,-0.214065,0.103024,141
0.408179,-0.214156,0.103937,140
0.408215,-0.214182,0.104826,136
0.40943,-0.215017,0.106049,139
0.40871,-0.214527,0.106726,139
0.408936,-0.214684,0.107673,140
0.409921,-0.215361,0.108841,143
0.410007,-0.215422,0.109752,149
0.409239,-0.214899,0.110412,146
0.40999,-0.215415,0.11152,141
0.410029,-0.215445,0.11242,142
0.409832,-0.215312,0.113248,137
0.409968,-0.215408,0.114178,140
0.409439,-0.215048,0.114905,137
0.410241,-0.2156,0.116042,133
0.410141,-0.215533,0.116902,138
0.410422,-0.215729,0.117882,143
0.410179,-0.215565,0.118698,142
0.410127,-0.215532,0.119574,142
0.410506,-0.215793,0.120589,140
0.410598,-0.215859,0.121514,144
0.4105,-0.215794,0.122378,142
0.410785,-0.215992,0.123368,148
0.410544,-0.215829,0.124187,148
0.410208,-0.215602,0.124973,150
0.410064,-0.215505,0.125822,145
0.409539,-0.215148,0.126543,142
0.410494,-0.215805,0.127765,148
0.409873,-0.215382,0.128453,142
0.410448,-0.215778,0.129551,139
0.410114,-0.215552,0.130337,141
0.410211,-0.215621,0.131272,141
0.410022,-0.215494,0.132109,144
0.41036,-0.215728,0.133131,144
0.409693,-0.215274,0.133798,150
0.410799,-0.216034,0.135098,155
0.40951,-0.215153,0.135539,158
0.408704,-0.214603,0.13615,159
0.408281,-0.214315,0.136899,163
0.407906,-0.214061,0.137664,160
0.408148,-0.214229,0.138656,166
0.407774,-0.213976,0.139421,162
0.406505,-0.213109,0.139848,161
0.406323,-0.212986,0.140681,153
0.405812,-0.212639,0.141389,160
0.406053,-0.212806,0.142382,159
0.404376,-0.211659,0.142639,155
0.403918,-0.211348,0.143361,150
0.403553,-0.2111,0.144118,157
0.403375,-0.21098,0.144947,155
0.403105,-0.210798,0.14574,151
0.402789,-0.210583,0.146513,154
0.402519,-0.210401,0.147305,155
0.401836,-0.209935,0.14793,158
0.401431,-0.20966,0.148665,156
0.400752,-0.209197,0.149287,148
0.401357,-0.209614,0.150432,154
0.400084,-0.208744,0.150808,147
0.39941,-0.208285,0.151426,143
0.399192,-0.208138,0.152232,145
0.398748,-0.207836,0.152943,149
0.398621,-0.207752,0.153786,145
0.397772,-0.207172,0.154323,143
0.397647,-0.207089,0.155166,134
0.397207,-0.206789,0.155873,134
0.397263,-0.20683,0.156793,131
0.397725,-0.207149,0.15789,132
0.39733,-0.206881,0.158617,123
0.397207,-0.206799,0.159462,120
0.397489,-0.206995,0.160485,119
0.397231,-0.206821,0.161271,111
0.397199,-0.206801,0.162158,112
0.39848,-0.207682,0.163633,108
0.398266,-0.207538,0.164443,116
0.398054,-0.207394,0.165252,122
0.398204,-0.2075,0.166227,110
0.397901,-0.207295,0.166995,112
0.398461,-0.207681,0.168161,106
0.398431,-0.207663,0.169056,114
0.398447,-0.207677,0.169974,107
0.3986,-0.207784,0.170957,115
0.398936,-0.208017,0.172027,113
0.398314,-0.207593,0.172648,116
0.399016,-0.208077,0.173895,112
0.3994,-0.208343,0.174994,106
0.399924,-0.208704,0.176164,101
0.399942,-0.208719,0.177093,100
0.399732,-0.208577,0.177911,95
0.40109,-0.209511,0.179495,95
0.400416,-0.209052,0.18009,89
0.400436,-0.209068,0.181025,96
0.400364,-0.209021,0.181915,100
0.400478,-0.209101,0.182898,104
0.400823,-0.209341,0.183999,99
0.402008,-0.210156,0.185524,101
0.401611,-0.209886,0.186256,93
0.40182,-0.210032,0.187296,96
0.401983,-0.210147,0.188314,87
0.402241,-0.210326,0.189382,87
0.402546,-0.210538,0.190477,84
0.402524,-0.210525,0.191404,91
0.402548,-0.210544,0.192357,81
0.403421,-0.211145,0.193754,86
0.403211,-0.211004,0.194588,87
0.402719,-0.210669,0.195273,93
0.402276,-0.210368,0.195982,85
0.40381,-0.211423,0.197745,92
0.403885,-0.211477,0.198734,83
0.403487,-0.211206,0.19947,88
0.40361,-0.211293,0.200486,146
0.404017,-0.211575,0.201659,85
0.404236,-0.211728,0.202732,82
0.404456,-0.211881,0.203808,87
0.394712,-0.208296,-0.211162,13
0.38949,-0.204673,-0.207211,8
0.383017,-0.200181,-0.20257,12
0.386233,-0.202417,-0.203502,11
0.38495,-0.201528,-0.201858,13
0.385516,-0.201923,-0.201269,12
0.385309,-0.201782,-0.200242,14
0.386911,-0.202897,-0.200233,10
0.39068,-0.205517,-0.201428,13
0.386884,-0.202884,-0.198395,13
0.388151,-0.203766,-0.198187,20
0.385053,-0.201617,-0.195567,10
0.384678,-0.201359,-0.194458,12
0.390189,-0.205189,-0.196566,11
0.386628,-0.202718,-0.193715,12
0.392063,-0.206495,-0.195752,16
0.387425,-0.203277,-0.192336,19
0.38852,-0.204039,-0.192018,14
0.387402,-0.203266,-0.190515,13
0.389456,-0.204695,-0.190702,14
0.390211,-0.205221,-0.190193,12
0.388736,-0.2042,-0.188509,15
0.387577,-0.203397,-0.186998,23
0.388628,-0.20413,-0.186645,17
0.387946,-0.203659,-0.18539,18
0.389523,-0.204756,-0.185304,20
0.390278,-0.205283,-0.184789,18
0.390553,-0.205476,-0.184026,26
0.389342,-0.204638,-0.182506,20
0.392031,-0.206508,-0.182967,25
0.390635,-0.205541,-0.181359,23
0.390341,-0.205339,-0.18031,19
0.391408,-0.206082,-0.179942,24
0.390763,-0.205637,-0.178721,20
0.390777,-0.205649,-0.177829,23
0.392951,-0.207161,-0.177998,24
0.392654,-0.206958,-0.17695,23
0.392227,-0.206664,-0.175841,26
0.392683,-0.206983,-0.175162,23
0.392654,-0.206965,-0.174248,21
0.392757,-0.20704,-0.173399,19
0.393083,-0.207268,-0.172655,30
0.392435,-0.206821,-0.17145,20
0.395521,-0.208966,-0.172008,16
0.395536,-0.20898,-0.171113,32
0.396857,-0.2099,-0.170827,27
0.394629,-0.208355,-0.168889,29
0.396079,-0.209364,-0.168659,28
0.398265,-0.210885,-0.168762,28
0.395574,-0.209018,-0.166627,31
0.394966,-0.208598,-0.165453,33
0.396282,-0.209515,-0.165151,34
0.39612,-0.209405,-0.16418,33
0.398034,-0.210737,-0.164138,34
0.397102,-0.210092,-0.162823,28
0.395683,-0.209109,-0.161298,31
0.395434,-0.208939,-0.160295,33
0.39888,-0.211335,-0.160907,33
0.396953,-0.209999,-0.15917,34
0.398329,-0.210957,-0.15887,35
0.396275,-0.209532,-0.15709,39
0.397826,-0.210612,-0.156861,36
0.397801,-0.210598,-0.155956,43
0.397777,-0.210583,-0.155052,38
0.398659,-0.211198,-0.154529,39
0.398771,-0.211279,-0.153681,36
0.397978,-0.21073,-0.152458,39
0.398453,-0.211062,-0.151763,40
0.398792,-0.211301,-0.15101,46
0.400638,-0.212586,-0.150871,36
0.400341,-0.212382,-0.149855,38
0.399634,-0.211893,-0.148676,44
0.399613,-0.211881,-0.147776,39
0.400138,-0.212248,-0.147094,40
0.400162,-0.212267,-0.146212,36
0.401928,-0.213497,-0.146016,40
0.400304,-0.21237,-0.144487,39
0.400056,-0.212201,-0.143501,35
0.399354,-0.211716,-0.142341,39
0.401112,-0.21294,-0.14213,39
0.39909,-0.211537,-0.140469,41
0.399117,-0.211558,-0.139595,37
0.399054,-0.211517,-0.138688,41
0.397103,-0.210163,-0.137076,41
0.398974,-0.211466,-0.136894,41
0.396535,-0.209773,-0.135112,51
0.396787,-0.209951,-0.13433,50
0.396549,-0.209788,-0.133369,53
0.397114,-0.210183,-0.1327,55
0.397457,-0.210424,-0.13195,55
0.398475,-0.211134,-0.131439,52
0.396092,-0.20948,-0.129717,52
0.396346,-0.209659,-0.128937,58
0.395756,-0.209252,-0.127861,58
0.395169,-0.208846,-0.12679,63
0.394365,-0.20829,-0.125647,57
0.393434,-0.207645,-0.124464,55
0.395975,-0.209413,-0.12447,55
0.393501,-0.207696,-0.122768,57
0.393666,-0.207814,-0.121964,58
0.392742,-0.207173,-0.120797,64
0.393474,-0.207684,-0.120183,59
0.391685,-0.206443,-0.118738,60
0.392456,-0.206982,-0.118138,57
0.39167,-0.206438,-0.117029,62
0.392182,-0.206796,-0.116343,60
0.391054,-0.206014,-0.115131,70
0.391306,-0.206192,-0.114363,66
0.391775,-0.20652,-0.113662,71
0.390736,-0.205801,-0.112489,74
0.390646,-0.20574,-0.111615,73
0.390171,-0.205412,-0.110624,64
0.389527,-0.204967,-0.109584,75
0.388293,-0.204112,-0.108369,71
0.387953,-0.203878,-0.107429,72
0.387614,-0.203644,-0.106491,80
0.387444,-0.203528,-0.105606,82
0.386897,-0.20315,-0.104611,74
0.385602,-0.202253,-0.103402,83
0.385602,-0.202255,-0.102573,83
0.386645,-0.202982,-0.102043,81
0.385811,-0.202405,-0.100976,85
0.385771,-0.202379,-0.100137,86
0.387024,-0.203253,-0.0996603,85
0.386733,-0.203052,-0.0987501,89
0.38661,-0.202969,-0.0978879,87
0.386988,-0.203234,-0.0971635,94
0.38599,-0.202542,-0.096066,88
0.386034,-0.202576,-0.0952529,84
0.386789,-0.203102,-0.0946283,86
0.387378,-0.203515,-0.0939575,86
0.386588,-0.202968,-0.0929247,87
0.387387,-0.203525,-0.0923067,92
0.387016,-0.203269,-0.0913857,89
0.387356,-0.203508,-0.0906475,92
0.386902,-0.203195,-0.0897085,92
0.387284,-0.203463,-0.0889805,104
0.3875,-0.203615,-0.0882101,92
0.387633,-0.20371,-0.0874188,98
0.388018,-0.20398,-0.0866884,99
0.388236,-0.204134,-0.0859167,96
0.38837,-0.204229,-0.0851245,95
0.388253,-0.20415,-0.084273,96
0.389231,-0.204832,-0.0836776,97
0.388734,-0.204489,-0.082738,96
0.388533,-0.204352,-0.0818687,97
0.388796,-0.204537,-0.0811056,104
0.388512,-0.204342,-0.0802194,103
0.389113,-0.204762,-0.0795307,104
0.38997,-0.20536,-0.0788959,106
0.389179,-0.204812,-0.0779002,104
0.388896,-0.204617,-0.0770177,108
0.389668,-0.205157,-0.0763607,110
0.389639,-0.205139,-0.0755324,106
0.389526,-0.205062,-0.0746872,110
0.389836,-0.20528,-0.0739297,111
0.390359,-0.205646,-0.0732145,105
0.390416,-0.205688,-0.0724038,107
0.390601,-0.205819,-0.0716186,115
0.390999,-0.206098,-0.0708747,111
0.390803,-0.205963,-0.0700141,116
0.391202,-0.206244,-0.069269,117
0.391176,-0.206228,-0.0684419,114
0.391706,-0.206598,-0.0677191,116
0.391595,-0.206524,-0.0668761,117
0.39187,-0.206717,-0.0661041,121
0.391889,-0.206732,-0.0652852,123
0.392464,-0.207135,-0.0645656,123
0.392655,-0.20727,-0.0637762,118
0.393277,-0.207705,-0.0630609,118
0.393298,-0.207721,-0.0622402,121
0.392846,-0.207409,-0.0613402,121
0.393814,-0.208085,-0.0606789,125
0.393577,-0.207923,-0.0598156,127
0.393772,-0.20806,-0.0590237,126
0.393493,-0.207869,-0.0581556,132
0.39451,-0.208578,-0.0574928,129
0.394447,-0.208537,-0.0566584,128
0.395427,-0.20922,-0.0559838,125
0.39506,-0.208967,-0.0551025,125
0.394782,-0.208776,-0.0542362,123
0.395154,-0.209037,-0.0534665,126
0.395746,-0.209451,-0.0527268,129
0.396122,-0.209715,-0.0519542,122
0.397025,-0.210345,-0.0512535,127
0.397009,-0.210336,-0.0504232,130
0.397344,-0.210572,-0.0496406,133
0.398299,-0.211238,-0.0489386,127
0.397798,-0.210892,-0.0480434,134
0.39796,-0.211007,-0.0472354,134
0.397286,-0.210541,-0.0463219,132
0.397801,-0.210901,-0.0455582,130
0.398141,-0.21114,-0.0447713,131
0.397776,-0.210888,-0.0438995,129
0.398161,-0.211158,-0.0431168,130
0.398458,-0.211367,-0.0423226,131
0.398668,-0.211516,-0.0415176,127
0.399901,-0.212375,-0.0408238,128
0.399624,-0.212185,-0.0399627,136
0.39917,-0.211871,-0.0390845,131
0.400184,-0.212579,-0.0383594,138
0.400398,-0.212731,-0.0375495,137
0.400569,-0.212851,-0.0367346,141
0.400249,-0.212631,-0.035872,139
0.401046,-0.213188,-0.0351158,140
0.400905,-0.213092,-0.0342703,137
0.400944,-0.213122,-0.0334417,137
0.401387,-0.213432,-0.0326482,136
0.401427,-0.213462,-0.0318187,137
0.401646,-0.213617,-0.0310041,135
0.401822,-0.213742,-0.0301851,145
0.402449,-0.21418,-0.0294007,142
0.402853,-0.214463,-0.0285966,141
0.403031,-0.21459,-0.0277744,142
0.403437,-0.214874,-0.0269677,139
0.403708,-0.215065,-0.02615,142
0.40348,-0.214909,-0.0252979,147
0.403661,-0.215037,-0.0244734,148
0.403434,-0.214881,-0.0236228,149
0.403934,-0.215232,-0.0228169,147
0.404345,-0.21552,-0.0220037,150
0.405123,-0.216064,-0.0212091,147
0.405676,-0.21645,-0.0203991,147
0.405495,-0.216327,-0.0195494,153
0.405544,-0.216363,-0.0187118,148
0.405273,-0.216177,-0.0178593,148
0.406011,-0.216693,-0.0170526,146
0.4068,-0.217244,-0.0162446,147
0.40593,-0.216641,-0.0153677,147
0.40612,-0.216775,-0.0145343,151
0.406357,-0.216943,-0.0137017,154
0.405812,-0.216566,-0.0128425,149
0.405958,-0.216669,-0.0120068,152
0.40569,-0.216486,-0.011159,153
0.406067,-0.21675,-0.0103291,151
0.407461,-0.217722,-0.00952168,155
0.407656,-0.217861,-0.00868229,155
0.407157,-0.217516,-0.00782869,152
0.406384,-0.21698,-0.00697272,149
0.40658,-0.217118,-0.00613454,154
0.40673,-0.217226,-0.00529493,156
0.40702,-0.21743,-0.00445607,156
0.407543,-0.217796,-0.00361778,156
0.407603,-0.21784,-0.0027745,152
0.40771,-0.217917,-0.00193111,159
0.406985,-0.217414,-0.00108624,156
0.407648,-0.217878,-0.000243157,156
0.406924,-0.217377,0.000598328,152
0.407635,-0.217874,0.00144456,157
0.406727,-0.217244,0.00228135,162
0.406653,-0.217195,0.00312247,161
0.407225,-0.217596,0.00397128,160
0.407383,-0.217708,0.00481665,165
0.407264,-0.217627,0.00565811,162
0.407887,-0.218063,0.00651325,166
0.407861,-0.218047,0.00735741,167
0.407697,-0.217935,0.00819823,166
0.407533,-0.217824,0.00903838,165
0.407093,-0.217519,0.00987007,168
0.407625,-0.217892,0.0107294,169
0.407324,-0.217685,0.011564,164
0.407302,-0.217672,0.0124071,164
0.407883,-0.218079,0.0132726,166
0.407352,-0.217711,0.0140969,167
0.407702,-0.217958,0.0149557,170
0.407311,-0.217688,0.0157836,175
0.407477,-0.217806,0.0166356,176
0.407598,-0.217892,0.0174862,183
0.407718,-0.217978,0.0183375,181
0.405486,-0.216427,0.0190648,180
0.40722,-0.217636,0.0200012,176
0.40504,-0.216121,0.0207205,176
0.404567,-0.215794,0.0215322,176
0.404278,-0.215595,0.0223532,174
0.404308,-0.215619,0.0231936,177
0.404294,-0.215611,0.0240313,182
0.403462,-0.215034,0.0248129,177
0.403494,-0.215058,0.0256522,168
0.402937,-0.214673,0.0264487,176
0.402157,-0.214133,0.027226,178
0.401965,-0.214001,0.0280457,175
0.401684,-0.213808,0.0288575,173
0.401539,-0.213709,0.0296794,171
0.40108,-0.213392,0.0304744,172
0.4004,-0.212921,0.0312481,175
0.400614,-0.213072,0.0320988,178
0.400204,-0.212789,0.0328935,173
0.399261,-0.212135,0.0336368,176
0.398678,-0.211731,0.0344104,172
0.398273,-0.211451,0.0351991,175
0.397869,-0.211173,0.0359863,171
0.397511,-0.210926,0.0367766,175
0.39755,-0.210955,0.0376072,171
0.397589,-0.210984,0.0384382,169
0.397145,-0.210677,0.0392167,176
0.397228,-0.210738,0.0400524,173
0.396043,-0.209915,0.040744,177
0.396127,-0.209976,0.0415781,173
0.395863,-0.209794,0.0423715,168
0.395817,-0.209764,0.0431905,164
0.395859,-0.209796,0.0440202,165
0.395945,-0.209858,0.044856,160
0.395552,-0.209586,0.0456313,155
0.395552,-0.209589,0.0464561,157
0.39516,-0.209318,0.0472294,156
0.395596,-0.209624,0.0481125,155
0.395728,-0.209718,0.0489564,159
0.39573,-0.209722,0.049783,155
0.395907,-0.209847,0.0506347,150
0.395648,-0.209669,0.0514248,152
0.395259,-0.209401,0.0521952,151
0.395829,-0.2098,0.0531062,153
0.395616,-0.209654,0.0539022,153
0.395359,-0.209477,0.0546909,152
0.395887,-0.209847,0.0556006,154
0.396068,-0.209975,0.0564583,149
0.396337,-0.210165,0.0573312,153
0.39709,-0.210692,0.0582841,152
0.397141,-0.21073,0.0591255,152
0.396929,-0.210584,0.0599237,150
0.39663,-0.210378,0.0607066,145
0.397343,-0.210877,0.0616615,147
0.397396,-0.210916,0.0625058,149
0.39701,-0.210649,0.0632734,145
0.398213,-0.211489,0.0643225,151
0.398623,-0.211778,0.0652346,153
0.398058,-0.211386,0.0659709,148
0.397937,-0.211304,0.0667871,150
0.398748,-0.211872,0.0677776,149
0.397697,-0.211142,0.0684193,149
0.398864,-0.211957,0.069482,145
0.398967,-0.212031,0.070344,149
0.398937,-0.212013,0.0711808,143
0.399131,-0.21215,0.0720622,145
0.399638,-0.212505,0.073008,144
0.400416,-0.21305,0.0740117,148
0.399895,-0.212689,0.0747521,142
0.400901,-0.213392,0.0758082,144
0.401099,-0.213532,0.0766995,149
0.40166,-0.213925,0.0776693,151
0.401679,-0.213941,0.0785258,146
0.401563,-0.213863,0.0793534,151
0.403861,-0.215466,0.0807107,145
0.402058,-0.214212,0.0811694,141
0.402443,-0.214482,0.0821108,144
0.402283,-0.214373,0.082931,144
0.402123,-0.214264,0.083751,139
0.403515,-0.215236,0.0849292,138
0.402716,-0.214682,0.0856031,137
0.402831,-0.214764,0.0864892,142
0.403175,-0.215006,0.0874309,143
0.404256,-0.215761,0.0885516,148
0.403455,-0.215206,0.0892214,140
0.404262,-0.215771,0.0902818,140
0.404243,-0.21576,0.0911422,138
0.404685,-0.21607,0.0921182,142
0.404575,-0.215996,0.0929575,133
0.405436,-0.216598,0.0940439,138
0.40528,-0.216491,0.0948738,139
0.405078,-0.216353,0.0956916,139
0.406176,-0.217121,0.0968488,139
0.406207,-0.217145,0.0977303,137
0.406099,-0.217072,0.0985754,139
0.407252,-0.217878,0.0997592,136
0.407145,-0.217805,0.100607,138
0.4076,-0.218125,0.10161,142
0.407306,-0.217922,0.102408,144
0.407716,-0.21821,0.103401,137
0.407704,-0.218204,0.104279,137
0.40741,-0.218002,0.105077,139
0.40853,-0.218785,0.106277,139
0.40852,-0.21878,0.107159,140
0.408604,-0.218841,0.108068,139
0.409021,-0.219134,0.109076,144
0.409012,-0.219131,0.109961,145
0.408767,-0.218962,0.110776,142
0.408996,-0.219124,0.111732,144
0.409178,-0.219253,0.112677,142
0.408981,-0.219119,0.113507,139
0.409022,-0.219149,0.11441,140
0.409253,-0.219313,0.115373,139
0.408867,-0.219047,0.116145,135
0.40891,-0.219079,0.11705,137
0.408857,-0.219045,0.117927,136
0.409376,-0.219409,0.118985,143
0.409325,-0.219375,0.119864,145
0.410708,-0.220342,0.121206,142
0.409223,-0.219309,0.121623,143
0.409889,-0.219776,0.122737,140
0.409314,-0.219378,0.123447,147
0.408836,-0.219047,0.124187,146
0.409264,-0.219348,0.125227,146
0.409454,-0.219483,0.126191,144
0.409311,-0.219385,0.127043,141
0.408929,-0.219122,0.127814,140
0.409311,-0.219391,0.128846,151
0.409456,-0.219494,0.129799,148
0.409075,-0.219231,0.130569,147
0.408886,-0.219102,0.131406,144
0.409271,-0.219372,0.132446,146
0.408844,-0.219077,0.133199,152
0.408847,-0.219082,0.134105,155
0.407946,-0.218456,0.134685,153
0.408902,-0.219125,0.135937,153
0.407148,-0.217905,0.136202,155
0.407199,-0.217944,0.137125,157
0.40692,-0.217752,0.137926,152
0.40702,-0.217824,0.138868,160
0.406694,-0.217599,0.139651,163
0.405804,-0.216981,0.14022,167
0.405246,-0.216595,0.140912,164
0.404971,-0.216406,0.14171,161
0.404323,-0.215956,0.142364,155
0.404003,-0.215736,0.143143,153
0.403823,-0.215613,0.143976,154
0.403272,-0.215231,0.144663,159
0.401982,-0.214335,0.145056,146
0.401621,-0.214085,0.145813,151
0.401168,-0.213772,0.146532,146
0.401222,-0.213812,0.147453,152
0.400863,-0.213564,0.148208,147
0.400092,-0.213029,0.148795,154
0.399506,-0.212624,0.149455,148
0.399333,-0.212505,0.150282,152
0.398932,-0.212228,0.151015,150
0.398487,-0.211921,0.151728,148
0.398496,-0.21193,0.15263,145
0.398688,-0.212066,0.15361,151
0.398153,-0.211696,0.154284,144
0.397033,-0.210917,0.154707,139
0.396728,-0.210707,0.155474,131
0.396558,-0.210591,0.156299,129
0.395985,-0.210194,0.156949,123
0.39649,-0.210549,0.158067,125
0.396502,-0.210559,0.158972,116
0.396875,-0.210822,0.160037,117
0.396887,-0.210833,0.160944,119
0.396179,-0.210341,0.161532,118
0.396372,-0.210478,0.162521,116
0.396836,-0.210805,0.163633,116
0.397076,-0.210975,0.164648,117
0.398454,-0.211938,0.166182,117
0.397196,-0.211063,0.166517,114
0.396893,-0.210855,0.167287,116
0.396908,-0.210868,0.168203,111
0.396969,-0.210912,0.169141,112
0.397575,-0.211337,0.170335,108
0.397865,-0.211542,0.171385,108
0.398567,-0.212034,0.172631,98
0.397853,-0.211539,0.173209,101
0.397597,-0.211363,0.174003,95
0.39798,-0.211632,0.175104,101
0.398272,-0.211839,0.176164,99
0.398887,-0.21227,0.177382,96
0.398631,-0.212093,0.17818,91
0.398696,-0.212142,0.179134,93
0.39867,-0.212126,0.180045,95
0.399288,-0.212559,0.181276,95
0.39917,-0.21248,0.182144,93
0.399514,-0.212722,0.183244,98
0.400369,-0.213321,0.184604,92
0.400067,-0.213113,0.185383,98
0.40046,-0.21339,0.186516,95
0.400065,-0.213117,0.187248,92
0.399903,-0.213006,0.188099,85
0.400856,-0.213673,0.189526,82
0.402096,-0.214541,0.191107,79
0.400904,-0.213712,0.191428,80
0.40149,-0.214123,0.192675,88
0.401141,-0.213882,0.193434,91
0.400793,-0.213642,0.194193,92
0.402555,-0.214873,0.196071,89
0.402204,-0.214632,0.196832,86
0.402561,-0.214883,0.197972,84
0.402353,-0.214741,0.19881,82
0.402806,-0.215059,0.200006,92
0.402362,-0.214752,0.200717,145
0.402107,-0.214577,0.20153,85
0.402042,-0.214534,0.202447,80
0.402259,-0.214688,0.203521,92
0.390868,-0.209839,-0.209883,13
0.387783,-0.207664,-0.20716,10
0.385875,-0.206319,-0.205135,10
0.387314,-0.207338,-0.205044,10
0.386885,-0.207037,-0.203878,8
0.383619,-0.204734,-0.201099,13
0.385557,-0.206105,-0.201288,14
0.385996,-0.206417,-0.200623,14
0.388352,-0.208083,-0.201033,15
0.388271,-0.208029,-0.20007,12
0.388761,-0.208377,-0.199424,12
0.39084,-0.209848,-0.199659,10
0.389347,-0.208796,-0.197913,12
0.390368,-0.20952,-0.197556,21
0.386055,-0.206477,-0.194279,16
0.387841,-0.20774,-0.194343,12
0.388986,-0.208551,-0.194052,15
0.387252,-0.207329,-0.192205,10
0.388873,-0.208477,-0.192166,18
0.38788,-0.207778,-0.190725,13
0.386117,-0.206535,-0.18888,19
0.389868,-0.209186,-0.189962,19
0.388521,-0.208238,-0.188342,13
0.389318,-0.208804,-0.187853,18
0.391177,-0.210119,-0.187914,18
0.389867,-0.209196,-0.186322,16
0.387178,-0.2073,-0.184027,22
0.393166,-0.211531,-0.186203,18
0.390077,-0.209352,-0.18371,17
0.391898,-0.21064,-0.183731,21
0.390761,-0.20984,-0.182246,20
0.389196,-0.208737,-0.180552,16
0.39376,-0.211963,-0.181939,21
0.391903,-0.210654,-0.180101,18
0.391166,-0.210136,-0.178829,17
0.391753,-0.210553,-0.178216,19
0.392875,-0.211348,-0.177863,23
0.391692,-0.210515,-0.176379,27
0.393303,-0.211655,-0.17626,27
0.393629,-0.211888,-0.175512,27
0.392488,-0.211085,-0.174057,27
0.393169,-0.211568,-0.173482,22
0.391678,-0.210518,-0.171869,27
0.3928,-0.211312,-0.171502,33
0.393615,-0.211891,-0.170987,27
0.392477,-0.211089,-0.169551,25
0.392184,-0.210885,-0.168517,23
0.393976,-0.212153,-0.168452,32
0.39511,-0.212957,-0.168076,31
0.395217,-0.213035,-0.167223,35
0.393093,-0.211537,-0.165352,31
0.393244,-0.211646,-0.164525,30
0.393973,-0.212164,-0.163959,31
0.395018,-0.212904,-0.163532,32
0.395171,-0.213014,-0.162703,26
0.395773,-0.213442,-0.162072,33
0.39494,-0.212856,-0.160806,33
0.395496,-0.213252,-0.160155,34
0.396279,-0.213808,-0.159602,35
0.39684,-0.214206,-0.158948,34
0.396544,-0.213999,-0.157922,33
0.396925,-0.214271,-0.15719,38
0.397533,-0.214703,-0.156553,37
0.395932,-0.213574,-0.154976,40
0.397666,-0.214802,-0.154815,37
0.397687,-0.214819,-0.153928,35
0.399803,-0.216317,-0.153916,40
0.39764,-0.214791,-0.152119,39
0.397346,-0.214586,-0.151104,35
0.397595,-0.214764,-0.150313,41
0.398615,-0.215487,-0.149837,37
0.397506,-0.214706,-0.148493,41
0.39898,-0.21575,-0.148196,39
0.396563,-0.214045,-0.146335,37
0.397849,-0.214956,-0.14596,41
0.397874,-0.214976,-0.145081,39
0.398215,-0.21522,-0.144326,38
0.396978,-0.214348,-0.142954,38
0.399219,-0.215934,-0.142939,40
0.397255,-0.214548,-0.141292,40
0.397057,-0.214411,-0.140331,42
0.397488,-0.214718,-0.139612,41
0.395145,-0.213065,-0.137842,39
0.398129,-0.215176,-0.138087,43
0.396226,-0.213834,-0.136492,41
0.394476,-0.2126,-0.134964,41
0.395614,-0.213406,-0.13451,47
0.393784,-0.212116,-0.132964,52
0.394343,-0.212513,-0.132297,48
0.394241,-0.212443,-0.131389,56
0.394183,-0.212405,-0.130497,50
0.393642,-0.212024,-0.129434,51
0.394201,-0.212422,-0.128765,56
0.392522,-0.211238,-0.127305,55
0.392641,-0.211324,-0.126484,52
0.392979,-0.211566,-0.125738,55
0.39227,-0.211067,-0.124629,55
0.391737,-0.210693,-0.123586,57
0.391814,-0.21075,-0.122753,59
0.391761,-0.210715,-0.121876,63
0.391709,-0.21068,-0.121,60
0.39157,-0.210584,-0.120097,61
0.391388,-0.210458,-0.11918,58
0.390388,-0.209753,-0.117996,65
0.391633,-0.210636,-0.117549,62
0.390159,-0.209596,-0.116218,60
0.390152,-0.209594,-0.115365,63
0.390921,-0.21014,-0.11476,69
0.39057,-0.209894,-0.113798,81
0.389749,-0.209316,-0.11269,77
0.390345,-0.20974,-0.112028,74
0.389612,-0.209224,-0.110953,70
0.388797,-0.20865,-0.109857,70
0.387606,-0.207811,-0.108651,69
0.387857,-0.207991,-0.107887,73
0.386884,-0.207305,-0.106756,78
0.386588,-0.207098,-0.10583,81
0.386167,-0.206803,-0.10487,81
0.385081,-0.206037,-0.103718,78
0.384665,-0.205746,-0.102766,81
0.384375,-0.205543,-0.101852,82
0.384375,-0.205546,-0.101024,83
0.384459,-0.205607,-0.100219,85
0.385125,-0.20608,-0.0995785,82
0.384794,-0.205848,-0.0986576,81
0.384423,-0.205589,-0.0977276,82
0.384384,-0.205563,-0.0968907,86
0.384346,-0.205538,-0.0960547,87
0.384846,-0.205894,-0.0953644,90
0.385265,-0.206193,-0.0946505,88
0.384812,-0.205875,-0.0937047,93
