ply
format ascii 1.0
comment VCGLIB generated
element vertex 1326
property float x
property float y
property float z
property float nx
property float ny
property float nz
element face 0
property list uchar int vertex_indices
end_header
0.426503 -0.158232 -0.237641 0 0 0 
0.426987 -0.158477 -0.23685 0 0 0 
0.427472 -0.158724 -0.236057 0 0 0 
0.428208 -0.159096 -0.235286 0 0 0 
0.428047 -0.159018 -0.234428 0 0 0 
0.429237 -0.159619 -0.233695 0 0 0 
0.429681 -0.159844 -0.23289 0 0 0 
0.429572 -0.159791 -0.232035 0 0 0 
0.429965 -0.159992 -0.231224 0 0 0 
0.429857 -0.15994 -0.230369 0 0 0 
0.432126 -0.161084 -0.229709 0 0 0 
0.430348 -0.160191 -0.228717 0 0 0 
0.431606 -0.160826 -0.227969 0 0 0 
0.43069 -0.160367 -0.227051 0 0 0 
0.431544 -0.1608 -0.226268 0 0 0 
0.43154 -0.1608 -0.22542 0 0 0 
0.431436 -0.160749 -0.224565 0 0 0 
0.431939 -0.161005 -0.223751 0 0 0 
0.431786 -0.16093 -0.222893 0 0 0 
0.431683 -0.16088 -0.222038 0 0 0 
0.432189 -0.161137 -0.221222 0 0 0 
0.431327 -0.160705 -0.220322 0 0 0 
0.432239 -0.161167 -0.219528 0 0 0 
0.432392 -0.161246 -0.218688 0 0 0 
0.43219 -0.161147 -0.217828 0 0 0 
0.432804 -0.161458 -0.217012 0 0 0 
0.432603 -0.161358 -0.216153 0 0 0 
0.432504 -0.161311 -0.215299 0 0 0 
0.432814 -0.161469 -0.214465 0 0 0 
0.43236 -0.161243 -0.213597 0 0 0 
0.431958 -0.161043 -0.212733 0 0 0 
0.431812 -0.160971 -0.21188 0 0 0 
0.432225 -0.161181 -0.211048 0 0 0 
0.432028 -0.161084 -0.210194 0 0 0 
0.432239 -0.161192 -0.209354 0 0 0 
0.43184 -0.160994 -0.208495 0 0 0 
0.431445 -0.160797 -0.207638 0 0 0 
0.431961 -0.161059 -0.206806 0 0 0 
0.43197 -0.161066 -0.205959 0 0 0 
0.43183 -0.160997 -0.20511 0 0 0 
0.431892 -0.16103 -0.204265 0 0 0 
0.431801 -0.160987 -0.203417 0 0 0 
0.432423 -0.161302 -0.202581 0 0 0 
0.432131 -0.161158 -0.20173 0 0 0 
0.432501 -0.161346 -0.200887 0 0 0 
0.431552 -0.16087 -0.200031 0 0 0 
0.431464 -0.160828 -0.199185 0 0 0 
0.430924 -0.160558 -0.198337 0 0 0 
0.430234 -0.160213 -0.197491 0 0 0 
0.429498 -0.159844 -0.196647 0 0 0 
0.428267 -0.159225 -0.195807 0 0 0 
0.428135 -0.159161 -0.194969 0 0 0 
0.428253 -0.159223 -0.19413 0 0 0 
0.427476 -0.158834 -0.193297 0 0 0 
0.428092 -0.159146 -0.192455 0 0 0 
0.427465 -0.158833 -0.191623 0 0 0 
0.427635 -0.15892 -0.190784 0 0 0 
0.428055 -0.159134 -0.18994 0 0 0 
0.42753 -0.158871 -0.189111 0 0 0 
0.427899 -0.15906 -0.188266 0 0 0 
0.428222 -0.159224 -0.187421 0 0 0 
0.429695 -0.159969 -0.186547 0 0 0 
0.42832 -0.159278 -0.185741 0 0 0 
0.429745 -0.159998 -0.184862 0 0 0 
0.429671 -0.159963 -0.184022 0 0 0 
0.429596 -0.159928 -0.183182 0 0 0 
0.430076 -0.160171 -0.182324 0 0 0 
0.429651 -0.159959 -0.181496 0 0 0 
0.429931 -0.160102 -0.180643 0 0 0 
0.430412 -0.160347 -0.17978 0 0 0 
0.430089 -0.160187 -0.17895 0 0 0 
0.43027 -0.16028 -0.178098 0 0 0 
0.430553 -0.160425 -0.177241 0 0 0 
0.430888 -0.160595 -0.17638 0 0 0 
0.431324 -0.160817 -0.175512 0 0 0 
0.431661 -0.160989 -0.174647 0 0 0 
0.432051 -0.161187 -0.173778 0 0 0 
0.431831 -0.161079 -0.172943 0 0 0 
0.431459 -0.160894 -0.172116 0 0 0 
0.431494 -0.160914 -0.171267 0 0 0 
0.431785 -0.161062 -0.170401 0 0 0 
0.431567 -0.160955 -0.169566 0 0 0 
0.431961 -0.161155 -0.168692 0 0 0 
0.432966 -0.161664 -0.167773 0 0 0 
0.432953 -0.16166 -0.166922 0 0 0 
0.433299 -0.161836 -0.166045 0 0 0 
0.43339 -0.161884 -0.165186 0 0 0 
0.433535 -0.161959 -0.164322 0 0 0 
0.433985 -0.162188 -0.163432 0 0 0 
0.43408 -0.162238 -0.16257 0 0 0 
0.435152 -0.16278 -0.161625 0 0 0 
0.434012 -0.162208 -0.160866 0 0 0 
0.433851 -0.162129 -0.160025 0 0 0 
0.434614 -0.162516 -0.159101 0 0 0 
0.434352 -0.162386 -0.158268 0 0 0 
0.43512 -0.162775 -0.157339 0 0 0 
0.43667 -0.163558 -0.156331 0 0 0 
0.434801 -0.162618 -0.155653 0 0 0 
0.435417 -0.162931 -0.154733 0 0 0 
0.43588 -0.163167 -0.153826 0 0 0 
0.43438 -0.162413 -0.153122 0 0 0 
0.43598 -0.163222 -0.152093 0 0 0 
0.435462 -0.162962 -0.151288 0 0 0 
0.435512 -0.16299 -0.150421 0 0 0 
0.436656 -0.163568 -0.149431 0 0 0 
0.435513 -0.162995 -0.148698 0 0 0 
0.434895 -0.162685 -0.147909 0 0 0 
0.43433 -0.162402 -0.147116 0 0 0 
0.435261 -0.162874 -0.146143 0 0 0 
0.435109 -0.1628 -0.145299 0 0 0 
0.435062 -0.162778 -0.144443 0 0 0 
0.434241 -0.162366 -0.143686 0 0 0 
0.433987 -0.162241 -0.142858 0 0 0 
0.433376 -0.161935 -0.142078 0 0 0 
0.433486 -0.161992 -0.141204 0 0 0 
0.433441 -0.161972 -0.140349 0 0 0 
0.433653 -0.162082 -0.139459 0 0 0 
0.433815 -0.162166 -0.138575 0 0 0 
0.433671 -0.162094 -0.137734 0 0 0 
0.433627 -0.162075 -0.136878 0 0 0 
0.433792 -0.16216 -0.135992 0 0 0 
0.433699 -0.162116 -0.135143 0 0 0 
0.43207 -0.161297 -0.134526 0 0 0 
0.431266 -0.160894 -0.133789 0 0 0 
0.430771 -0.160646 -0.133007 0 0 0 
0.43058 -0.160552 -0.132179 0 0 0 
0.430542 -0.160535 -0.131327 0 0 0 
0.430505 -0.160518 -0.130475 0 0 0 
0.429105 -0.159814 -0.129845 0 0 0 
0.428816 -0.159672 -0.129037 0 0 0 
0.42833 -0.159428 -0.128263 0 0 0 
0.428043 -0.159286 -0.127456 0 0 0 
0.426811 -0.158667 -0.126813 0 0 0 
0.425933 -0.158226 -0.126113 0 0 0 
0.425997 -0.158261 -0.12525 0 0 0 
0.426014 -0.158272 -0.124395 0 0 0 
0.42623 -0.158383 -0.123504 0 0 0 
0.425802 -0.158169 -0.122729 0 0 0 
0.42582 -0.15818 -0.121873 0 0 0 
0.425789 -0.158167 -0.121026 0 0 0 
0.426605 -0.15858 -0.120018 0 0 0 
0.425135 -0.157842 -0.119443 0 0 0 
0.425801 -0.158179 -0.118462 0 0 0 
0.42597 -0.158267 -0.117574 0 0 0 
0.426938 -0.158757 -0.116527 0 0 0 
0.426163 -0.158368 -0.115823 0 0 0 
0.425937 -0.158257 -0.115012 0 0 0 
0.42621 -0.158396 -0.114099 0 0 0 
0.425835 -0.15821 -0.113318 0 0 0 
0.425066 -0.157824 -0.11262 0 0 0 
0.425686 -0.158139 -0.111634 0 0 0 
0.426259 -0.15843 -0.110654 0 0 0 
0.426385 -0.158495 -0.109767 0 0 0 
0.425664 -0.158134 -0.109062 0 0 0 
0.42604 -0.158326 -0.10812 0 0 0 
0.427015 -0.15882 -0.107043 0 0 0 
0.426995 -0.158811 -0.106184 0 0 0 
0.425328 -0.157974 -0.105695 0 0 0 
0.426253 -0.158442 -0.104624 0 0 0 
0.427083 -0.158863 -0.10357 0 0 0 
0.425665 -0.15815 -0.103032 0 0 0 
0.425946 -0.158293 -0.102104 0 0 0 
0.426126 -0.158387 -0.101196 0 0 0 
0.426408 -0.158531 -0.100264 0 0 0 
0.42679 -0.158726 -0.0993057 0 0 0 
0.427175 -0.158922 -0.0983447 0 0 0 
0.426557 -0.158613 -0.0976264 0 0 0 
0.426691 -0.158683 -0.0967248 0 0 0 
0.426876 -0.158778 -0.0958095 0 0 0 
0.426711 -0.158697 -0.0949807 0 0 0 
0.426947 -0.158818 -0.0940507 0 0 0 
0.426682 -0.158687 -0.0932467 0 0 0 
0.427221 -0.158961 -0.0922357 0 0 0 
0.42751 -0.159109 -0.0912877 0 0 0 
0.427397 -0.159054 -0.0904427 0 0 0 
0.427336 -0.159025 -0.0895847 0 0 0 
0.42667 -0.158692 -0.0888857 0 0 0 
0.427818 -0.159273 -0.0877037 0 0 0 
0.42806 -0.159397 -0.0867607 0 0 0 
0.427797 -0.159267 -0.0859537 0 0 0 
0.427939 -0.159341 -0.0850357 0 0 0 
0.428183 -0.159466 -0.0840887 0 0 0 
0.428479 -0.159618 -0.0831257 0 0 0 
0.428675 -0.159718 -0.0821887 0 0 0 
0.42816 -0.159461 -0.0814507 0 0 0 
0.428661 -0.159716 -0.0804257 0 0 0 
0.428807 -0.159792 -0.0794997 0 0 0 
0.428294 -0.159535 -0.0787627 0 0 0 
0.428542 -0.159663 -0.0778057 0 0 0 
0.428487 -0.159637 -0.0769357 0 0 0 
0.428685 -0.15974 -0.0759907 0 0 0 
0.429039 -0.15992 -0.0749977 0 0 0 
0.428679 -0.159741 -0.0742167 0 0 0 
0.428728 -0.159767 -0.0733137 0 0 0 
0.429489 -0.160154 -0.0721917 0 0 0 
0.429385 -0.160104 -0.0713317 0 0 0 
0.428823 -0.159823 -0.0706127 0 0 0 
0.429231 -0.16003 -0.0695947 0 0 0 
0.428771 -0.159801 -0.0688447 0 0 0 
0.429231 -0.160035 -0.0678067 0 0 0 
0.429384 -0.160115 -0.0668627 0 0 0 
0.429693 -0.160273 -0.0658687 0 0 0 
0.429694 -0.160276 -0.0649707 0 0 0 
0.42944 -0.16015 -0.0641557 0 0 0 
0.429596 -0.160231 -0.0632067 0 0 0 
0.429549 -0.160209 -0.0623237 0 0 0 
0.42986 -0.160368 -0.0613207 0 0 0 
0.429556 -0.160217 -0.0605207 0 0 0 
0.429663 -0.160273 -0.0595837 0 0 0 
0.429823 -0.160356 -0.0586287 0 0 0 
0.429776 -0.160335 -0.0577407 0 0 0 
0.429833 -0.160366 -0.0568177 0 0 0 
0.429891 -0.160397 -0.0558927 0 0 0 
0.429743 -0.160325 -0.0550387 0 0 0 
0.430162 -0.160539 -0.0539867 0 0 0 
0.429963 -0.160441 -0.0531487 0 0 0 
0.429612 -0.160266 -0.0523657 0 0 0 
0.429465 -0.160195 -0.0515097 0 0 0 
0.429474 -0.160201 -0.0505987 0 0 0 
0.429639 -0.160286 -0.0496307 0 0 0 
0.429133 -0.160034 -0.0489037 0 0 0 
0.429143 -0.160041 -0.0479897 0 0 0 
0.429258 -0.160101 -0.0470377 0 0 0 
0.429422 -0.160186 -0.0460657 0 0 0 
0.429383 -0.160168 -0.0451677 0 0 0 
0.428879 -0.159917 -0.0444427 0 0 0 
0.429045 -0.160003 -0.0434667 0 0 0 
0.428801 -0.159882 -0.0426457 0 0 0 
0.429844 -0.160411 -0.0413337 0 0 0 
0.428931 -0.159952 -0.0407667 0 0 0 
0.428892 -0.159935 -0.0398647 0 0 0 
0.428033 -0.159504 -0.0392807 0 0 0 
0.427741 -0.159358 -0.0384787 0 0 0 
0.427652 -0.159316 -0.0375967 0 0 0 
0.427155 -0.159068 -0.0368757 0 0 0 
0.426813 -0.158898 -0.0360957 0 0 0 
0.426778 -0.158882 -0.0351937 0 0 0 
0.426539 -0.158763 -0.0343727 0 0 0 
0.425843 -0.158414 -0.0337357 0 0 0 
0.426368 -0.158681 -0.0326067 0 0 0 
0.425672 -0.158333 -0.0319717 0 0 0 
0.425434 -0.158215 -0.0311507 0 0 0 
0.425452 -0.158226 -0.0302257 0 0 0 
0.42481 -0.157905 -0.0295727 0 0 0 
0.424222 -0.15761 -0.0288997 0 0 0 
0.423684 -0.157341 -0.0282067 0 0 0 
0.4235 -0.157251 -0.0273667 0 0 0 
0.423117 -0.157059 -0.0266117 0 0 0 
0.422884 -0.156944 -0.0257927 0 0 0 
0.422602 -0.156804 -0.0249957 0 0 0 
0.42267 -0.156841 -0.0240477 0 0 0 
0.42294 -0.15698 -0.0230117 0 0 0 
0.422861 -0.156941 -0.0221257 0 0 0 
0.421827 -0.156422 -0.0216557 0 0 0 
0.421947 -0.156485 -0.0206827 0 0 0 
0.421668 -0.156346 -0.0198857 0 0 0 
0.422038 -0.156536 -0.0187997 0 0 0 
0.421709 -0.156372 -0.0180237 0 0 0 
0.422081 -0.156562 -0.0169337 0 0 0 
0.422255 -0.156652 -0.0159307 0 0 0 
0.421624 -0.156336 -0.0152897 0 0 0 
0.421947 -0.156502 -0.0142167 0 0 0 
0.422725 -0.156897 -0.0129337 0 0 0 
0.421793 -0.156428 -0.0124327 0 0 0 
0.422269 -0.156671 -0.0112847 0 0 0 
0.421338 -0.156204 -0.0107857 0 0 0 
0.421363 -0.156218 -0.00984569 0 0 0 
0.421036 -0.156056 -0.0090677 0 0 0 
0.421112 -0.156096 -0.00810268 0 0 0 
0.420586 -0.155833 -0.00741969 0 0 0 
0.420961 -0.156025 -0.00630968 0 0 0 
0.421036 -0.156065 -0.00534069 0 0 0 
0.421465 -0.156284 -0.00420069 0 0 0 
0.420739 -0.155919 -0.00361569 0 0 0 
0.421166 -0.156138 -0.00247269 0 0 0 
0.421395 -0.156256 -0.00142368 0 0 0 
0.42122 -0.15617 -0.00057068 0 0 0 
0.421048 -0.156085 0.000283306 0 0 0 
0.421278 -0.156203 0.00133731 0 0 0 
0.420954 -0.156042 0.00211731 0 0 0 
0.421284 -0.156212 0.00322432 0 0 0 
0.42091 -0.156026 0.00398031 0 0 0 
0.421041 -0.156094 0.00498932 0 0 0 
0.421727 -0.156442 0.00628131 0 0 0 
0.413532 -0.147428 -0.403512 0 0 0 
0.416857 -0.149068 -0.404333 0 0 0 
0.409428 -0.145411 -0.399509 0 0 0 
0.411578 -0.146472 -0.399714 0 0 0 
0.419796 -0.150523 -0.403058 0 0 0 
0.414292 -0.147813 -0.399276 0 0 0 
0.41184 -0.146609 -0.397091 0 0 0 
0.411371 -0.146379 -0.395933 0 0 0 
0.413251 -0.147308 -0.395975 0 0 0 
0.410532 -0.145971 -0.393677 0 0 0 
0.409736 -0.145581 -0.392363 0 0 0 
0.411694 -0.146548 -0.392437 0 0 0 
0.408342 -0.144899 -0.389849 0 0 0 
0.410667 -0.146046 -0.390101 0 0 0 
0.408882 -0.145169 -0.388308 0 0 0 
0.406883 -0.144187 -0.386418 0 0 0 
0.406478 -0.143989 -0.385321 0 0 0 
0.408777 -0.145124 -0.385548 0 0 0 
0.407852 -0.144671 -0.384198 0 0 0 
0.411353 -0.146398 -0.384993 0 0 0 
0.40542 -0.143478 -0.381232 0 0 0 
0.406081 -0.143805 -0.380657 0 0 0 
0.408094 -0.144799 -0.380725 0 0 0 
0.407874 -0.144693 -0.379726 0 0 0 
0.407377 -0.14445 -0.378598 0 0 0 
0.411052 -0.146263 -0.379433 0 0 0 
0.411066 -0.146272 -0.37854 0 0 0 
0.406172 -0.143863 -0.375364 0 0 0 
0.408135 -0.144833 -0.375387 0 0 0 
0.407731 -0.144637 -0.374311 0 0 0 
0.407516 -0.144532 -0.373323 0 0 0 
0.410667 -0.146088 -0.373874 0 0 0 
0.407363 -0.144462 -0.371481 0 0 0 
0.407426 -0.144495 -0.370624 0 0 0 
0.40712 -0.144346 -0.369602 0 0 0 
0.407647 -0.144608 -0.368954 0 0 0 
0.411223 -0.146372 -0.369662 0 0 0 
0.409688 -0.145618 -0.368091 0 0 0 
0.407701 -0.144642 -0.36633 0 0 0 
0.410286 -0.145918 -0.366582 0 0 0 
0.408436 -0.145008 -0.364889 0 0 0 
0.410887 -0.146219 -0.365071 0 0 0 
0.408846 -0.145215 -0.363304 0 0 0 
0.408355 -0.144975 -0.362213 0 0 0 
0.410475 -0.146022 -0.362239 0 0 0 
0.409373 -0.145481 -0.360888 0 0 0 
0.411551 -0.146556 -0.360928 0 0 0 
0.41002 -0.145805 -0.359402 0 0 0 
0.411026 -0.146302 -0.358943 0 0 0 
0.410062 -0.14583 -0.357661 0 0 0 
0.41187 -0.146722 -0.35753 0 0 0 
0.410246 -0.145925 -0.355982 0 0 0 
0.412006 -0.146795 -0.355825 0 0 0 
0.410011 -0.145813 -0.354133 0 0 0 
0.411816 -0.146705 -0.353988 0 0 0 
0.411555 -0.146579 -0.353005 0 0 0 
0.410406 -0.146015 -0.351669 0 0 0 
0.410523 -0.146075 -0.350842 0 0 0 
0.41238 -0.146992 -0.350703 0 0 0 
0.410339 -0.145988 -0.349024 0 0 0 
0.410923 -0.146278 -0.348381 0 0 0 
0.410155 -0.145901 -0.347211 0 0 0 
0.410227 -0.145939 -0.346369 0 0 0 
0.411561 -0.146599 -0.346013 0 0 0 
0.411447 -0.146545 -0.345099 0 0 0 
0.411425 -0.146537 -0.344221 0 0 0 
0.412203 -0.146922 -0.343645 0 0 0 
0.410172 -0.145923 -0.342012 0 0 0 
0.410757 -0.146214 -0.341366 0 0 0 
0.410087 -0.145885 -0.340251 0 0 0 
0.411889 -0.146776 -0.340052 0 0 0 
0.410514 -0.146101 -0.338682 0 0 0 
0.410357 -0.146025 -0.337762 0 0 0 
0.4102 -0.14595 -0.336843 0 0 0 
0.410322 -0.146012 -0.336026 0 0 0 
0.411191 -0.146442 -0.335476 0 0 0 
0.412156 -0.146921 -0.334957 0 0 0 
0.410505 -0.146109 -0.333511 0 0 0 
0.411794 -0.146747 -0.333105 0 0 0 
0.412153 -0.146926 -0.332369 0 0 0 
0.411062 -0.14639 -0.33113 0 0 0 
0.410443 -0.146087 -0.330058 0 0 0 
0.41178 -0.146748 -0.32966 0 0 0 
0.413031 -0.147367 -0.329227 0 0 0 
0.412313 -0.147015 -0.328124 0 0 0 
0.412533 -0.147126 -0.327339 0 0 0 
0.411398 -0.146568 -0.326103 0 0 0 
0.411804 -0.146771 -0.325383 0 0 0 
0.411651 -0.146698 -0.324477 0 0 0 
0.41262 -0.147178 -0.32394 0 0 0 
0.411767 -0.146759 -0.322807 0 0 0 
0.411476 -0.146618 -0.32186 0 0 0 
0.411187 -0.146477 -0.320916 0 0 0 
0.412201 -0.146979 -0.320388 0 0 0 
0.412751 -0.147253 -0.31971 0 0 0 
0.41232 -0.147043 -0.318722 0 0 0 
0.413199 -0.147479 -0.318145 0 0 0 
0.412301 -0.147038 -0.317014 0 0 0 
0.412713 -0.147243 -0.316291 0 0 0 
0.412238 -0.14701 -0.315296 0 0 0 
0.41307 -0.147423 -0.3147 0 0 0 
0.412454 -0.147122 -0.313665 0 0 0 
0.412867 -0.147328 -0.31294 0 0 0 
0.412067 -0.146935 -0.311855 0 0 0 
0.412293 -0.147049 -0.311076 0 0 0 
0.412567 -0.147186 -0.31031 0 0 0 
0.413122 -0.147462 -0.309625 0 0 0 
0.412277 -0.147047 -0.308536 0 0 0 
0.411668 -0.146749 -0.307518 0 0 0 
0.412221 -0.147024 -0.306833 0 0 0 
0.411938 -0.146886 -0.30591 0 0 0 
0.411842 -0.146841 -0.305042 0 0 0 
0.411838 -0.146841 -0.304201 0 0 0 
0.411557 -0.146705 -0.303283 0 0 0 
0.411463 -0.14666 -0.302419 0 0 0 
0.411231 -0.146548 -0.301517 0 0 0 
0.411738 -0.1468 -0.300817 0 0 0 
0.412247 -0.147054 -0.300115 0 0 0 
0.411367 -0.146621 -0.299044 0 0 0 
0.411458 -0.146669 -0.298232 0 0 0 
0.411274 -0.14658 -0.297349 0 0 0 
0.41086 -0.146378 -0.296407 0 0 0 
0.411507 -0.146699 -0.29574 0 0 0 
0.412064 -0.146976 -0.295047 0 0 0 
0.411187 -0.146546 -0.293992 0 0 0 
0.411467 -0.146686 -0.293229 0 0 0 
0.409998 -0.145963 -0.292034 0 0 0 
0.409132 -0.145538 -0.290993 0 0 0 
0.408318 -0.145138 -0.289969 0 0 0 
0.407462 -0.144718 -0.288939 0 0 0 
0.407106 -0.144545 -0.288032 0 0 0 
0.406797 -0.144394 -0.287138 0 0 0 
0.405635 -0.143823 -0.286047 0 0 0 
0.40515 -0.143586 -0.285118 0 0 0 
0.405515 -0.143768 -0.284387 0 0 0 
0.405792 -0.143907 -0.283635 0 0 0 
0.405845 -0.143935 -0.282831 0 0 0 
0.406123 -0.144074 -0.282078 0 0 0 
0.406534 -0.144279 -0.281355 0 0 0 
0.4065 -0.144264 -0.280531 0 0 0 
0.406151 -0.144094 -0.27964 0 0 0 
0.406609 -0.144322 -0.278925 0 0 0 
0.407295 -0.144663 -0.278257 0 0 0 
0.407486 -0.144759 -0.277482 0 0 0 
0.40804 -0.145034 -0.276783 0 0 0 
0.407239 -0.144641 -0.275801 0 0 0 
0.408471 -0.145251 -0.275239 0 0 0 
0.408257 -0.145148 -0.27438 0 0 0 
0.408633 -0.145335 -0.27364 0 0 0 
0.408284 -0.145165 -0.272755 0 0 0 
0.408796 -0.14542 -0.272041 0 0 0 
0.408765 -0.145407 -0.27122 0 0 0 
0.408826 -0.145438 -0.270417 0 0 0 
0.409613 -0.145829 -0.269752 0 0 0 
0.409584 -0.145817 -0.268931 0 0 0 
0.410011 -0.146029 -0.268195 0 0 0 
0.410438 -0.146242 -0.267458 0 0 0 
0.411142 -0.146591 -0.26677 0 0 0 
0.41116 -0.146602 -0.265956 0 0 0 
0.412188 -0.147112 -0.265321 0 0 0 
0.412161 -0.147101 -0.264498 0 0 0 
0.412548 -0.147294 -0.263747 0 0 0 
0.412753 -0.147397 -0.262963 0 0 0 
0.4137 -0.147866 -0.262304 0 0 0 
0.413626 -0.147832 -0.261471 0 0 0 
0.413786 -0.147913 -0.260678 0 0 0 
0.413761 -0.147903 -0.259854 0 0 0 
0.414621 -0.148329 -0.259173 0 0 0 
0.414877 -0.148457 -0.258392 0 0 0 
0.415273 -0.148655 -0.257633 0 0 0 
0.416422 -0.149224 -0.256989 0 0 0 
0.416916 -0.14947 -0.256241 0 0 0 
0.416753 -0.149391 -0.255391 0 0 0 
0.417202 -0.149615 -0.254634 0 0 0 
0.4177 -0.149863 -0.253883 0 0 0 
0.418342 -0.150182 -0.25315 0 0 0 
0.419034 -0.150525 -0.252422 0 0 0 
0.41949 -0.150753 -0.251659 0 0 0 
0.419661 -0.150839 -0.250854 0 0 0 
0.420694 -0.151351 -0.250167 0 0 0 
0.421059 -0.151533 -0.249386 0 0 0 
0.421812 -0.151907 -0.248654 0 0 0 
0.421987 -0.151995 -0.247845 0 0 0 
0.422889 -0.152442 -0.247128 0 0 0 
0.423064 -0.152531 -0.246317 0 0 0 
0.423241 -0.152621 -0.245506 0 0 0 
0.424443 -0.153216 -0.244818 0 0 0 
0.424428 -0.15321 -0.24398 0 0 0 
0.424704 -0.15335 -0.243178 0 0 0 
0.426114 -0.154047 -0.242504 0 0 0 
0.42546 -0.153726 -0.241592 0 0 0 
0.425789 -0.153891 -0.240791 0 0 0 
0.426515 -0.154251 -0.240033 0 0 0 
0.427293 -0.154638 -0.239277 0 0 0 
0.427777 -0.154878 -0.238488 0 0 0 
0.428312 -0.155145 -0.237702 0 0 0 
0.428798 -0.155387 -0.23691 0 0 0 
0.429688 -0.155828 -0.236155 0 0 0 
0.430129 -0.156048 -0.235353 0 0 0 
0.430119 -0.156045 -0.234508 0 0 0 
0.430713 -0.15634 -0.233718 0 0 0 
0.431662 -0.156812 -0.232958 0 0 0 
0.432567 -0.15726 -0.232191 0 0 0 
0.431646 -0.156808 -0.231263 0 0 0 
0.431992 -0.156981 -0.230445 0 0 0 
0.431834 -0.156905 -0.229585 0 0 0 
0.432537 -0.157254 -0.228794 0 0 0 
0.431771 -0.156878 -0.227887 0 0 0 
0.432324 -0.157153 -0.227082 0 0 0 
0.432472 -0.157228 -0.226246 0 0 0 
0.43262 -0.157303 -0.225409 0 0 0 
0.432769 -0.157379 -0.224572 0 0 0 
0.432765 -0.15738 -0.223724 0 0 0 
0.432661 -0.157331 -0.222869 0 0 0 
0.432609 -0.157307 -0.222019 0 0 0 
0.433118 -0.15756 -0.221203 0 0 0 
0.432965 -0.157486 -0.220346 0 0 0 
0.433271 -0.157639 -0.219516 0 0 0 
0.433628 -0.157818 -0.218688 0 0 0 
0.432966 -0.157494 -0.217804 0 0 0 
0.43399 -0.158001 -0.217009 0 0 0 
0.433532 -0.157777 -0.216138 0 0 0 
0.433791 -0.157907 -0.215302 0 0 0 
0.433693 -0.157861 -0.214449 0 0 0 
0.4338 -0.157916 -0.213605 0 0 0 
0.433652 -0.157845 -0.212751 0 0 0 
0.433452 -0.157749 -0.211896 0 0 0 
0.433307 -0.157679 -0.211043 0 0 0 
0.433466 -0.15776 -0.210201 0 0 0 
0.433321 -0.15769 -0.209349 0 0 0 
0.43333 -0.157696 -0.208503 0 0 0 
0.433491 -0.157778 -0.20766 0 0 0 
0.43345 -0.15776 -0.206812 0 0 0 
0.433154 -0.157616 -0.205958 0 0 0 
0.432656 -0.157372 -0.205101 0 0 0 
0.433379 -0.157732 -0.20427 0 0 0 
0.433187 -0.157639 -0.20342 0 0 0 
0.432793 -0.157446 -0.202567 0 0 0 
0.432705 -0.157405 -0.201721 0 0 0 
0.432719 -0.157414 -0.200876 0 0 0 
0.432175 -0.157147 -0.200025 0 0 0 
0.431279 -0.156707 -0.199175 0 0 0 
0.429837 -0.155997 -0.198325 0 0 0 
0.429102 -0.155636 -0.197483 0 0 0 
0.429018 -0.155597 -0.196645 0 0 0 
0.42824 -0.155214 -0.195809 0 0 0 
0.428555 -0.155373 -0.194972 0 0 0 
0.428473 -0.155334 -0.194135 0 0 0 
0.428693 -0.155444 -0.193297 0 0 0 
0.428463 -0.155333 -0.192462 0 0 0 
0.428185 -0.155198 -0.191629 0 0 0 
0.427858 -0.155038 -0.190797 0 0 0 
0.42768 -0.154953 -0.189965 0 0 0 
0.428298 -0.15526 -0.189119 0 0 0 
0.428469 -0.155347 -0.188279 0 0 0 
0.428593 -0.15541 -0.18744 0 0 0 
0.428966 -0.155596 -0.186594 0 0 0 
0.428741 -0.155487 -0.185761 0 0 0 
0.429015 -0.155625 -0.184916 0 0 0 
0.428841 -0.155541 -0.184083 0 0 0 
0.430067 -0.156149 -0.183206 0 0 0 
0.430196 -0.156214 -0.182361 0 0 0 
0.42957 -0.155908 -0.181543 0 0 0 
0.431309 -0.156768 -0.180637 0 0 0 
0.429677 -0.155965 -0.179859 0 0 0 
0.429807 -0.156031 -0.179013 0 0 0 
0.429987 -0.156122 -0.178165 0 0 0 
0.431479 -0.156861 -0.177255 0 0 0 
0.431916 -0.157079 -0.17639 0 0 0 
0.431441 -0.156847 -0.175568 0 0 0 
0.431677 -0.156965 -0.174711 0 0 0 
0.43176 -0.157009 -0.173862 0 0 0 
0.431693 -0.156978 -0.17302 0 0 0 
0.431678 -0.156972 -0.172176 0 0 0 
0.431763 -0.157016 -0.171325 0 0 0 
0.432509 -0.157387 -0.170433 0 0 0 
0.432342 -0.157307 -0.169596 0 0 0 
0.43238 -0.157328 -0.168746 0 0 0 
0.433846 -0.158054 -0.167797 0 0 0 
0.432405 -0.157345 -0.167049 0 0 0 
0.43377 -0.158021 -0.166101 0 0 0 
0.433351 -0.157816 -0.165282 0 0 0 
0.433493 -0.157888 -0.164421 0 0 0 
0.43415 -0.158214 -0.163518 0 0 0 
0.433935 -0.158111 -0.162683 0 0 0 
0.43408 -0.158185 -0.161819 0 0 0 
0.433713 -0.158006 -0.160998 0 0 0 
0.434629 -0.15846 -0.160065 0 0 0 
0.434366 -0.158332 -0.159235 0 0 0 
0.434874 -0.158585 -0.158335 0 0 0 
0.434919 -0.15861 -0.157475 0 0 0 
0.43507 -0.158686 -0.156605 0 0 0 
0.435066 -0.158686 -0.15575 0 0 0 
0.43501 -0.158661 -0.154899 0 0 0 
0.435058 -0.158688 -0.154038 0 0 0 
0.435263 -0.15879 -0.15316 0 0 0 
0.435623 -0.15897 -0.152264 0 0 0 
0.435363 -0.158844 -0.151434 0 0 0 
0.434898 -0.158617 -0.150628 0 0 0 
0.43495 -0.158645 -0.149764 0 0 0 
0.434591 -0.158469 -0.148948 0 0 0 
0.434694 -0.158523 -0.148079 0 0 0 
0.434748 -0.158551 -0.147214 0 0 0 
0.434802 -0.15858 -0.14635 0 0 0 
0.434599 -0.158482 -0.145516 0 0 0 
0.435274 -0.158817 -0.144573 0 0 0 
0.435071 -0.158719 -0.143739 0 0 0 
0.434922 -0.158648 -0.142898 0 0 0 
0.434668 -0.158525 -0.142071 0 0 0 
0.435242 -0.158811 -0.141135 0 0 0 
0.434219 -0.158307 -0.140412 0 0 0 
0.434124 -0.158262 -0.139566 0 0 0 
0.434645 -0.158522 -0.138633 0 0 0 
0.4345 -0.158452 -0.137793 0 0 0 
0.43297 -0.157698 -0.137152 0 0 0 
0.435189 -0.158798 -0.135969 0 0 0 
0.432938 -0.157687 -0.13544 0 0 0 
0.432335 -0.157391 -0.134672 0 0 0 
0.432602 -0.157525 -0.133773 0 0 0 
0.432154 -0.157306 -0.132983 0 0 0 
0.431962 -0.157214 -0.132155 0 0 0 
0.431112 -0.156795 -0.131432 0 0 0 
0.431226 -0.156854 -0.130556 0 0 0 
0.430734 -0.156612 -0.129779 0 0 0 
0.429435 -0.155973 -0.129136 0 0 0 
0.428896 -0.155709 -0.128372 0 0 0 
0.428711 -0.155619 -0.127549 0 0 0 
0.428527 -0.15553 -0.126727 0 0 0 
0.427045 -0.1548 -0.126131 0 0 0 
0.426713 -0.154638 -0.125338 0 0 0 
0.426381 -0.154476 -0.124546 0 0 0 
0.426102 -0.15434 -0.123745 0 0 0 
0.425871 -0.154228 -0.122937 0 0 0 
0.425642 -0.154117 -0.122129 0 0 0 
0.425563 -0.15408 -0.121293 0 0 0 
0.425286 -0.153945 -0.120495 0 0 0 
0.42432 -0.15347 -0.119828 0 0 0 
0.424931 -0.153774 -0.118862 0 0 0 
0.425247 -0.153933 -0.11795 0 0 0 
0.425466 -0.154043 -0.117055 0 0 0 
0.424649 -0.153641 -0.116365 0 0 0 
0.424523 -0.153581 -0.115539 0 0 0 
0.425237 -0.153936 -0.114543 0 0 0 
0.425358 -0.153999 -0.113664 0 0 0 
0.42474 -0.153695 -0.112938 0 0 0 
0.425309 -0.153978 -0.111966 0 0 0 
0.425681 -0.154164 -0.111033 0 0 0 
0.424864 -0.153763 -0.110351 0 0 0 
0.424941 -0.153802 -0.109479 0 0 0 
0.424918 -0.153793 -0.108629 0 0 0 
0.425291 -0.15398 -0.10769 0 0 0 
0.425516 -0.154094 -0.106783 0 0 0 
0.424999 -0.15384 -0.10604 0 0 0 
0.425177 -0.15393 -0.105142 0 0 0 
0.426897 -0.154783 -0.103891 0 0 0 
0.425781 -0.154233 -0.103285 0 0 0 
0.426709 -0.154694 -0.102208 0 0 0 
0.425644 -0.15417 -0.101595 0 0 0 
0.425676 -0.154187 -0.100726 0 0 0 
0.426105 -0.154402 -0.0997604 0 0 0 
0.425988 -0.154347 -0.0989247 0 0 0 
0.42657 -0.154636 -0.097919 0 0 0 
0.426404 -0.154556 -0.0970938 0 0 0 
0.42744 -0.15507 -0.0959713 0 0 0 
0.426772 -0.154743 -0.0952687 0 0 0 
0.426709 -0.154713 -0.0944167 0 0 0 
0.426745 -0.154733 -0.0935397 0 0 0 
0.426331 -0.154531 -0.0927767 0 0 0 
0.426817 -0.154774 -0.0917817 0 0 0 
0.426856 -0.154795 -0.0909017 0 0 0 
0.427848 -0.155288 -0.0897697 0 0 0 
0.427283 -0.155011 -0.0890457 0 0 0 
0.427221 -0.154983 -0.0881887 0 0 0 
0.427361 -0.155054 -0.0872777 0 0 0 
0.427603 -0.155176 -0.0863377 0 0 0 
0.427895 -0.155323 -0.0853817 0 0 0 
0.428594 -0.15567 -0.0843127 0 0 0 
0.427979 -0.155368 -0.0836047 0 0 0 
0.428629 -0.155692 -0.0825437 0 0 0 
0.428317 -0.15554 -0.0817517 0 0 0 
0.428159 -0.155464 -0.0809167 0 0 0 
0.428912 -0.155838 -0.0798197 0 0 0 
0.429058 -0.155913 -0.0788947 0 0 0 
0.42885 -0.155812 -0.0780717 0 0 0 
0.429353 -0.156063 -0.0770407 0 0 0 
0.429399 -0.156089 -0.0761407 0 0 0 
0.4296 -0.15619 -0.0751957 0 0 0 
0.428528 -0.155662 -0.0746287 0 0 0 
0.428474 -0.155638 -0.0737587 0 0 0 
0.429541 -0.156167 -0.0725487 0 0 0 
0.429437 -0.156118 -0.0716917 0 0 0 
0.429485 -0.156145 -0.0707867 0 0 0 
0.429893 -0.156349 -0.0697687 0 0 0 
0.429076 -0.155947 -0.0691327 0 0 0 
0.429893 -0.156353 -0.0679847 0 0 0 
0.429484 -0.156153 -0.0672207 0 0 0 
0.430151 -0.156485 -0.0661147 0 0 0 
0.430459 -0.15664 -0.0651197 0 0 0 
0.430206 -0.156516 -0.0643047 0 0 0 
0.430003 -0.156418 -0.0634737 0 0 0 
0.429749 -0.156295 -0.0626597 0 0 0 
0.430574 -0.156705 -0.0614907 0 0 0 
0.430321 -0.156582 -0.0606747 0 0 0 
0.430736 -0.15679 -0.0596357 0 0 0 
0.430022 -0.156439 -0.0589747 0 0 0 
0.431108 -0.156979 -0.0577057 0 0 0 
0.430444 -0.156652 -0.0570287 0 0 0 
0.430039 -0.156454 -0.0562647 0 0 0 
0.430816 -0.156842 -0.0550927 0 0 0 
0.431031 -0.15695 -0.0541127 0 0 0 
0.430367 -0.156624 -0.0534377 0 0 0 
0.431046 -0.156962 -0.0522927 0 0 0 
0.430797 -0.156841 -0.0514737 0 0 0 
0.430806 -0.156847 -0.0505617 0 0 0 
0.430712 -0.156803 -0.0496867 0 0 0 
0.430618 -0.156759 -0.0488107 0 0 0 
0.430834 -0.156869 -0.0478217 0 0 0 
0.430381 -0.156646 -0.0470757 0 0 0 
0.430907 -0.15691 -0.0459707 0 0 0 
0.430764 -0.156841 -0.0451107 0 0 0 
0.431397 -0.157157 -0.0439607 0 0 0 
0.430169 -0.15655 -0.0435057 0 0 0 
0.430026 -0.156482 -0.0426457 0 0 0 
0.429936 -0.15644 -0.0417647 0 0 0 
0.42995 -0.156449 -0.0408447 0 0 0 
0.429654 -0.156305 -0.0400427 0 0 0 
0.429874 -0.156416 -0.0390417 0 0 0 
0.430094 -0.156528 -0.0380387 0 0 0 
0.430007 -0.156486 -0.0371547 0 0 0 
0.428887 -0.155935 -0.0366747 0 0 0 
0.428235 -0.155615 -0.0360147 0 0 0 
0.428303 -0.15565 -0.0350717 0 0 0 
0.42837 -0.155686 -0.0341267 0 0 0 
0.428334 -0.155671 -0.0332227 0 0 0 
0.427531 -0.155276 -0.0326267 0 0 0 
0.427446 -0.155236 -0.0317437 0 0 0 
0.42685 -0.154943 -0.0310677 0 0 0 
0.426714 -0.154878 -0.0302047 0 0 0 
0.426121 -0.154587 -0.0295307 0 0 0 
0.426139 -0.154598 -0.0286047 0 0 0 
0.426208 -0.154634 -0.0276567 0 0 0 
0.426073 -0.15457 -0.0267927 0 0 0 
0.424977 -0.154029 -0.0263347 0 0 0 
0.424691 -0.153891 -0.0255357 0 0 0 
0.424457 -0.153777 -0.0247157 0 0 0 
0.424224 -0.153664 -0.0238967 0 0 0 
0.423941 -0.153526 -0.0230977 0 0 0 
0.423458 -0.153289 -0.0223877 0 0 0 
0.423427 -0.153276 -0.0214807 0 0 0 
0.423247 -0.153189 -0.0206387 0 0 0 
0.423115 -0.153127 -0.0197747 0 0 0 
0.423288 -0.153214 -0.0187767 0 0 0 
0.422957 -0.153053 -0.0180007 0 0 0 
0.423532 -0.15334 -0.0168207 0 0 0 
0.423202 -0.153179 -0.0160437 0 0 0 
0.423425 -0.153292 -0.0150177 0 0 0 
0.42214 -0.152658 -0.0146727 0 0 0 
0.423624 -0.153394 -0.0130727 0 0 0 
0.423597 -0.153383 -0.0121557 0 0 0 
0.423823 -0.153498 -0.0111217 0 0 0 
0.422786 -0.152987 -0.0106697 0 0 0 
0.422157 -0.152678 -0.0100327 0 0 0 
0.422031 -0.152618 -0.00916169 0 0 0 
0.421754 -0.152483 -0.00836169 0 0 0 
0.421879 -0.152548 -0.00737269 0 0 0 
0.421804 -0.152513 -0.00647668 0 0 0 
0.422231 -0.152727 -0.00534069 0 0 0 
0.422108 -0.152667 -0.00446569 0 0 0 
0.42153 -0.152384 -0.00380869 0 0 0 
0.421457 -0.15235 -0.00291068 0 0 0 
0.42244 -0.152839 -0.00149768 0 0 0 
0.422467 -0.152855 -0.000545691 0 0 0 
0.422243 -0.152746 0.000283306 0 0 0 
0.422171 -0.152713 0.00118731 0 0 0 
0.421745 -0.152505 0.00191731 0 0 0 
0.422683 -0.152971 0.00332532 0 0 0 
0.421651 -0.152463 0.00375331 0 0 0 
0.421631 -0.152455 0.00468532 0 0 0 
0.423178 -0.153224 0.00640931 0 0 0 
0.410469 -0.142123 -0.402226 0 0 0 
0.412341 -0.143029 -0.402292 0 0 0 
0.413359 -0.143522 -0.401903 0 0 0 
0.414478 -0.144065 -0.401563 0 0 0 
0.412843 -0.143278 -0.399789 0 0 0 
0.413476 -0.143586 -0.399196 0 0 0 
0.409474 -0.141656 -0.396217 0 0 0 
0.41162 -0.142695 -0.396405 0 0 0 
0.410061 -0.141944 -0.394695 0 0 0 
0.414329 -0.144007 -0.39595 0 0 0 
0.411743 -0.142761 -0.393725 0 0 0 
0.40802 -0.140965 -0.390941 0 0 0 
0.408405 -0.141154 -0.390231 0 0 0 
0.407668 -0.1408 -0.388961 0 0 0 
0.409697 -0.141782 -0.389067 0 0 0 
0.406577 -0.140277 -0.386623 0 0 0 
0.403919 -0.138996 -0.384422 0 0 0 
0.407066 -0.140518 -0.385071 0 0 0 
0.410122 -0.141996 -0.385662 0 0 0 
0.408864 -0.141391 -0.384152 0 0 0 
0.409113 -0.141513 -0.383374 0 0 0 
0.405549 -0.139794 -0.380767 0 0 0 
0.408251 -0.141101 -0.381168 0 0 0 
0.408311 -0.141133 -0.380303 0 0 0 
0.409401 -0.141662 -0.379926 0 0 0 
0.407875 -0.140927 -0.378313 0 0 0 
0.408962 -0.141454 -0.377931 0 0 0 
0.40823 -0.141103 -0.376698 0 0 0 
0.40848 -0.141225 -0.375924 0 0 0 
0.408355 -0.141168 -0.374978 0 0 0 
0.411092 -0.142491 -0.375345 0 0 0 
0.409648 -0.141797 -0.373793 0 0 0 
0.409198 -0.141581 -0.372698 0 0 0 
0.411848 -0.142864 -0.373009 0 0 0 
0.410402 -0.142167 -0.371466 0 0 0 
0.410514 -0.142223 -0.370627 0 0 0 
0.410437 -0.142188 -0.369704 0 0 0 
0.409657 -0.141814 -0.368472 0 0 0 
0.411555 -0.142733 -0.368424 0 0 0 
0.410303 -0.14213 -0.366986 0 0 0 
0.412157 -0.143029 -0.366912 0 0 0 
0.410106 -0.14204 -0.365132 0 0 0 
0.411062 -0.142504 -0.364663 0 0 0 
0.411506 -0.142721 -0.36397 0 0 0 
0.412706 -0.143303 -0.363599 0 0 0 
0.411263 -0.142607 -0.362099 0 0 0 
0.41251 -0.143212 -0.361744 0 0 0 
0.412576 -0.143247 -0.360888 0 0 0 
0.411605 -0.14278 -0.359599 0 0 0 
0.413851 -0.143867 -0.359653 0 0 0 
0.41392 -0.143902 -0.358797 0 0 0 
0.41337 -0.143639 -0.357686 0 0 0 
0.414105 -0.143996 -0.357105 0 0 0 
0.413414 -0.143665 -0.35594 0 0 0 
0.413863 -0.143884 -0.355242 0 0 0 
0.41398 -0.143943 -0.354408 0 0 0 
0.413529 -0.143727 -0.353346 0 0 0 
0.416515 -0.145171 -0.353657 0 0 0 
0.41244 -0.143205 -0.351159 0 0 0 
0.4127 -0.143333 -0.350386 0 0 0 
0.412395 -0.143187 -0.349392 0 0 0 
0.413173 -0.143566 -0.348822 0 0 0 
0.413719 -0.143832 -0.348159 0 0 0 
0.413176 -0.143572 -0.347075 0 0 0 
0.413296 -0.143632 -0.346248 0 0 0 
0.414032 -0.14399 -0.345656 0 0 0 
0.413536 -0.143753 -0.344595 0 0 0 
0.412902 -0.143448 -0.343485 0 0 0 
0.412458 -0.143236 -0.34245 0 0 0 
0.414374 -0.144164 -0.342295 0 0 0 
0.412701 -0.143357 -0.340805 0 0 0 
0.413199 -0.143601 -0.340122 0 0 0 
0.413275 -0.143639 -0.339282 0 0 0 
0.412691 -0.143359 -0.338204 0 0 0 
0.412157 -0.143103 -0.337146 0 0 0 
0.413315 -0.143665 -0.336698 0 0 0 
0.414099 -0.144046 -0.336113 0 0 0 
0.413468 -0.143743 -0.335024 0 0 0 
0.412933 -0.143487 -0.333972 0 0 0 
0.412636 -0.143345 -0.333006 0 0 0 
0.413135 -0.143589 -0.33232 0 0 0 
0.412791 -0.143425 -0.33134 0 0 0 
0.412916 -0.143488 -0.330524 0 0 0 
0.413653 -0.143846 -0.329916 0 0 0 
0.413544 -0.143795 -0.329019 0 0 0 
0.41386 -0.14395 -0.328266 0 0 0 
0.412952 -0.143514 -0.327104 0 0 0 
0.413597 -0.143827 -0.326461 0 0 0 
0.413348 -0.143709 -0.325522 0 0 0 
0.413336 -0.143705 -0.324662 0 0 0 
0.413464 -0.143769 -0.323848 0 0 0 
0.415007 -0.144518 -0.323493 0 0 0 
0.412925 -0.143513 -0.321966 0 0 0 
0.41371 -0.143895 -0.321364 0 0 0 
0.413653 -0.143869 -0.320492 0 0 0 
0.413315 -0.143708 -0.319533 0 0 0 
0.413445 -0.143773 -0.318722 0 0 0 
0.413342 -0.143725 -0.317839 0 0 0 
0.413005 -0.143564 -0.316884 0 0 0 
0.413933 -0.144015 -0.31632 0 0 0 
0.413877 -0.14399 -0.315452 0 0 0 
0.413916 -0.144011 -0.314614 0 0 0 
0.413954 -0.144032 -0.313777 0 0 0 
0.412777 -0.143465 -0.312578 0 0 0 
0.412678 -0.143419 -0.311703 0 0 0 
0.413091 -0.143621 -0.31098 0 0 0 
0.413413 -0.143778 -0.310228 0 0 0 
0.413547 -0.143846 -0.309422 0 0 0 
0.412701 -0.143439 -0.308335 0 0 0 
0.413163 -0.143664 -0.307624 0 0 0 
0.413065 -0.143619 -0.306754 0 0 0 
0.412969 -0.143574 -0.305884 0 0 0 
0.413011 -0.143597 -0.305055 0 0 0 
0.412868 -0.14353 -0.304175 0 0 0 
0.413191 -0.143689 -0.303424 0 0 0 
0.413144 -0.143667 -0.30257 0 0 0 
0.412629 -0.143421 -0.301592 0 0 0 
0.412628 -0.143422 -0.300754 0 0 0 
0.413139 -0.143672 -0.300053 0 0 0 
0.41258 -0.143404 -0.299068 0 0 0 
0.41258 -0.143406 -0.298232 0 0 0 
0.413185 -0.1437 -0.297553 0 0 0 
0.413185 -0.143703 -0.296717 0 0 0 
0.413186 -0.143705 -0.295882 0 0 0 
0.412167 -0.143214 -0.294789 0 0 0 
0.411107 -0.142704 -0.293691 0 0 0 
0.411018 -0.142663 -0.292839 0 0 0 
0.409922 -0.142135 -0.29174 0 0 0 
0.408921 -0.141653 -0.29067 0 0 0 
0.408608 -0.141504 -0.289771 0 0 0 
0.408386 -0.141399 -0.288895 0 0 0 
0.407216 -0.140835 -0.287796 0 0 0 
0.407359 -0.140905 -0.287011 0 0 0 
0.407546 -0.140998 -0.286236 0 0 0 
0.407147 -0.140807 -0.285326 0 0 0 
0.407153 -0.140813 -0.28451 0 0 0 
0.407703 -0.14108 -0.283819 0 0 0 
0.40753 -0.140999 -0.282963 0 0 0 
0.407134 -0.140809 -0.282058 0 0 0 
0.407863 -0.141164 -0.281404 0 0 0 
0.408054 -0.141258 -0.28063 0 0 0 
0.408606 -0.141527 -0.279934 0 0 0 
0.408481 -0.141469 -0.27909 0 0 0 
0.409217 -0.141827 -0.278431 0 0 0 
0.409364 -0.1419 -0.277644 0 0 0 
0.409329 -0.141886 -0.27682 0 0 0 
0.409979 -0.142202 -0.276138 0 0 0 
0.409718 -0.142077 -0.275267 0 0 0 
0.410277 -0.14235 -0.274564 0 0 0 
0.410657 -0.142535 -0.273822 0 0 0 
0.410716 -0.142566 -0.273016 0 0 0 
0.411095 -0.142752 -0.272273 0 0 0 
0.411247 -0.142827 -0.271485 0 0 0 
0.411309 -0.142859 -0.270679 0 0 0 
0.411736 -0.143068 -0.269943 0 0 0 
0.412396 -0.143389 -0.269249 0 0 0 
0.41209 -0.143243 -0.268374 0 0 0 
0.41289 -0.143633 -0.267702 0 0 0 
0.413278 -0.143822 -0.266953 0 0 0 
0.41362 -0.143989 -0.266195 0 0 0 
0.413684 -0.144022 -0.265387 0 0 0 
0.414259 -0.144303 -0.264668 0 0 0 
0.414791 -0.144562 -0.263939 0 0 0 
0.414485 -0.144416 -0.263066 0 0 0 
0.415016 -0.144675 -0.262335 0 0 0 
0.415178 -0.144755 -0.261541 0 0 0 
0.415994 -0.145152 -0.260855 0 0 0 
0.416767 -0.145528 -0.260158 0 0 0 
0.41674 -0.145518 -0.25933 0 0 0 
0.416435 -0.145371 -0.258459 0 0 0 
0.417588 -0.145931 -0.257817 0 0 0 
0.418606 -0.146426 -0.257149 0 0 0 
0.419343 -0.146784 -0.256435 0 0 0 
0.418939 -0.146591 -0.255548 0 0 0 
0.419439 -0.146835 -0.254796 0 0 0 
0.419464 -0.14685 -0.253973 0 0 0 
0.42035 -0.14728 -0.253273 0 0 0 
0.421241 -0.147713 -0.252571 0 0 0 
0.421652 -0.147914 -0.251799 0 0 0 
0.422355 -0.148257 -0.251066 0 0 0 
0.42219 -0.148179 -0.250212 0 0 0 
0.422606 -0.148382 -0.249437 0 0 0 
0.423557 -0.148844 -0.24873 0 0 0 
0.42456 -0.149332 -0.248027 0 0 0 
0.425277 -0.14968 -0.247283 0 0 0 
0.424818 -0.14946 -0.24639 0 0 0 
0.425682 -0.149881 -0.245662 0 0 0 
0.425371 -0.149732 -0.244788 0 0 0 
0.42614 -0.150107 -0.244045 0 0 0 
0.427161 -0.150602 -0.243327 0 0 0 
0.426651 -0.150358 -0.24243 0 0 0 
0.426735 -0.150401 -0.241603 0 0 0 
0.427611 -0.150826 -0.240862 0 0 0 
0.427447 -0.15075 -0.240006 0 0 0 
0.428029 -0.151033 -0.23923 0 0 0 
0.429211 -0.151608 -0.238514 0 0 0 
0.429349 -0.151676 -0.237687 0 0 0 
0.429887 -0.151939 -0.2369 0 0 0 
0.430176 -0.152081 -0.236086 0 0 0 
0.431424 -0.152687 -0.235363 0 0 0 
0.43202 -0.152977 -0.234574 0 0 0 
0.43191 -0.152926 -0.233718 0 0 0 
0.432103 -0.153021 -0.23289 0 0 0 
0.432347 -0.153142 -0.232066 0 0 0 
0.432948 -0.153435 -0.231271 0 0 0 
0.433806 -0.153852 -0.230496 0 0 0 
0.433442 -0.153678 -0.229618 0 0 0 
0.434457 -0.154172 -0.228851 0 0 0 
0.433429 -0.153677 -0.227922 0 0 0 
0.433527 -0.153725 -0.227082 0 0 0 
0.434442 -0.15417 -0.226302 0 0 0 
0.433619 -0.153775 -0.225394 0 0 0 
0.433872 -0.153899 -0.224565 0 0 0 
0.433613 -0.153776 -0.2237 0 0 0 
0.433713 -0.153826 -0.222859 0 0 0 
0.433457 -0.153704 -0.221996 0 0 0 
0.434069 -0.154002 -0.221187 0 0 0 
0.434375 -0.154153 -0.220358 0 0 0 
0.433558 -0.15376 -0.219464 0 0 0 
0.433762 -0.153861 -0.218629 0 0 0 
0.434377 -0.15416 -0.217815 0 0 0 
0.433563 -0.153768 -0.216926 0 0 0 
0.432904 -0.153452 -0.216049 0 0 0 
0.433415 -0.153701 -0.215228 0 0 0 
0.434083 -0.154026 -0.214413 0 0 0 
0.434189 -0.15408 -0.213571 0 0 0 
0.434552 -0.154258 -0.212739 0 0 0 
0.433639 -0.153818 -0.211857 0 0 0 
0.433237 -0.153626 -0.210997 0 0 0 
0.433601 -0.153804 -0.210165 0 0 0 
0.433406 -0.153711 -0.209314 0 0 0 
0.434128 -0.154063 -0.208491 0 0 0 
0.434137 -0.154069 -0.207645 0 0 0 
0.43435 -0.154175 -0.206804 0 0 0 
0.434053 -0.154034 -0.205951 0 0 0 
0.432894 -0.153474 -0.20508 0 0 0 
0.432905 -0.153482 -0.204237 0 0 0 
0.431955 -0.153024 -0.203377 0 0 0 
0.431412 -0.152763 -0.202527 0 0 0 
0.432082 -0.153089 -0.201696 0 0 0 
0.431288 -0.152707 -0.200846 0 0 0 
0.430147 -0.152157 -0.199995 0 0 0 
0.430412 -0.152288 -0.19916 0 0 0 
0.428879 -0.151547 -0.198314 0 0 0 
0.428746 -0.151485 -0.197478 0 0 0 
0.427868 -0.151063 -0.196643 0 0 0 
0.427589 -0.150929 -0.19581 0 0 0 
0.427212 -0.150748 -0.194979 0 0 0 
0.427625 -0.150951 -0.194146 0 0 0 
0.427792 -0.151034 -0.193312 0 0 0 
0.427514 -0.150901 -0.192482 0 0 0 
0.427733 -0.151009 -0.191647 0 0 0 
0.428051 -0.151165 -0.19081 0 0 0 
0.42832 -0.151297 -0.189973 0 0 0 
0.428192 -0.151238 -0.189141 0 0 0 
0.42891 -0.151588 -0.188294 0 0 0 
0.428288 -0.151288 -0.187472 0 0 0 
0.428064 -0.151182 -0.186643 0 0 0 
0.429132 -0.151701 -0.185782 0 0 0 
0.428708 -0.151498 -0.184958 0 0 0 
0.428385 -0.151344 -0.184132 0 0 0 
0.429058 -0.151672 -0.183276 0 0 0 
0.429534 -0.151905 -0.182424 0 0 0 
0.429761 -0.152017 -0.181579 0 0 0 
0.429141 -0.151718 -0.180765 0 0 0 
0.429568 -0.151927 -0.179911 0 0 0 
0.429547 -0.151919 -0.179075 0 0 0 
0.429428 -0.151863 -0.178242 0 0 0 
0.429658 -0.151977 -0.177394 0 0 0 
0.42999 -0.15214 -0.176541 0 0 0 
0.430272 -0.152278 -0.175688 0 0 0 
0.429803 -0.152054 -0.174873 0 0 0 
0.429735 -0.152023 -0.174038 0 0 0 
0.431377 -0.15282 -0.173106 0 0 0 
0.430807 -0.152546 -0.172298 0 0 0 
0.432204 -0.153225 -0.171372 0 0 0 
0.430677 -0.152487 -0.170623 0 0 0 
0.430863 -0.15258 -0.16977 0 0 0 
0.431858 -0.153064 -0.168862 0 0 0 
0.431947 -0.153109 -0.168012 0 0 0 
0.432136 -0.153203 -0.167154 0 0 0 
0.432378 -0.153322 -0.166291 0 0 0 
0.432519 -0.153392 -0.165435 0 0 0 
0.432661 -0.153463 -0.164578 0 0 0 
0.432702 -0.153485 -0.163729 0 0 0 
0.434735 -0.154472 -0.162717 0 0 0 
0.432887 -0.153579 -0.162019 0 0 0 
0.433439 -0.153848 -0.161125 0 0 0 
0.434403 -0.154317 -0.160191 0 0 0 
0.433272 -0.153772 -0.159442 0 0 0 
0.434031 -0.154142 -0.158523 0 0 0 
0.43372 -0.153993 -0.157702 0 0 0 
0.433816 -0.154042 -0.156842 0 0 0 
0.434222 -0.15424 -0.155951 0 0 0 
0.435296 -0.154763 -0.154992 0 0 0 
0.434985 -0.154614 -0.15417 0 0 0 
0.435342 -0.154789 -0.153278 0 0 0 
0.434466 -0.154367 -0.152516 0 0 0 
0.435031 -0.154643 -0.151602 0 0 0 
0.434927 -0.154595 -0.150758 0 0 0 
0.434927 -0.154597 -0.149904 0 0 0 
0.434259 -0.154276 -0.149125 0 0 0 
0.434825 -0.154552 -0.148205 0 0 0 
0.434366 -0.154331 -0.147404 0 0 0 
0.434985 -0.154633 -0.146474 0 0 0 
0.435502 -0.154887 -0.145554 0 0 0 
0.4353 -0.154791 -0.144722 0 0 0 
0.435202 -0.154745 -0.143876 0 0 0 
0.43536 -0.154824 -0.142998 0 0 0 
0.435005 -0.154654 -0.142186 0 0 0 
0.433574 -0.153963 -0.141519 0 0 0 
0.435018 -0.154665 -0.140468 0 0 0 
0.434666 -0.154496 -0.139658 0 0 0 
0.433442 -0.153905 -0.13897 0 0 0 
0.432837 -0.153615 -0.1382 0 0 0 
0.433204 -0.153794 -0.137292 0 0 0 
0.433213 -0.153801 -0.136434 0 0 0 
0.433222 -0.153808 -0.135576 0 0 0 
0.432213 -0.153321 -0.13487 0 0 0 
0.43197 -0.153205 -0.134052 0 0 0 
0.43244 -0.153435 -0.133125 0 0 0 
0.430577 -0.152534 -0.132559 0 0 0 
0.430134 -0.152322 -0.131776 0 0 0 
0.430399 -0.152453 -0.130881 0 0 0 
0.430161 -0.152339 -0.130067 0 0 0 
0.42947 -0.152007 -0.129327 0 0 0 
0.429133 -0.151846 -0.128531 0 0 0 
0.428098 -0.151346 -0.127854 0 0 0 
0.428764 -0.15167 -0.12689 0 0 0 
0.427831 -0.15122 -0.1262 0 0 0 
0.4271 -0.150869 -0.125477 0 0 0 
0.426669 -0.150662 -0.124704 0 0 0 
0.426835 -0.150745 -0.123825 0 0 0 
0.425864 -0.150276 -0.123152 0 0 0 
0.424945 -0.149833 -0.122473 0 0 0 
0.425456 -0.150082 -0.121532 0 0 0 
0.424442 -0.149593 -0.120874 0 0 0 
0.42451 -0.149628 -0.120015 0 0 0 
0.424285 -0.149521 -0.119211 0 0 0 
0.424158 -0.149462 -0.118389 0 0 0 
0.426446 -0.150573 -0.117094 0 0 0 
0.42469 -0.149725 -0.11659 0 0 0 
0.424369 -0.149571 -0.115805 0 0 0 
0.424195 -0.149488 -0.114992 0 0 0 
0.424464 -0.149621 -0.114088 0 0 0 
0.424635 -0.149706 -0.113203 0 0 0 
0.424658 -0.149719 -0.112348 0 0 0 
0.424634 -0.14971 -0.111502 0 0 0 
0.425843 -0.150298 -0.110393 0 0 0 
0.426315 -0.150529 -0.109437 0 0 0 
0.424957 -0.149873 -0.108875 0 0 0 
0.424836 -0.149816 -0.108048 0 0 0 
0.425951 -0.150359 -0.106948 0 0 0 
0.42499 -0.149895 -0.106306 0 0 0 
0.424919 -0.149863 -0.105466 0 0 0 
0.425393 -0.150095 -0.104503 0 0 0 
0.426713 -0.150737 -0.103342 0 0 0 
0.426046 -0.150416 -0.102636 0 0 0 
0.426476 -0.150626 -0.101676 0 0 0 
0.425514 -0.150162 -0.101042 0 0 0 
0.425892 -0.150348 -0.100093 0 0 0 
0.426123 -0.150462 -0.0991763 0 0 0 
0.426704 -0.150745 -0.0981736 0 0 0 
0.427037 -0.150909 -0.0972284 0 0 0 
0.427571 -0.15117 -0.0962316 0 0 0 
0.427656 -0.151214 -0.0953437 0 0 0 
0.427391 -0.151087 -0.0945427 0 0 0 
0.427027 -0.150913 -0.0937677 0 0 0 
0.427513 -0.151151 -0.0927767 0 0 0 
0.426849 -0.150831 -0.0920787 0 0 0 
0.427487 -0.151143 -0.0910447 0 0 0 
0.427575 -0.151188 -0.0901517 0 0 0 
0.427866 -0.15133 -0.0892047 0 0 0 
0.427854 -0.151327 -0.0883357 0 0 0 
0.428297 -0.151544 -0.0873447 0 0 0 
0.428186 -0.151492 -0.0865007 0 0 0 
0.428024 -0.151416 -0.0856707 0 0 0 
0.428469 -0.151634 -0.0846737 0 0 0 
0.428057 -0.151436 -0.0839117 0 0 0 
0.428806 -0.151802 -0.0828267 0 0 0 
0.430017 -0.152391 -0.0816087 0 0 0 
0.429704 -0.152242 -0.0808157 0 0 0 
0.428532 -0.151675 -0.0802687 0 0 0 
0.428981 -0.151895 -0.0792607 0 0 0 
0.429433 -0.152116 -0.0782487 0 0 0 
0.429479 -0.152141 -0.0773527 0 0 0 
0.429422 -0.152116 -0.0764857 0 0 0 
0.429622 -0.152215 -0.0755427 0 0 0 
0.429821 -0.152314 -0.0745987 0 0 0 
0.430381 -0.152587 -0.0735447 0 0 0 
0.430633 -0.152712 -0.0725797 0 0 0 
0.430376 -0.152589 -0.0717697 0 0 0 
0.429914 -0.152368 -0.0710217 0 0 0 
0.430885 -0.152841 -0.0698327 0 0 0 
0.430372 -0.152594 -0.0691007 0 0 0 
0.430578 -0.152696 -0.0681447 0 0 0 
0.430526 -0.152674 -0.0672687 0 0 0 
0.430887 -0.15285 -0.0662617 0 0 0 
0.430477 -0.152654 -0.0654977 0 0 0 
0.431558 -0.153181 -0.0642557 0 0 0 
0.431045 -0.152934 -0.0635247 0 0 0 
0.43074 -0.152789 -0.0627267 0 0 0 
0.43131 -0.153067 -0.0616427 0 0 0 
0.431467 -0.153146 -0.0606917 0 0 0 
0.431575 -0.1532 -0.0597557 0 0 0 
0.431117 -0.15298 -0.0590097 0 0 0 
0.431225 -0.153035 -0.0580727 0 0 0 
0.431642 -0.15324 -0.0570287 0 0 0 
0.431545 -0.153195 -0.0561587 0 0 0 
0.431915 -0.153376 -0.0551277 0 0 0 
0.432128 -0.153482 -0.0541487 0 0 0 
0.431566 -0.153212 -0.0534377 0 0 0 
0.432092 -0.153469 -0.0523477 0 0 0 
0.431687 -0.153275 -0.0515827 0 0 0 
0.432006 -0.153432 -0.0505617 0 0 0 
0.432068 -0.153464 -0.0496307 0 0 0 
0.431455 -0.153169 -0.0489407 0 0 0 
0.43214 -0.153503 -0.0477837 0 0 0 
0.431683 -0.153284 -0.0470377 0 0 0 
0.431642 -0.153267 -0.0461417 0 0 0 
0.432069 -0.153476 -0.0450717 0 0 0 
0.432028 -0.153459 -0.0441727 0 0 0 
0.431729 -0.153316 -0.0433697 0 0 0 
0.431484 -0.153199 -0.0425477 0 0 0 
0.431341 -0.153132 -0.0416867 0 0 0 
0.431302 -0.153116 -0.0407857 0 0 0 
0.430798 -0.152873 -0.0400627 0 0 0 
0.430709 -0.152832 -0.0391807 0 0 0 
0.431292 -0.153118 -0.0380387 0 0 0 
0.430221 -0.1526 -0.0375367 0 0 0 
0.430391 -0.152685 -0.0365537 0 0 0 
0.430768 -0.152871 -0.0354867 0 0 0 
0.429958 -0.152479 -0.0348877 0 0 0 
0.429767 -0.152389 -0.0340447 0 0 0 
0.430456 -0.152726 -0.0328507 0 0 0 
0.429338 -0.152185 -0.0323787 0 0 0 
0.428891 -0.151971 -0.0316397 0 0 0 
0.429424 -0.152232 -0.0305037 0 0 0 
0.428823 -0.151943 -0.0298277 0 0 0 
0.428123 -0.151605 -0.0291947 0 0 0 
0.427629 -0.151368 -0.0284777 0 0 0 
0.42821 -0.151653 -0.0273167 0 0 0 
0.428128 -0.151614 -0.0264287 0 0 0 
0.427787 -0.151452 -0.0256487 0 0 0 
0.42658 -0.150869 -0.0252357 0 0 0 
0.426091 -0.150634 -0.0245217 0 0 0 
0.425807 -0.150497 -0.0237227 0 0 0 
0.425318 -0.150263 -0.0230117 0 0 0 
0.424529 -0.149882 -0.0224307 0 0 0 
0.424348 -0.149797 -0.0215897 0 0 0 
0.425026 -0.150128 -0.0203747 0 0 0 
0.424843 -0.150042 -0.0195317 0 0 0 
0.424562 -0.149907 -0.0187327 0 0 0 
0.42428 -0.149773 -0.0179337 0 0 0 
0.424048 -0.149663 -0.0171127 0 0 0 
0.424172 -0.149725 -0.0161347 0 0 0 
0.422934 -0.149127 -0.0157657 0 0 0 
0.423258 -0.149287 -0.0146957 0 0 0 
0.423734 -0.14952 -0.0135547 0 0 0 
0.423204 -0.149265 -0.0128707 0 0 0 
0.423379 -0.149352 -0.0118637 0 0 0 
0.423352 -0.149341 -0.0109487 0 0 0 
0.423527 -0.149428 -0.00993868 0 0 0 
0.423047 -0.149198 -0.00923268 0 0 0 
0.423172 -0.149261 -0.00824369 0 0 0 
0.422643 -0.149007 -0.00756169 0 0 0 
0.423021 -0.149193 -0.00645269 0 0 0 
0.422947 -0.149158 -0.00555568 0 0 0 
0.423123 -0.149247 -0.00453868 0 0 0 
0.423454 -0.149409 -0.00344568 0 0 0 
0.422875 -0.14913 -0.00278869 0 0 0 
0.423254 -0.149317 -0.00166869 0 0 0 
0.423029 -0.149211 -0.000840689 0 0 0 
0.422553 -0.148981 -0.000135685 0 0 0 
0.422934 -0.149169 0.000989308 0 0 0 
0.42261 -0.149013 0.00176831 0 0 0 
0.423295 -0.149349 0.00304831 0 0 0 
0.423223 -0.149316 0.00395431 0 0 0 
0.423913 -0.149654 0.00524331 0 0 0 
0.423181 -0.149301 0.00582131 0 0 0 
0.412513 -0.139321 -0.40273 0 0 0 
0.409616 -0.137952 -0.40029 0 0 0 
0.414746 -0.140382 -0.402055 0 0 0 
0.412871 -0.139497 -0.400156 0 0 0 
0.415002 -0.140508 -0.40034 0 0 0 
0.411784 -0.138988 -0.39776 0 0 0 
0.412558 -0.139356 -0.397242 0 0 0 
0.409763 -0.138035 -0.3949 0 0 0 
0.412145 -0.139165 -0.395203 0 0 0 
0.407764 -0.137094 -0.392076 0 0 0 
0.411879 -0.139043 -0.393244 0 0 0 
0.410511 -0.138399 -0.391649 0 0 0 
0.405066 -0.135824 -0.388029 0 0 0 
0.411956 -0.139087 -0.390555 0 0 0 
0.406753 -0.136627 -0.387077 0 0 0 
0.40933 -0.137849 -0.38745 0 0 0 
0.408174 -0.137303 -0.385984 0 0 0 
0.407023 -0.136761 -0.384527 0 0 0 
0.408198 -0.13732 -0.384204 0 0 0 
0.408026 -0.137241 -0.383226 0 0 0 
0.409818 -0.138091 -0.383193 0 0 0 
0.41016 -0.138255 -0.38246 0 0 0 
0.40677 -0.136652 -0.379951 0 0 0 
0.407293 -0.136903 -0.379311 0 0 0 
0.409639 -0.138015 -0.379527 0 0 0 
0.409793 -0.13809 -0.378707 0 0 0 
0.412404 -0.139329 -0.379033 0 0 0 
0.410576 -0.138465 -0.377286 0 0 0 
0.409886 -0.138141 -0.376076 0 0 0 
0.411313 -0.138819 -0.375841 0 0 0 
0.408889 -0.137674 -0.373841 0 0 0 
0.413145 -0.139691 -0.374891 0 0 0 
0.410702 -0.138536 -0.372889 0 0 0 
0.410295 -0.138346 -0.371818 0 0 0 
0.411866 -0.139092 -0.371635 0 0 0 
0.411129 -0.138745 -0.370417 0 0 0 
0.41399 -0.140102 -0.370799 0 0 0 
0.410788 -0.138588 -0.368493 0 0 0 
0.412455 -0.13938 -0.368341 0 0 0 
0.410964 -0.138676 -0.366801 0 0 0 
0.412256 -0.139289 -0.366479 0 0 0 
0.411049 -0.138721 -0.365071 0 0 0 
0.412435 -0.139379 -0.364785 0 0 0 
0.412359 -0.139345 -0.363869 0 0 0 
0.411436 -0.13891 -0.362592 0 0 0 
0.413868 -0.140064 -0.362741 0 0 0 
0.413936 -0.140098 -0.361884 0 0 0 
0.413433 -0.139862 -0.360789 0 0 0 
0.415266 -0.140732 -0.36067 0 0 0 
0.415429 -0.140812 -0.359851 0 0 0 
0.415929 -0.141051 -0.359172 0 0 0 
0.41504 -0.140632 -0.357921 0 0 0 
0.414347 -0.140306 -0.356755 0 0 0 
0.416667 -0.141406 -0.356815 0 0 0 
0.414105 -0.140196 -0.354896 0 0 0 
0.414603 -0.140434 -0.354217 0 0 0 
0.415772 -0.14099 -0.353804 0 0 0 
0.414889 -0.140573 -0.352571 0 0 0 
0.414816 -0.140541 -0.351664 0 0 0 
0.417188 -0.141666 -0.351717 0 0 0 
0.416106 -0.141156 -0.350413 0 0 0 
0.41661 -0.141397 -0.34973 0 0 0 
0.416251 -0.141229 -0.348712 0 0 0 
0.416372 -0.141289 -0.34788 0 0 0 
0.416156 -0.141189 -0.346921 0 0 0 
0.41647 -0.14134 -0.346163 0 0 0 
0.415922 -0.141082 -0.34508 0 0 0 
0.416809 -0.141505 -0.344539 0 0 0 
0.415592 -0.140931 -0.34321 0 0 0 
0.416287 -0.141262 -0.342595 0 0 0 
0.415789 -0.141029 -0.341539 0 0 0 
0.415865 -0.141066 -0.340695 0 0 0 
0.414373 -0.140362 -0.339282 0 0 0 
0.414922 -0.140624 -0.338614 0 0 0 
0.415379 -0.140843 -0.337911 0 0 0 
0.41498 -0.140656 -0.336901 0 0 0 
0.415914 -0.1411 -0.336366 0 0 0 
0.414329 -0.140352 -0.334941 0 0 0 
0.414455 -0.140414 -0.334121 0 0 0 
0.413918 -0.140162 -0.333072 0 0 0 
0.414989 -0.140671 -0.332582 0 0 0 
0.414643 -0.140509 -0.3316 0 0 0 
0.416336 -0.141313 -0.331318 0 0 0 
