0.415146,-0.136953,-0.0988312,94
0.415194,-0.136978,-0.0980143,103
0.414094,-0.136459,-0.0969134,94
0.413001,-0.135943,-0.0958195,99
0.413553,-0.136207,-0.0951306,102
0.412328,-0.135628,-0.0940117,96
0.41188,-0.135418,-0.093084,108
0.41175,-0.135358,-0.0922341,110
0.411937,-0.135449,-0.0914596,107
0.411944,-0.135454,-0.0906428,109
0.41177,-0.135374,-0.0897848,111
0.41223,-0.135594,-0.0890728,104
0.412918,-0.135922,-0.0884111,112
0.412654,-0.135799,-0.0875333,110
0.413071,-0.135999,-0.0868085,111
0.413444,-0.136178,-0.0860727,110
0.414138,-0.136509,-0.0854056,113
0.413782,-0.136342,-0.0845097,113
0.413701,-0.136306,-0.0836743,107
0.414351,-0.136616,-0.0829945,111
0.414499,-0.136688,-0.0822072,110
0.414648,-0.136761,-0.0814199,108
0.415164,-0.137007,-0.0807078,111
0.415544,-0.137189,-0.0799662,114
0.415557,-0.137197,-0.0791497,115
0.416307,-0.137555,-0.0784803,115
0.415584,-0.137214,-0.077518,119
0.416104,-0.137463,-0.0768015,119
0.416488,-0.137647,-0.0760569,122
0.417057,-0.137919,-0.0753465,120
0.417583,-0.13817,-0.0746258,130
0.417877,-0.138312,-0.0738603,124
0.417568,-0.138167,-0.0729827,124
0.418795,-0.138751,-0.0723868,121
0.418999,-0.13885,-0.0716017,121
0.419204,-0.138949,-0.0708163,128
0.419316,-0.139004,-0.0700141,132
0.419662,-0.13917,-0.0692527,127
0.420009,-0.139337,-0.0684903,137
0.419935,-0.139303,-0.0676552,133
0.420472,-0.13956,-0.0669234,134
0.421435,-0.140019,-0.0662604,134
0.421504,-0.140053,-0.0654472,135
0.421951,-0.140267,-0.0646954,134
0.422685,-0.140617,-0.0639878,135
0.422802,-0.140675,-0.0631804,129
0.423588,-0.14105,-0.0624767,134
0.423516,-0.141018,-0.0616386,133
0.423922,-0.141212,-0.0608735,137
0.424809,-0.141635,-0.0601787,138
0.425075,-0.141763,-0.0593891,134
0.425244,-0.141846,-0.0585849,134
0.425271,-0.14186,-0.0577598,137
0.426407,-0.142401,-0.0570913,131
0.426676,-0.142531,-0.056298,135
0.427141,-0.142753,-0.0555306,133
0.42785,-0.143091,-0.0547946,134
0.427879,-0.143107,-0.0539657,138
0.42825,-0.143285,-0.0531816,136
0.428817,-0.143556,-0.0524215,141
0.429633,-0.143945,-0.0516907,138
0.429811,-0.144032,-0.0508777,140
0.429892,-0.144072,-0.0500522,145
0.430466,-0.144347,-0.049286,144
0.431439,-0.14481,-0.0485647,147
0.431472,-0.144828,-0.0477307,144
0.431605,-0.144893,-0.0469081,143
0.432286,-0.145218,-0.0461466,151
0.433369,-0.145734,-0.0454267,151
0.433005,-0.145563,-0.0445466,150
0.433391,-0.145748,-0.0437475,150
0.43408,-0.146077,-0.0429785,155
0.434268,-0.146168,-0.042156,155
0.435162,-0.146594,-0.0414033,156
0.435808,-0.146903,-0.0406228,159
0.435645,-0.146828,-0.0397628,154
0.436293,-0.147137,-0.0389793,158
0.43674,-0.147351,-0.0381751,160
0.436934,-0.147445,-0.0373466,159
0.436773,-0.147371,-0.0364865,154
0.437222,-0.147586,-0.0356793,160
0.437419,-0.147682,-0.0348494,157
0.43828,-0.148092,-0.0340729,157
0.437558,-0.147752,-0.0331678,160
0.437655,-0.1478,-0.0323288,161
0.43816,-0.148042,-0.0315203,164
0.438668,-0.148285,-0.0307101,165
0.437692,-0.147824,-0.0297928,161
0.438251,-0.148091,-0.0289853,162
0.438197,-0.148067,-0.0281347,162
0.437683,-0.147826,-0.0272548,160
0.437325,-0.147658,-0.0263868,161
0.437834,-0.147902,-0.025573,163
0.438089,-0.148025,-0.0247424,165
0.437528,-0.147761,-0.0238648,167
0.438449,-0.1482,-0.0230702,162
0.437632,-0.147815,-0.022181,166
0.438043,-0.148011,-0.021357,169
0.43779,-0.147894,-0.0204995,174
0.43703,-0.147535,-0.0196196,174
0.43678,-0.147418,-0.0187655,176
0.436378,-0.14723,-0.0179061,176
0.437043,-0.147548,-0.0170911,176
0.436948,-0.147504,-0.0162446,183
0.437718,-0.147872,-0.0154297,178
0.43615,-0.14713,-0.0145325,172
0.436005,-0.147064,-0.0136872,177
0.435761,-0.14695,-0.0128395,179
0.435719,-0.146932,-0.0119984,181
0.435376,-0.146771,-0.0111499,180
0.434882,-0.146539,-0.0102993,176
0.433839,-0.146046,-0.00943884,170
0.43345,-0.145864,-0.00859552,172
0.432814,-0.145564,-0.0077495,179
0.432876,-0.145596,-0.0069169,181
0.432541,-0.145439,-0.00607875,177
0.432704,-0.145518,-0.00524765,180
0.432568,-0.145456,-0.00441312,182
0.432434,-0.145394,-0.00357918,178
0.432599,-0.145475,-0.00274733,180
0.432515,-0.145437,-0.00191405,183
0.431342,-0.144882,-0.00107991,177
0.431656,-0.145033,-0.00024915,175
0.431475,-0.14495,0.000581421,175
0.431,-0.144726,0.00140978,173
0.432057,-0.14523,0.0022471,175
0.431532,-0.144983,0.00307429,171
0.431651,-0.145041,0.00390657,172
0.431771,-0.1451,0.00473939,171
0.431742,-0.145089,0.00557047,170
0.431319,-0.14489,0.00639463,171
0.431539,-0.144997,0.00722958,175
0.431463,-0.144963,0.00805914,168
0.431635,-0.145046,0.00889427,174
0.43156,-0.145013,0.00972387,164
0.431535,-0.145003,0.0105546,166
0.431561,-0.145017,0.0113868,162
0.431636,-0.145055,0.0122208,162
0.430724,-0.144624,0.0130218,163
0.431492,-0.144991,0.0138793,160
0.432065,-0.145265,0.0147327,161
0.433637,-0.146013,0.0156284,166
0.432718,-0.145579,0.0164262,158
0.431903,-0.145195,0.0172248,163
0.432579,-0.145517,0.0180889,161
0.43271,-0.145581,0.0189297,169
0.432691,-0.145575,0.0197636,162
0.432723,-0.145592,0.0206002,165
0.433605,-0.146012,0.0214832,164
0.433989,-0.146197,0.0223419,168
0.433772,-0.146096,0.0231673,167
0.433857,-0.146139,0.0240101,163
0.434043,-0.146229,0.0248598,167
0.433528,-0.145986,0.0256651,167
0.434165,-0.146291,0.0265453,163
0.434102,-0.146263,0.0273801,162
0.43419,-0.146307,0.0282255,167
0.434681,-0.146542,0.0291008,166
0.434569,-0.146491,0.0299331,160
0.43481,-0.146608,0.0307924,162
0.435759,-0.14706,0.0317087,155
0.435043,-0.146722,0.0324942,158
0.436298,-0.147321,0.0334407,156
0.43624,-0.147295,0.0342808,161
0.436029,-0.147197,0.0351075,163
0.435921,-0.147148,0.0359428,161
0.436219,-0.147291,0.0368149,159
0.43601,-0.147194,0.0376412,160
0.43697,-0.147652,0.0385784,170
0.436711,-0.147531,0.0394009,161
0.436809,-0.14758,0.0402581,162
0.436959,-0.147653,0.0411212,165
0.437313,-0.147823,0.0420064,160
0.436954,-0.147655,0.0428179,164
0.438025,-0.148166,0.0437823,159
0.436748,-0.147561,0.0444934,158
0.43736,-0.147854,0.045411,161
0.437105,-0.147735,0.0462325,161
0.437463,-0.147907,0.0471245,163
0.43675,-0.147571,0.0478916,164
0.437058,-0.147719,0.0487789,162
0.436959,-0.147674,0.0496178,163
0.436708,-0.147557,0.0504378,166
0.436152,-0.147295,0.0512185,162
0.436258,-0.147348,0.0520823,162
0.437129,-0.147764,0.0530467,166
0.436931,-0.147672,0.0538732,161
0.43521,-0.146856,0.054494,162
0.43674,-0.147585,0.0555528,166
0.436798,-0.147615,0.0564139,169
0.436144,-0.147307,0.0571751,170
0.436204,-0.147337,0.058036,169
0.436569,-0.147513,0.0589419,172
0.436528,-0.147495,0.0597898,178
0.436182,-0.147333,0.0605924,183
0.437009,-0.147728,0.0615714,180
0.43529,-0.146914,0.0621637,182
0.434291,-0.146441,0.0628611,182
0.434303,-0.146449,0.063714,184
0.433109,-0.145884,0.0643748,182
0.434077,-0.146346,0.0653807,186
0.433336,-0.145997,0.0661111,174
0.432049,-0.145387,0.0667481,176
0.431714,-0.145231,0.0675402,172
0.43024,-0.144532,0.0681374,178
0.430156,-0.144495,0.0689682,176
0.430023,-0.144434,0.0697907,177
0.429349,-0.144115,0.0705173,170
0.428971,-0.143938,0.0712947,172
0.430173,-0.144511,0.0723558,176
0.429253,-0.144076,0.0730349,179
0.428189,-0.143573,0.0736843,172
0.428012,-0.143491,0.0744951,164
0.428129,-0.143549,0.0753611,169
0.428296,-0.14363,0.0762376,164
0.428414,-0.143688,0.0771059,166
0.427308,-0.143165,0.0777362,162
0.427916,-0.143456,0.0787003,163
0.42784,-0.143422,0.0795311,159
0.42796,-0.143481,0.0804016,160
0.42813,-0.143564,0.0812831,157
0.427761,-0.143391,0.082055,153
0.427834,-0.143428,0.0829176,154
0.428447,-0.143721,0.0838945,156
0.428423,-0.143712,0.0847393,156
0.428301,-0.143656,0.0855635,154
0.428327,-0.14367,0.0864196,152
0.428354,-0.143685,0.0872765,150
0.428824,-0.143911,0.0882318,152
0.428753,-0.143879,0.0890692,152
0.428535,-0.143778,0.0898736,146
0.429106,-0.144051,0.0908568,156
0.428839,-0.143926,0.0916509,146
0.429264,-0.144131,0.0926043,155
0.4288,-0.143912,0.0933528,149
0.429227,-0.144117,0.0943093,146
0.429754,-0.14437,0.095292,146
0.429389,-0.144198,0.0960639,153
0.431014,-0.144973,0.0973156,148
0.429951,-0.14447,0.0979195,147
0.431482,-0.145199,0.0991573,148
0.430667,-0.144814,0.0998202,151
0.430802,-0.14488,0.100718,147
0.430837,-0.144899,0.101592,148
0.431826,-0.145371,0.102709,148
0.43096,-0.144962,0.103355,145
0.431248,-0.145101,0.104296,143
0.432039,-0.145479,0.10537,156
0.431926,-0.145428,0.106211,146
0.431212,-0.14509,0.106892,151
0.431301,-0.145135,0.107786,149
0.432146,-0.145539,0.108884,148
0.432338,-0.145632,0.109809,150
0.43253,-0.145726,0.110735,147
0.432522,-0.145724,0.111608,144
0.432918,-0.145914,0.112594,147
0.43291,-0.145913,0.113469,142
0.433055,-0.145984,0.114387,144
0.433963,-0.146417,0.115524,143
0.433957,-0.146417,0.116403,143
0.434104,-0.146489,0.117328,139
0.434406,-0.146634,0.118298,139
0.434913,-0.146878,0.11933,136
0.434295,-0.146586,0.120034,141
0.434547,-0.146708,0.120994,141
0.434646,-0.146758,0.12191,146
0.435516,-0.147173,0.123059,139
0.435001,-0.14693,0.123792,140
0.435616,-0.147225,0.12487,141
0.435666,-0.147251,0.125777,143
0.435203,-0.147033,0.126525,143
0.435512,-0.147182,0.127513,138
0.435512,-0.147185,0.128406,137
0.435874,-0.147359,0.129415,149
0.435927,-0.147386,0.130327,140
0.435774,-0.147316,0.131174,137
0.435725,-0.147295,0.132054,137
0.435883,-0.147372,0.133002,137
0.43599,-0.147425,0.133935,137
0.435219,-0.147061,0.13458,141
0.435636,-0.147261,0.135617,140
0.436313,-0.147586,0.136743,136
0.436163,-0.147517,0.137594,138
0.43591,-0.147398,0.13841,137
0.436746,-0.147798,0.139598,136
0.437221,-0.148026,0.140666,143
0.437073,-0.147958,0.141521,140
0.43656,-0.147716,0.14225,140
0.436568,-0.147722,0.14316,137
0.436941,-0.147902,0.144198,136
0.43669,-0.147785,0.145018,140
0.436439,-0.147668,0.145838,138
0.436241,-0.147576,0.146677,133
0.436719,-0.147806,0.147759,144
0.436261,-0.14759,0.148505,143
0.436481,-0.147697,0.149496,136
0.436336,-0.14763,0.150356,139
0.435984,-0.147465,0.151139,145
0.435996,-0.147473,0.152056,150
0.436321,-0.14763,0.153092,147
0.435658,-0.147317,0.153758,136
0.435671,-0.147326,0.154677,139
0.435841,-0.147409,0.155657,138
0.435543,-0.147269,0.15646,147
0.43561,-0.147303,0.157403,142
0.435313,-0.147165,0.158205,144
0.435276,-0.147149,0.159109,144
0.435344,-0.147184,0.160054,144
0.434893,-0.146972,0.160796,142
0.434184,-0.146637,0.161435,143
0.43477,-0.146918,0.162587,140
0.43458,-0.14683,0.163431,150
0.433873,-0.146496,0.164068,144
0.434875,-0.146975,0.165394,148
0.43396,-0.146542,0.165945,135
0.433255,-0.146209,0.166578,141
0.43317,-0.146171,0.167465,138
0.432828,-0.146011,0.168245,130
0.432796,-0.145998,0.169154,134
0.432404,-0.145813,0.169913,137
0.431602,-0.145434,0.170499,132
0.432443,-0.145837,0.171776,137
0.431385,-0.145336,0.172251,136
0.430639,-0.144983,0.172855,140
0.429997,-0.14468,0.173502,130
0.430272,-0.144813,0.174542,140
0.429733,-0.144559,0.175231,127
0.429144,-0.144282,0.175897,124
0.429267,-0.144342,0.176874,120
0.429238,-0.144331,0.177784,119
0.429006,-0.144223,0.178606,106
0.429282,-0.144356,0.179654,109
0.42824,-0.143863,0.180113,110
0.429175,-0.14431,0.181459,110
0.428691,-0.144082,0.182167,112
0.428157,-0.14383,0.182852,112
0.427776,-0.143652,0.183605,111
0.428356,-0.14393,0.184799,113
0.428279,-0.143896,0.185693,113
0.429168,-0.144321,0.187036,115
0.428431,-0.143972,0.187625,109
0.42805,-0.143794,0.188379,110
0.42762,-0.143591,0.189109,106
0.427798,-0.143678,0.190125,111
0.427419,-0.1435,0.190879,106
0.427243,-0.143419,0.191729,110
0.427422,-0.143506,0.192748,107
0.428413,-0.143981,0.194162,114
0.427426,-0.143513,0.194623,108
0.427403,-0.143504,0.195549,114
0.42738,-0.143496,0.196476,104
0.427866,-0.143729,0.197654,106
0.427946,-0.14377,0.198635,143
0.428077,-0.143835,0.199643,100
0.428464,-0.144021,0.200779,100
0.427985,-0.143795,0.201485,92
0.411479,-0.131227,-0.204254,7
0.414316,-0.132545,-0.204828,10
0.417579,-0.13406,-0.20561,13
0.414237,-0.132513,-0.202961,8
0.419289,-0.134857,-0.204652,10
0.416064,-0.133364,-0.202076,9
0.414928,-0.13284,-0.200582,12
0.412528,-0.13173,-0.198452,11
0.415614,-0.133162,-0.199109,8
0.414057,-0.132443,-0.197414,14
0.412795,-0.13186,-0.195876,11
0.411589,-0.131303,-0.194373,14
0.411322,-0.131181,-0.193342,16
0.411148,-0.131103,-0.192359,19
0.411765,-0.131391,-0.191767,13
0.412947,-0.131942,-0.19145,12
0.412398,-0.131689,-0.190285,20
0.411664,-0.131351,-0.189033,22
0.414255,-0.132555,-0.189391,17
0.413046,-0.131996,-0.187912,14
0.413388,-0.132157,-0.187181,19
0.411766,-0.131407,-0.185514,13
0.412807,-0.131892,-0.185117,21
0.413853,-0.132379,-0.184719,18
0.415329,-0.133066,-0.184519,23
0.414871,-0.132856,-0.18341,22
0.414414,-0.132647,-0.182304,19
0.414053,-0.132481,-0.181245,19
0.414963,-0.132906,-0.180774,17
0.414696,-0.132784,-0.17976,16
0.415325,-0.133078,-0.179157,20
0.41454,-0.132716,-0.17791,21
0.415784,-0.133295,-0.177583,19
0.417034,-0.133877,-0.177255,20
0.417337,-0.13402,-0.176498,24
0.417449,-0.134074,-0.175656,24
0.416325,-0.133555,-0.174268,24
0.416532,-0.133653,-0.173471,21
0.416124,-0.133466,-0.172405,26
0.418139,-0.134403,-0.172397,25
0.418732,-0.13468,-0.171764,29
0.415707,-0.133279,-0.16957,23
0.416909,-0.133839,-0.169203,30
0.416976,-0.133872,-0.168347,28
0.417899,-0.134303,-0.167855,32
0.417823,-0.13427,-0.166938,30
0.418463,-0.134569,-0.166322,30
0.418484,-0.13458,-0.165446,26
0.418218,-0.134459,-0.164452,27
0.419386,-0.135003,-0.164051,34
0.419695,-0.135149,-0.163294,31
0.421161,-0.135831,-0.163009,30
0.41969,-0.135151,-0.161523,29
0.420529,-0.135542,-0.16098,28
0.421129,-0.135823,-0.160337,30
0.420188,-0.135389,-0.159076,32
0.421126,-0.135826,-0.158567,37
0.420138,-0.13537,-0.157294,33
0.422771,-0.136593,-0.157449,34
0.422211,-0.136336,-0.156345,39
0.420353,-0.135476,-0.154739,41
0.423036,-0.136723,-0.154898,32
0.422526,-0.136488,-0.153818,37
0.423036,-0.136727,-0.153131,34
0.422964,-0.136696,-0.152222,40
0.423378,-0.136891,-0.151497,32
0.423209,-0.136814,-0.150552,37
0.421203,-0.135886,-0.148923,38
0.42205,-0.136281,-0.148362,37
0.421642,-0.136094,-0.147335,34
0.421717,-0.136131,-0.146488,42
0.421601,-0.136079,-0.145571,38
0.422788,-0.136632,-0.145128,38
0.421368,-0.135975,-0.143742,42
0.421397,-0.135991,-0.142881,43
0.420036,-0.135362,-0.141526,47
0.419685,-0.135201,-0.140534,51
0.419953,-0.135327,-0.139763,45
0.419983,-0.135344,-0.138908,46
0.419633,-0.135183,-0.137922,49
0.421336,-0.135976,-0.137646,56
0.41979,-0.135261,-0.13625,51
0.421447,-0.136032,-0.135952,55
0.419997,-0.135361,-0.134595,51
0.420363,-0.135533,-0.133857,51
0.421161,-0.135905,-0.133262,51
0.420572,-0.135634,-0.132204,60
0.420511,-0.135608,-0.131323,60
0.420735,-0.135714,-0.130536,58
0.421487,-0.136065,-0.129921,64
0.419852,-0.135308,-0.128532,61
0.420458,-0.135592,-0.12787,59
0.420684,-0.135699,-0.127084,57
0.420244,-0.135497,-0.126088,58
0.419331,-0.135075,-0.124945,62
0.419699,-0.135248,-0.124207,58
0.420116,-0.135444,-0.123483,66
0.419821,-0.135309,-0.122539,69
0.419575,-0.135197,-0.121611,71
0.420657,-0.135701,-0.12109,70
0.419226,-0.135039,-0.119805,67
0.419549,-0.135191,-0.119052,67
0.419872,-0.135343,-0.1183,62
0.41892,-0.134903,-0.117169,67
0.41929,-0.135077,-0.116431,71
0.418624,-0.13477,-0.11539,72
0.419324,-0.135097,-0.114748,74
0.418377,-0.13466,-0.113631,81
0.418654,-0.13479,-0.112866,80
0.418696,-0.134812,-0.112035,80
0.419163,-0.135031,-0.111323,83
0.419583,-0.135228,-0.110597,85
0.419296,-0.135097,-0.109675,80
0.419482,-0.135185,-0.108884,81
0.419384,-0.135142,-0.108015,92
0.418958,-0.134946,-0.107059,93
0.41844,-0.134708,-0.106081,97
0.419331,-0.135124,-0.105479,89
0.419001,-0.134972,-0.104553,95
0.419048,-0.134996,-0.103727,98
0.418484,-0.134737,-0.102743,98
0.417644,-0.134348,-0.101691,98
0.417458,-0.134264,-0.10081,94
0.415929,-0.133556,-0.0995902,93
0.415746,-0.133474,-0.0987154,98
0.415288,-0.133263,-0.0977733,97
0.41419,-0.132755,-0.0966759,104
0.413326,-0.132356,-0.0956411,99
0.413057,-0.132234,-0.0947545,101
0.413381,-0.132386,-0.0940117,104
0.413523,-0.132454,-0.0932248,104
0.414167,-0.132755,-0.0925565,103
0.414082,-0.132717,-0.0917152,101
0.414317,-0.132828,-0.090949,94
0.414278,-0.132812,-0.0901194,102
0.414376,-0.13286,-0.0893218,104
0.414979,-0.133142,-0.0886379,110
0.415033,-0.133169,-0.0878294,106
0.415225,-0.133261,-0.0870516,105
0.41597,-0.133608,-0.0863946,103
0.415749,-0.133508,-0.0855253,104
0.416219,-0.133728,-0.084806,105
0.416229,-0.133735,-0.0839873,109
0.416147,-0.133699,-0.0831496,108
0.416389,-0.133813,-0.0823801,108
0.416677,-0.133949,-0.0816198,113
0.417569,-0.134365,-0.080982,112
0.41772,-0.134437,-0.0801912,118
0.418151,-0.13464,-0.0794561,118
0.418257,-0.134691,-0.0786553,115
0.41883,-0.134959,-0.077946,118
0.418145,-0.134643,-0.0769906,116
0.418998,-0.135041,-0.0763338,120
0.419153,-0.135115,-0.0755413,125
0.419542,-0.135298,-0.0747926,123
0.419886,-0.13546,-0.0740341,120
0.420325,-0.135666,-0.0732921,121
0.420247,-0.135632,-0.0724549,122
0.420829,-0.135904,-0.0717368,125
0.420705,-0.135849,-0.0708914,121
0.421619,-0.136275,-0.070229,129
0.422016,-0.136462,-0.0694736,130
0.42232,-0.136605,-0.0687008,134
0.42329,-0.137057,-0.06804,126
0.423357,-0.137091,-0.0672247,129
0.423664,-0.137235,-0.0664489,135
0.423972,-0.13738,-0.0656724,136
0.424424,-0.137592,-0.0649182,130
0.424733,-0.137738,-0.0641398,130
0.425236,-0.137973,-0.0633908,132
0.425596,-0.138143,-0.062618,137
0.425234,-0.137977,-0.0617339,137
0.425788,-0.138236,-0.0609894,135
0.42644,-0.138541,-0.0602576,135
0.427046,-0.138825,-0.0595167,138
0.426781,-0.138704,-0.0586478,132
0.42734,-0.138965,-0.0578977,136
0.427707,-0.139138,-0.0571186,131
0.428514,-0.139515,-0.0563991,133
0.42859,-0.139553,-0.0555771,138
0.428961,-0.139727,-0.0547946,140
0.429921,-0.140175,-0.0540887,142
0.431035,-0.140694,-0.0533991,145
0.430818,-0.140596,-0.052535,142
0.431145,-0.14075,-0.0517405,144
0.431325,-0.140835,-0.0509266,145
0.431901,-0.141105,-0.0501607,147
0.43243,-0.141353,-0.049387,145
0.432712,-0.141486,-0.0485823,147
0.433045,-0.141643,-0.0477825,146
0.433229,-0.14173,-0.0469648,153
0.433763,-0.141981,-0.0461856,149
0.43455,-0.142349,-0.0454322,151
0.434938,-0.142531,-0.0446329,147
0.435277,-0.142691,-0.0438271,151
0.435012,-0.14257,-0.0429577,150
0.436009,-0.143035,-0.0422174,153
0.436554,-0.14329,-0.0414284,155
0.437253,-0.143617,-0.0406525,154
0.436937,-0.143472,-0.0397772,151
0.437384,-0.143682,-0.0389746,152
0.437374,-0.14368,-0.0381287,155
0.437619,-0.143796,-0.0373057,162
0.437866,-0.143912,-0.0364821,161
0.437908,-0.143934,-0.0356403,161
0.438054,-0.144004,-0.0348071,158
0.439276,-0.144574,-0.0340604,153
0.437378,-0.143694,-0.0330633,152
0.43778,-0.143883,-0.0322505,160
0.43803,-0.144001,-0.0314248,158
0.438587,-0.144262,-0.0306206,155
0.437613,-0.143812,-0.0297063,157
0.438478,-0.144216,-0.0289221,157
0.438015,-0.144003,-0.0280462,160
0.437605,-0.143814,-0.0271759,163
0.438114,-0.144053,-0.0263645,169
0.43796,-0.143983,-0.0255114,169
0.437399,-0.143725,-0.0246352,168
0.438011,-0.144011,-0.0238274,173
0.437604,-0.143824,-0.0229621,173
0.437708,-0.143875,-0.0221251,172
0.437557,-0.143807,-0.0212751,170
0.437306,-0.143692,-0.020421,175
0.437665,-0.143861,-0.0195961,177
0.437364,-0.143723,-0.0187408,179
0.437064,-0.143586,-0.0178869,175
0.436917,-0.14352,-0.0170404,175
0.434954,-0.142609,-0.0161259,181
0.43481,-0.142544,-0.0152846,181
0.434266,-0.142294,-0.0144304,181
0.434123,-0.142229,-0.0135913,179
0.433782,-0.142073,-0.0127469,176
0.433741,-0.142056,-0.0119123,179
0.433351,-0.141877,-0.011069,176
0.432864,-0.141652,-0.010225,174
0.433222,-0.141821,-0.00940122,175
0.432687,-0.141574,-0.00855864,176
0.432301,-0.141397,-0.00772091,177
0.433009,-0.141728,-0.00690157,172
0.432674,-0.141574,-0.00606548,169
0.433135,-0.141791,-0.00523977,176
0.432057,-0.141292,-0.00439796,174
0.432816,-0.141646,-0.00357379,173
0.432831,-0.141656,-0.0027427,169
0.431658,-0.141112,-0.00190784,171
0.432764,-0.141629,-0.00108024,171
0.432533,-0.141523,-0.000249388,175
0.432799,-0.141649,0.000582017,171
0.432867,-0.141683,0.00141353,173
0.432489,-0.141509,0.00224217,171
0.43231,-0.141428,0.00307112,168
0.431687,-0.14114,0.0038944,173
0.43245,-0.141497,0.00473349,169
0.430939,-0.140797,0.00554106,166
0.4318,-0.141199,0.0063835,173
0.432119,-0.141349,0.00721904,172
0.43229,-0.141431,0.00805278,173
0.432413,-0.14149,0.00888614,172
0.432091,-0.141342,0.00970872,174
0.432264,-0.141425,0.0105437,175
0.432388,-0.141485,0.011378,171
0.432018,-0.141315,0.0121973,170
0.432193,-0.141398,0.0130335,171
0.432022,-0.141321,0.0138581,173
0.43121,-0.140945,0.0146579,170
0.432078,-0.141351,0.0155214,172
0.431464,-0.141067,0.0163265,172
0.431148,-0.140923,0.0171423,173
0.432464,-0.141537,0.0180318,167
0.432296,-0.141461,0.0188557,165
0.431931,-0.141293,0.0196691,166
0.432459,-0.14154,0.0205277,168
0.432442,-0.141535,0.021359,168
0.431682,-0.141183,0.0221488,161
0.432459,-0.141547,0.0230249,162
0.432344,-0.141495,0.0238507,166
0.432826,-0.141722,0.0247134,162
0.432613,-0.141625,0.0255334,165
0.4326,-0.14162,0.026366,165
0.433683,-0.142126,0.0272737,165
0.434622,-0.142565,0.0281759,166
0.433959,-0.142259,0.0289659,161
0.434198,-0.142372,0.0298207,153
0.434287,-0.142416,0.0306651,156
0.434478,-0.142506,0.0315181,159
0.43477,-0.142644,0.0323802,158
0.43456,-0.142549,0.0332022,162
0.434552,-0.142547,0.0340406,164
0.434745,-0.142639,0.0348968,168
0.434838,-0.142685,0.035745,167
0.434932,-0.14273,0.0365939,166
0.434575,-0.142566,0.0374014,165
0.434821,-0.142683,0.038265,165
0.435168,-0.142846,0.0391398,161
0.434963,-0.142753,0.0399613,160
0.434808,-0.142683,0.0407874,159
0.435108,-0.142824,0.04166,164
0.435206,-0.142872,0.042513,161
0.435204,-0.142874,0.0433558,158
0.435203,-0.142875,0.0441989,165
0.43485,-0.142713,0.0450031,163
0.43485,-0.142715,0.0458461,161
0.435102,-0.142835,0.0467187,164
0.434902,-0.142744,0.0475393,160
0.435257,-0.142911,0.0484258,160
0.435562,-0.143055,0.049308,173
0.435414,-0.142988,0.0501356,167
0.435014,-0.142804,0.0509311,164
0.434917,-0.142761,0.0517642,168
0.435123,-0.142859,0.0526366,169
0.435078,-0.14284,0.0534769,171
0.434832,-0.142728,0.0542904,165
0.434737,-0.142686,0.0551238,168
0.434694,-0.142668,0.0559643,167
0.434601,-0.142627,0.0567979,162
0.435012,-0.14282,0.0577033,167
0.433362,-0.142054,0.0583128,169
0.433221,-0.141991,0.0591371,172
0.434536,-0.142605,0.0601776,174
0.433893,-0.142308,0.0609287,173
0.433552,-0.142151,0.0617238,178
0.432913,-0.141856,0.0624715,179
0.432475,-0.141654,0.0632486,183
0.432437,-0.141639,0.0640879,180
0.432201,-0.141531,0.0648954,176
0.432264,-0.141562,0.0657511,176
0.430589,-0.140785,0.0663204,181
0.429912,-0.140472,0.06705,179
0.428992,-0.140046,0.067736,175
0.42886,-0.139987,0.0685536,175
0.428728,-0.139927,0.0693712,172
0.428793,-0.13996,0.0702232,174
0.429645,-0.140358,0.0712158,176
0.428189,-0.139683,0.0717974,174
0.427669,-0.139443,0.0725435,171
0.429107,-0.140114,0.0736481,168
0.427412,-0.139328,0.0741763,163
0.428555,-0.139862,0.0752317,165
0.42833,-0.139759,0.076032,166
0.427714,-0.139474,0.0767567,160
0.427344,-0.139304,0.077527,160
0.427462,-0.139361,0.0783923,158
0.427337,-0.139305,0.0792101,156
0.427847,-0.139545,0.0801554,160
0.428703,-0.139945,0.0811734,157
0.427599,-0.139434,0.0817939,156
0.428947,-0.140063,0.0829176,156
0.427647,-0.13946,0.0834939,147
0.428652,-0.13993,0.084552,152
0.42799,-0.139624,0.0852593,150
0.428261,-0.139752,0.0861652,151
0.42868,-0.139949,0.087105,149
0.429003,-0.140102,0.0880258,153
0.428538,-0.139887,0.0887739,146
0.429206,-0.1402,0.0897741,150
0.42884,-0.140032,0.0905441,151
0.429017,-0.140117,0.0914367,148
0.428554,-0.139903,0.0921834,149
0.42962,-0.140402,0.0932838,148
0.429651,-0.140418,0.0941466,149
0.42988,-0.140527,0.095057,150
0.430111,-0.140637,0.0959691,147
0.429846,-0.140515,0.0967635,147
0.430524,-0.140833,0.0977864,146
0.430409,-0.140782,0.0986183,147
0.430542,-0.140846,0.0995118,149
0.431476,-0.141283,0.100606,146
0.431311,-0.141208,0.101428,146
0.431898,-0.141484,0.102441,145
0.431634,-0.141363,0.103239,142
0.432122,-0.141592,0.104231,141
0.432412,-0.141729,0.105174,142
0.432601,-0.14182,0.106092,144
0.432187,-0.141629,0.106852,143
0.432277,-0.141673,0.107746,142
0.432619,-0.141834,0.108708,147
0.432861,-0.141949,0.109645,146
0.432902,-0.141971,0.110529,148
0.433197,-0.14211,0.111483,146
0.43334,-0.142179,0.112397,148
0.433738,-0.142366,0.113384,141
0.433477,-0.142247,0.114187,152
0.433521,-0.14227,0.115077,149
0.433667,-0.14234,0.115996,145
0.433814,-0.14241,0.116917,143
0.434215,-0.142599,0.117913,141
0.434772,-0.142861,0.118956,135
0.434716,-0.142837,0.119823,137
0.435224,-0.143076,0.120857,141
0.435734,-0.143315,0.121895,137
0.435783,-0.14334,0.122796,139
0.435935,-0.143414,0.12373,139
0.436037,-0.143463,0.12465,138
0.436293,-0.143585,0.125618,143
0.43619,-0.143539,0.126477,139
0.436861,-0.143853,0.127577,138
0.437017,-0.143928,0.12852,138
0.437433,-0.144124,0.129546,140
0.437382,-0.144103,0.130426,136
0.437437,-0.14413,0.13134,139
0.437335,-0.144085,0.132204,141
0.437754,-0.144283,0.133238,141
0.437134,-0.143996,0.133935,136
0.437554,-0.144194,0.134972,139
0.437871,-0.144344,0.135978,136
0.437459,-0.144154,0.136743,136
0.438038,-0.144426,0.137838,137
0.437314,-0.144091,0.138498,135
0.437737,-0.144291,0.139545,136
0.437744,-0.144296,0.140452,140
0.438064,-0.144447,0.141467,130
0.438124,-0.144478,0.142395,133
0.437976,-0.144411,0.143251,134
0.438718,-0.144759,0.144419,137
0.438046,-0.144448,0.145092,135
0.437951,-0.144406,0.145968,141
0.438065,-0.144462,0.146919,141
0.437919,-0.144396,0.147778,137
0.437721,-0.144305,0.148618,143
0.43836,-0.144606,0.149763,141
0.437953,-0.144418,0.150528,137
0.438227,-0.144548,0.151543,143
0.437663,-0.144288,0.15225,143
0.437624,-0.144272,0.15315,145
0.437585,-0.144256,0.154051,137
0.437808,-0.144362,0.155052,140
0.437351,-0.144152,0.155796,144
0.437418,-0.144185,0.156739,145
0.436858,-0.143926,0.157443,148
0.436977,-0.143984,0.158407,146
0.437569,-0.144262,0.159555,147
0.436695,-0.143857,0.160136,141
0.436764,-0.143892,0.161083,135
0.436728,-0.143877,0.16199,138
0.436484,-0.143766,0.162814,128
0.436136,-0.143606,0.163598,132
0.435737,-0.143423,0.164359,135
0.435235,-0.143191,0.165079,134
0.436086,-0.14359,0.166346,137
0.43496,-0.143067,0.166811,134
0.434667,-0.142933,0.167614,139
0.434738,-0.142969,0.168566,138
0.435018,-0.143101,0.169606,138
0.433535,-0.142413,0.169913,145
0.433452,-0.142376,0.170801,137
0.432853,-0.1421,0.171472,137
0.432668,-0.142015,0.172317,134
0.43202,-0.141716,0.172964,134
0.431785,-0.141608,0.173786,133
0.431294,-0.141382,0.174498,127
0.431212,-0.141346,0.175386,126
0.431234,-0.141359,0.176319,126
0.431153,-0.141323,0.177208,120
0.430664,-0.141098,0.177919,121
0.430533,-0.141039,0.178786,113
0.431374,-0.141433,0.180085,113
0.430885,-0.141208,0.180795,110
0.4305,-0.14103,0.18155,116
0.429962,-0.140782,0.182236,116
0.430905,-0.141224,0.183592,116
0.429857,-0.140738,0.184045,109
0.430443,-0.141013,0.185243,111
0.429142,-0.140409,0.185576,112
0.429676,-0.14066,0.186752,118
0.429905,-0.14077,0.187791,107
0.429574,-0.140617,0.188569,115
0.429141,-0.140418,0.1893,113
0.429473,-0.140575,0.190389,111
0.430934,-0.141258,0.192016,103
0.429885,-0.140772,0.192456,111
0.429452,-0.140572,0.193187,109
0.428461,-0.140113,0.193648,110
0.428641,-0.140199,0.194672,107
0.428466,-0.14012,0.195524,106
0.429412,-0.140563,0.196924,99
0.429084,-0.140412,0.197704,96
0.428858,-0.140309,0.198535,138
0.428072,-0.139946,0.199088,101
0.428204,-0.140009,0.200095,100
0.428845,-0.140311,0.201357,102
0.416436,-0.12978,-0.206313,13
0.419973,-0.131389,-0.207236,13
0.417123,-0.130097,-0.204835,12
0.417563,-0.130299,-0.204146,13
0.415321,-0.129283,-0.202078,10
0.417917,-0.130464,-0.202494,13
0.415625,-0.129426,-0.200412,12
0.418175,-0.130586,-0.200794,8
0.413796,-0.1286,-0.197672,14
0.412819,-0.128158,-0.196278,12
0.413771,-0.128592,-0.195853,16
0.412655,-0.128088,-0.194396,17
0.413135,-0.128308,-0.193736,16
0.409891,-0.126837,-0.191239,25
0.413347,-0.128409,-0.192043,15
0.413031,-0.128268,-0.190992,14
0.411041,-0.127366,-0.189129,18
0.41217,-0.127881,-0.188785,19
0.410698,-0.127215,-0.187185,17
0.412664,-0.12811,-0.187239,20
0.414319,-0.128864,-0.187136,16
0.412366,-0.127979,-0.185315,18
0.413127,-0.128327,-0.184786,17
0.412815,-0.128187,-0.183749,19
0.413064,-0.128302,-0.182977,22
0.414768,-0.129078,-0.182882,23
0.413328,-0.128427,-0.181324,19
0.413999,-0.128734,-0.180747,15
0.414485,-0.128957,-0.180082,19
0.417007,-0.130105,-0.180344,21
0.41688,-0.130049,-0.179394,21
0.414675,-0.12905,-0.177506,27
0.41441,-0.128932,-0.176501,20
0.415179,-0.129283,-0.175961,25
0.414821,-0.129122,-0.174916,24
0.417249,-0.130228,-0.175107,23
0.417171,-0.130195,-0.174184,23
0.416667,-0.129968,-0.173076,21
0.41697,-0.130107,-0.172322,25
0.420288,-0.131617,-0.172877,22
0.4181,-0.130626,-0.17104,27
0.421243,-0.132055,-0.171503,25
0.419429,-0.131234,-0.169836,25
0.421619,-0.132231,-0.169879,23
0.419564,-0.131299,-0.168118,29
0.418626,-0.130876,-0.166837,27
0.420372,-0.131671,-0.166684,32
0.420104,-0.131551,-0.165686,30
0.419548,-0.131301,-0.16457,34
0.421834,-0.132342,-0.164628,32
0.420166,-0.131586,-0.163057,35
0.422215,-0.132519,-0.163009,33
0.422091,-0.132465,-0.162071,33
0.42187,-0.132367,-0.161097,35
0.422474,-0.132644,-0.160454,34
0.422302,-0.132568,-0.1595,34
0.423005,-0.132889,-0.158894,36
0.422687,-0.132747,-0.157884,38
0.424613,-0.133624,-0.157755,35
0.423805,-0.133259,-0.156554,33
0.423731,-0.133228,-0.155641,37
0.425076,-0.133841,-0.155275,35
0.425051,-0.133832,-0.15438,37
0.425419,-0.134002,-0.153635,34
0.42569,-0.134127,-0.152853,42
0.426355,-0.134431,-0.152218,38
0.424466,-0.133575,-0.150625,37
0.425422,-0.134012,-0.150101,34
0.424372,-0.133537,-0.14883,37
0.424936,-0.133795,-0.148158,38
0.423792,-0.133278,-0.14686,45
0.426168,-0.13436,-0.146847,44
0.423605,-0.133197,-0.145041,43
0.422955,-0.132903,-0.143933,41
0.423371,-0.133095,-0.143209,40
0.423885,-0.133331,-0.142518,45
0.422173,-0.132555,-0.141042,45
0.422203,-0.13257,-0.140184,43
0.422233,-0.132586,-0.139326,47
0.421255,-0.132144,-0.13812,44
0.423018,-0.132947,-0.137862,47
0.422038,-0.132504,-0.136659,50
0.421446,-0.132237,-0.135593,45
0.42191,-0.13245,-0.134886,51
0.421606,-0.132314,-0.133921,53
0.421783,-0.132397,-0.133118,52
0.421673,-0.132349,-0.13222,50
0.421706,-0.132366,-0.13137,58
0.421836,-0.132427,-0.130552,49
0.421775,-0.132401,-0.129672,53
0.421427,-0.132245,-0.128701,53
0.421605,-0.132329,-0.1279,52
0.421545,-0.132304,-0.127024,61
0.42077,-0.131953,-0.125922,60
0.421666,-0.132362,-0.125349,62
0.420891,-0.132013,-0.124252,63
0.42241,-0.132705,-0.123868,62
0.4213,-0.132202,-0.122671,62
0.421958,-0.132504,-0.122019,64
0.4209,-0.132025,-0.120844,63
0.421081,-0.132109,-0.120048,66
0.420978,-0.132064,-0.119166,69
0.42135,-0.132236,-0.118427,64
0.421438,-0.132278,-0.117602,70
0.421335,-0.132234,-0.116723,66
0.420568,-0.131887,-0.115651,71
0.420847,-0.132016,-0.114885,70
0.420367,-0.131799,-0.113901,73
0.42093,-0.132058,-0.113216,73
0.42102,-0.132101,-0.112395,78
0.420305,-0.131777,-0.11135,81
0.420253,-0.131756,-0.110492,86
0.42025,-0.131757,-0.109649,89
0.419963,-0.131628,-0.108729,88
0.420433,-0.131844,-0.108015,95
0.42062,-0.131931,-0.107224,94
0.419627,-0.131482,-0.106118,93
0.41878,-0.131099,-0.105056,96
0.418826,-0.131122,-0.104232,96
0.417797,-0.130656,-0.103128,92
0.417286,-0.130425,-0.102163,88
0.416684,-0.130154,-0.101178,85
0.415853,-0.129778,-0.100137,93
0.415395,-0.129572,-0.0991946,101
0.414754,-0.129282,-0.0982089,107
0.414849,-0.129328,-0.0974085,101
0.415265,-0.129519,-0.0966872,97
0.414856,-0.129335,-0.0957637,94
0.415274,-0.129527,-0.0950418,96
0.415416,-0.129594,-0.094253,95
0.416342,-0.130017,-0.0936499,95
0.416532,-0.130105,-0.0928704,101
0.415295,-0.129545,-0.091758,102
0.415623,-0.129696,-0.0910127,100
0.416689,-0.130183,-0.0904355,106
0.416927,-0.130293,-0.0896665,104
0.416658,-0.130173,-0.0887829,108
0.417545,-0.130578,-0.0881584,107
0.417739,-0.130668,-0.0873778,104
0.417284,-0.130464,-0.0864552,107
0.418501,-0.131019,-0.0858965,113
0.418045,-0.130814,-0.0849749,110
0.418613,-0.131074,-0.084273,117
0.41923,-0.131357,-0.0835793,122
0.419615,-0.131534,-0.0828352,116
0.420283,-0.13184,-0.0821482,107
0.419638,-0.131549,-0.0811914,110
0.420119,-0.131769,-0.0804647,113
0.420413,-0.131905,-0.0796992,121
0.420098,-0.131764,-0.0788125,120
0.42058,-0.131986,-0.0780836,123
0.420783,-0.132079,-0.0772987,121
0.421079,-0.132217,-0.0765316,125
0.421424,-0.132375,-0.0757728,122
0.421865,-0.132578,-0.0750308,118
0.422117,-0.132695,-0.0742526,120
0.422275,-0.132769,-0.0734565,129
0.422434,-0.132843,-0.0726602,117
0.424021,-0.133567,-0.0721194,128
0.424326,-0.133708,-0.0713454,127
0.424392,-0.13374,-0.0705289,129
0.424028,-0.133576,-0.0696382,127
0.425436,-0.134219,-0.069052,135
0.424784,-0.133924,-0.0681127,130
0.425236,-0.134132,-0.0673604,138
0.426074,-0.134516,-0.0666703,130
0.425999,-0.134483,-0.0658286,133
0.42631,-0.134627,-0.0650495,135
0.427009,-0.134947,-0.0643309,139
0.426838,-0.134871,-0.0634739,135
0.427345,-0.135104,-0.0627225,136
0.427854,-0.135338,-0.0619696,140
0.428073,-0.13544,-0.0611714,132
0.428975,-0.135852,-0.0604739,123
0.428805,-0.135777,-0.0596163,132
0.429418,-0.136058,-0.0588725,130
0.429787,-0.136228,-0.0580919,137
0.429373,-0.136041,-0.0572006,137
0.430529,-0.13657,-0.0565276,136
0.43105,-0.136809,-0.055764,137
0.431919,-0.137206,-0.0550451,139
0.431948,-0.137222,-0.0542124,136
0.431829,-0.13717,-0.0533606,143
0.432554,-0.137501,-0.0526172,140
0.432983,-0.137699,-0.051834,145
0.433513,-0.137942,-0.0510618,148
0.433944,-0.13814,-0.0502758,149
0.435382,-0.138797,-0.0496084,146
0.435164,-0.1387,-0.0487411,152
0.4355,-0.138854,-0.0479388,149
0.434981,-0.13862,-0.0470386,151
0.435317,-0.138776,-0.0462359,156
0.436312,-0.13923,-0.0455038,155
0.4365,-0.139318,-0.0446816,154
0.436486,-0.139314,-0.0438377,150
0.436523,-0.139333,-0.0429993,156
0.437119,-0.139606,-0.0422174,152
0.437056,-0.139579,-0.0413681,161
0.437095,-0.139599,-0.0405292,160
0.436932,-0.139527,-0.0396712,161
0.438142,-0.14008,-0.0389414,161
0.43854,-0.140263,-0.0381333,163
0.438684,-0.140331,-0.0373012,162
0.438522,-0.140259,-0.0364422,155
0.438667,-0.140327,-0.03561,158
0.438711,-0.140349,-0.0347691,159
0.438704,-0.140348,-0.0339241,159
0.438289,-0.140162,-0.0330473,158
0.439152,-0.140557,-0.03227,159
0.438533,-0.140277,-0.0313792,157
0.438325,-0.140184,-0.0305207,159
0.438474,-0.140254,-0.0296884,164
0.438012,-0.140046,-0.0288139,164
0.438264,-0.140163,-0.0279887,165
0.438007,-0.140048,-0.02713,173
0.437497,-0.139818,-0.0262568,175
0.437751,-0.139935,-0.0254316,178
0.438311,-0.140192,-0.0246234,179
0.43699,-0.139593,-0.0237076,172
0.43694,-0.139573,-0.022866,171
0.436133,-0.139207,-0.0219853,175
0.436337,-0.139302,-0.0211586,176
0.436037,-0.139168,-0.0203069,172
0.435186,-0.138782,-0.0194313,177
0.435089,-0.13874,-0.0185924,177
0.434693,-0.138562,-0.0177414,174
0.433899,-0.138202,-0.0168763,173
0.434504,-0.13848,-0.0160672,179
0.432321,-0.137488,-0.0151564,174
0.433072,-0.137832,-0.0143532,178
0.432138,-0.137409,-0.0134937,174
0.432196,-0.137437,-0.0126675,176
0.43176,-0.137241,-0.0118275,172
0.431523,-0.137135,-0.0109943,170
0.431681,-0.137209,-0.0101715,174
0.43179,-0.137261,-0.00934698,178
0.431949,-0.137335,-0.00852306,175
0.431764,-0.137253,-0.00769255,174
0.431431,-0.137103,-0.00686056,171
0.43105,-0.136932,-0.00602933,168
0.431211,-0.137007,-0.00520575,172
0.431127,-0.136971,-0.00437928,166
0.431141,-0.13698,-0.00355388,164
0.431206,-0.137011,-0.00272868,165
0.431222,-0.13702,-0.00190307,167
0.431336,-0.137075,-0.00107751,165
0.431452,-0.137129,-0.000251466,167
0.430928,-0.136893,0.000573145,162
0.431291,-0.13706,0.00140009,166
0.431309,-0.137071,0.00222611,166
0.431427,-0.137126,0.00305312,164
0.43194,-0.137362,0.00388505,160
0.431271,-0.137059,0.00470353,167
0.432973,-0.137836,0.00555535,165
0.432202,-0.137487,0.00637155,169
0.433017,-0.137861,0.00721521,170
0.431605,-0.137219,0.00801482,168
0.43232,-0.137547,0.00885835,171
0.431751,-0.13729,0.0096723,174
0.431332,-0.137101,0.0104881,171
0.432394,-0.137587,0.0113459,166
0.431728,-0.137286,0.0121537,168
0.431458,-0.137165,0.0129721,170
0.431584,-0.137224,0.0138036,166
0.431957,-0.137396,0.0146449,170
0.432778,-0.137772,0.0155057,171
0.431718,-0.137291,0.0162915,173
0.432043,-0.137442,0.0171337,172
0.431975,-0.137413,0.0179592,178
0.433394,-0.138061,0.0188557,171
0.431888,-0.137377,0.0196124,178
0.431623,-0.137259,0.0204274,174
0.4321,-0.137478,0.0212815,169
0.43248,-0.137653,0.0221321,176
0.432811,-0.137806,0.0229817,172
0.432102,-0.137485,0.0237704,167
0.432483,-0.137661,0.0246239,170
0.432965,-0.137882,0.0254856,167
0.432406,-0.13763,0.0262806,167
0.433138,-0.137965,0.0271614,170
0.433424,-0.138097,0.0280142,169
0.433213,-0.138003,0.0288323,167
0.432903,-0.137864,0.0296425,166
0.432992,-0.137907,0.0304819,164
0.43338,-0.138086,0.0313454,170
0.433071,-0.137947,0.0321547,170
0.433511,-0.138149,0.0330245,164
0.433602,-0.138193,0.033867,166
0.433844,-0.138305,0.034723,165
0.433737,-0.138259,0.0355494,167
0.43373,-0.138258,0.0363846,161
0.434074,-0.138416,0.0372525,160
0.434019,-0.138393,0.0380842,162
0.433914,-0.138348,0.0389111,162
0.43391,-0.138348,0.0397478,159
0.433706,-0.138257,0.0405646,159
0.433703,-0.138258,0.0414014,162
0.43405,-0.138418,0.0422753,161
0.435303,-0.138991,0.0432478,167
0.434147,-0.138466,0.0439629,161
0.434247,-0.138514,0.044813,166
0.435402,-0.139042,0.0457833,166
0.434397,-0.138587,0.0465098,166
0.434298,-0.138544,0.0473386,161
0.433749,-0.138295,0.0481135,167
0.434101,-0.138458,0.048996,167
0.434004,-0.138416,0.0498246,169
0.435263,-0.138992,0.0508234,160
0.433661,-0.138264,0.0514627,162
0.433615,-0.138245,0.0522975,162
0.43352,-0.138204,0.0531259,162
0.433526,-0.138208,0.0539676,164
0.433232,-0.138076,0.0547691,165
0.433739,-0.138309,0.05568,170
0.433446,-0.138178,0.0564815,170
0.433654,-0.138275,0.0573531,176
0.433112,-0.13803,0.0581181,170
0.432971,-0.137968,0.0589397,172
0.43338,-0.138157,0.0598425,170
0.432841,-0.137913,0.0606049,168
0.433501,-0.138216,0.0615481,180
0.432016,-0.137541,0.0621633,180
0.432675,-0.137843,0.063108,183
0.430752,-0.136969,0.0636467,188
0.430616,-0.136909,0.0644647,186
0.430382,-0.136805,0.0652666,184
0.4301,-0.136678,0.0660599,181
0.428984,-0.136171,0.0667135,177
0.428411,-0.135912,0.0674545,178
0.428523,-0.135966,0.0683106,179
0.428147,-0.135796,0.0690832,179
0.42787,-0.135672,0.0698718,175
0.427545,-0.135526,0.0706513,165
0.42727,-0.135403,0.0714386,168
0.42753,-0.135523,0.0723223,167
0.426916,-0.135245,0.0730472,164
0.427225,-0.135388,0.0739412,165
0.427487,-0.13551,0.074828,165
0.427457,-0.135498,0.0756611,164
0.427331,-0.135443,0.0764759,163
0.427936,-0.135721,0.0774324,166
0.427859,-0.135688,0.0782583,167
0.427538,-0.135544,0.0790362,162
0.427316,-0.135445,0.0798328,163
0.427387,-0.135479,0.0806881,161
0.427605,-0.13558,0.0815742,154
0.427628,-0.135593,0.0824216,159
0.42731,-0.13545,0.0831985,155
0.428116,-0.13582,0.0842109,156
0.42775,-0.135655,0.0849781,155
0.428362,-0.135936,0.0859543,154
0.427557,-0.135571,0.0866263,153
0.428366,-0.135942,0.0876487,151
0.428393,-0.135956,0.0885022,147
0.428715,-0.136105,0.0894221,147
0.430224,-0.136795,0.0906109,152
0.429314,-0.136383,0.0912572,147
0.429294,-0.136376,0.0921042,144
0.429077,-0.136279,0.0929061,150
0.429157,-0.136317,0.0937768,148
0.429484,-0.136468,0.0947066,149
0.430059,-0.136733,0.0956975,147
0.429547,-0.136502,0.0964305,151
0.430571,-0.136971,0.0975334,147
0.42986,-0.136649,0.0982179,149
0.429844,-0.136643,0.0990709,148
0.430424,-0.13691,0.100072,150
0.430907,-0.137132,0.101053,150
0.430494,-0.136946,0.101809,148
0.430779,-0.137078,0.102742,150
0.432115,-0.13769,0.103947,143
0.431702,-0.137503,0.104705,148
0.43189,-0.137591,0.105619,139
0.432028,-0.137657,0.106521,141
0.433073,-0.138135,0.107665,138
0.433214,-0.138202,0.108573,144
0.4327,-0.137969,0.109304,143
0.434055,-0.138589,0.110542,139
0.432732,-0.137988,0.111054,142
0.433126,-0.13817,0.112034,148
0.434436,-0.13877,0.11327,144
0.43453,-0.138815,0.114173,143
0.434422,-0.138768,0.115019,138
0.435129,-0.139092,0.116098,140
0.435327,-0.139185,0.117034,136
0.435322,-0.139185,0.117913,137
0.435522,-0.139278,0.118852,134
0.435774,-0.139395,0.119808,137
0.436643,-0.139794,0.120948,138
0.436331,-0.139654,0.121741,140
0.437412,-0.140149,0.122951,139
0.436842,-0.139891,0.123668,137
0.436222,-0.139611,0.124368,139
0.437201,-0.140059,0.125555,137
0.436735,-0.139849,0.126302,132
0.43777,-0.140323,0.127513,137
0.438238,-0.140539,0.128552,138
0.437927,-0.140399,0.129349,138
0.438761,-0.140782,0.130508,138
0.438659,-0.140738,0.131373,142
0.43861,-0.140718,0.132255,140
0.438665,-0.140745,0.133171,137
0.438512,-0.140677,0.13402,135
0.438777,-0.140801,0.135007,139
0.439095,-0.140948,0.136012,140
0.439153,-0.140976,0.136933,138
0.439211,-0.141005,0.137856,139
0.440162,-0.141441,0.13908,137
0.44038,-0.141543,0.14006,141
0.438811,-0.14083,0.140434,140
0.439238,-0.141026,0.141485,135
0.438983,-0.140913,0.142304,138
0.440412,-0.141567,0.143707,136
0.439525,-0.141164,0.144308,140
0.438643,-0.140764,0.144908,139
0.439544,-0.141178,0.146135,134
0.439449,-0.141137,0.147013,136
0.439407,-0.14112,0.14791,146
0.439313,-0.141079,0.148788,141
0.440168,-0.141471,0.150011,140
0.439916,-0.141359,0.150835,143
0.439876,-0.141342,0.151736,140
0.439204,-0.141038,0.152405,138
0.439586,-0.141215,0.153462,137
0.439441,-0.141151,0.154326,138
0.439402,-0.141135,0.15523,137
0.439259,-0.141072,0.156094,138
0.43959,-0.141226,0.157139,134
0.440028,-0.141428,0.158227,132
0.43978,-0.141317,0.159054,134
0.439479,-0.141182,0.159861,131
0.438915,-0.140927,0.160565,142
0.4383,-0.140649,0.161247,146
0.438949,-0.140947,0.162424,145
0.437967,-0.140501,0.16296,138
0.438563,-0.140775,0.164119,134
0.438845,-0.140906,0.165157,133
0.438126,-0.140581,0.165795,133
0.437777,-0.140424,0.166579,129
0.437272,-0.140195,0.167299,130
0.436925,-0.140039,0.168083,135
0.436474,-0.139836,0.168823,140
0.436807,-0.13999,0.169886,133
0.435523,-0.139406,0.17028,131
0.435335,-0.139323,0.171126,138
0.435044,-0.139192,0.171929,144
0.434701,-0.139038,0.17271,137
0.433842,-0.138648,0.173271,129
0.434173,-0.138802,0.174337,132
0.433678,-0.138578,0.17505,133
0.4337,-0.13859,0.175986,127
0.432639,-0.138108,0.176453,123
0.432609,-0.138097,0.177365,125
0.43258,-0.138086,0.178278,121
0.432603,-0.138099,0.179215,115
0.432266,-0.137947,0.179994,116
0.431366,-0.137538,0.180522,113
0.431491,-0.137598,0.181505,114
0.431669,-0.137681,0.182512,114
0.430873,-0.137321,0.183083,114
0.431872,-0.137778,0.184464,106
0.430717,-0.137254,0.184869,115
0.431665,-0.137689,0.186233,110
0.431228,-0.137492,0.186965,105
0.430588,-0.137202,0.187601,99
0.430512,-0.137169,0.188498,108
0.430486,-0.13716,0.189419,107
0.429849,-0.136871,0.190053,106
0.429416,-0.136676,0.190783,105
0.430209,-0.13704,0.192091,113
0.429623,-0.136775,0.192748,105
0.429192,-0.13658,0.193478,102
0.429372,-0.136665,0.1945,98
0.430371,-0.137124,0.19592,103
0.430503,-0.137186,0.196924,103
0.429355,-0.136664,0.197305,108
0.428874,-0.136447,0.198009,144
0.429618,-0.136789,0.199315,101
0.42975,-0.136852,0.200322,103
0.429729,-0.136845,0.201256,97
0.416195,-0.125951,-0.205663,11
0.417017,-0.126319,-0.205175,13
0.416211,-0.125963,-0.203844,14
0.415124,-0.125481,-0.202373,12
0.416754,-0.126209,-0.202298,14
0.415238,-0.125536,-0.200614,10
0.413923,-0.124954,-0.19904,12
0.407672,-0.122177,-0.194983,12
0.410812,-0.123575,-0.195672,14
0.408154,-0.122395,-0.193449,17
0.411579,-0.12392,-0.194265,14
0.410849,-0.123598,-0.193009,16
0.41026,-0.123338,-0.191827,17
0.412035,-0.12413,-0.191809,17
0.412141,-0.124179,-0.190968,16
0.412387,-0.124291,-0.190195,15
0.411796,-0.12403,-0.189017,18
0.411346,-0.123832,-0.18791,11
0.412382,-0.124295,-0.187519,14
0.411374,-0.123849,-0.186149,22
0.412737,-0.124457,-0.18591,17
0.4121,-0.124176,-0.184721,18
0.413279,-0.124703,-0.184389,16
0.416307,-0.126052,-0.184919,22
0.414152,-0.125096,-0.183021,26
0.416764,-0.12626,-0.183343,26
0.414371,-0.125198,-0.181346,21
0.414199,-0.125123,-0.18038,19
0.41492,-0.125446,-0.179823,25
0.418686,-0.127123,-0.180649,20
0.417603,-0.126644,-0.179265,21
0.415864,-0.125873,-0.177591,23
0.416685,-0.12624,-0.177072,24
0.415569,-0.125746,-0.175687,25
0.417146,-0.12645,-0.175503,22
0.416785,-0.126291,-0.174457,26
0.417182,-0.12647,-0.173746,29
0.419394,-0.127456,-0.173827,27
0.419892,-0.12768,-0.173154,23
0.421309,-0.128312,-0.172877,24
0.418492,-0.127062,-0.170773,22
0.422267,-0.128743,-0.171503,28
0.419008,-0.127295,-0.169223,26
0.419937,-0.127711,-0.168732,27
0.418761,-0.12719,-0.167351,29
0.420554,-0.12799,-0.16722,33
0.421152,-0.128258,-0.166583,27
0.422479,-0.128851,-0.166248,30
0.421821,-0.12856,-0.165088,27
0.424226,-0.129632,-0.165188,34
0.424002,-0.129535,-0.164206,37
0.423633,-0.129373,-0.163167,34
0.424191,-0.129623,-0.162505,34
0.423627,-0.129374,-0.16139,30
0.425609,-0.130258,-0.161295,37
0.42642,-0.130622,-0.160727,33
0.425505,-0.130217,-0.159475,35
0.424743,-0.12988,-0.158287,39
0.425945,-0.130417,-0.157871,38
0.426757,-0.130781,-0.157299,39
0.426979,-0.130881,-0.156495,38
0.425769,-0.130345,-0.155143,31
0.426335,-0.130599,-0.154474,37
0.427249,-0.131008,-0.153935,38
0.426286,-0.130582,-0.152685,36
0.426706,-0.130771,-0.151959,41
0.427572,-0.131158,-0.151397,35
0.427202,-0.130996,-0.150375,39
0.426882,-0.130856,-0.149373,36
0.428345,-0.131509,-0.149027,41
0.427875,-0.131302,-0.147971,39
0.427309,-0.131052,-0.146883,43
0.426942,-0.130891,-0.14587,41
0.426674,-0.130774,-0.144895,45
0.425966,-0.130461,-0.143764,38
0.425114,-0.130084,-0.142587,40
0.42627,-0.130601,-0.14212,40
0.425369,-0.130202,-0.14093,40
0.424327,-0.12974,-0.139696,43
0.423679,-0.129454,-0.138603,45
0.425852,-0.130423,-0.138479,41
0.422632,-0.128992,-0.136511,46
0.42421,-0.129697,-0.136181,45
0.423323,-0.129304,-0.135016,47
0.423838,-0.129536,-0.134324,51
0.423292,-0.129294,-0.133278,54
0.423663,-0.129462,-0.132537,61
0.423359,-0.129329,-0.131575,56
0.422767,-0.129067,-0.130521,59
0.423427,-0.129363,-0.129874,59
0.424866,-0.130006,-0.129476,55
0.424561,-0.129872,-0.128516,55
0.424161,-0.129696,-0.127527,62
0.423136,-0.129242,-0.126345,62
0.424572,-0.129884,-0.125936,60
0.423402,-0.129365,-0.124713,61
0.422718,-0.129063,-0.123646,64
0.424152,-0.129703,-0.12323,60
0.42289,-0.129143,-0.121989,64
0.422689,-0.129056,-0.121075,62
0.423544,-0.129439,-0.120479,64
0.42392,-0.129608,-0.119737,61
0.422424,-0.128944,-0.118441,65
0.421748,-0.128645,-0.117392,62
0.421836,-0.128687,-0.11657,67
0.423264,-0.129324,-0.116135,66
0.422922,-0.129174,-0.115186,64
0.422533,-0.129003,-0.114227,71
0.42267,-0.129066,-0.113418,75
0.422331,-0.128917,-0.112475,77
0.422517,-0.129002,-0.111681,80
0.421465,-0.128536,-0.110545,77
0.420845,-0.128262,-0.109532,84
0.420795,-0.128242,-0.108677,80
0.419801,-0.127801,-0.107569,82
0.420035,-0.127907,-0.106793,76
0.419422,-0.127637,-0.105793,85
0.418531,-0.127242,-0.104722,79
0.418064,-0.127036,-0.103766,78
0.416856,-0.1265,-0.102621,86
0.416764,-0.126461,-0.101769,87
0.416719,-0.126443,-0.100929,90
0.416305,-0.126261,-0.099997,97
0.416584,-0.126387,-0.099241,95
0.41691,-0.126535,-0.098496,95
0.41733,-0.126724,-0.0977733,89
0.41789,-0.126975,-0.0970838,88
0.418033,-0.127041,-0.0962912,96
0.417712,-0.1269,-0.0953868,92
0.418042,-0.127049,-0.0946394,96
0.417721,-0.126908,-0.0937376,106
0.418377,-0.127202,-0.0930663,103
0.418616,-0.127311,-0.0922959,101
0.418995,-0.127482,-0.0915573,100
0.418675,-0.127341,-0.0906581,99
0.419429,-0.127679,-0.0900035,107
0.419811,-0.127851,-0.0892628,105
0.419865,-0.127877,-0.0884485,108
0.419827,-0.127862,-0.0876139,107
0.419788,-0.127847,-0.0867801,105
0.42116,-0.12846,-0.0862507,108
0.420792,-0.128298,-0.0853449,112
0.421698,-0.128704,-0.0847102,115
0.421519,-0.128626,-0.0838452,114
0.421672,-0.128696,-0.08305,115
0.422345,-0.128998,-0.0823616,115
0.42212,-0.1289,-0.0814882,113
0.422843,-0.129224,-0.0808069,109
0.422571,-0.129105,-0.079925,116
0.423058,-0.129324,-0.0791943,118
0.42331,-0.129438,-0.0784158,111
0.422991,-0.129298,-0.0775269,117
0.423528,-0.129539,-0.0768031,127
0.423972,-0.129739,-0.0760597,125
0.424369,-0.129918,-0.0753063,122
0.424289,-0.129885,-0.0744635,125
0.424449,-0.129958,-0.0736652,126
0.425424,-0.130394,-0.0730138,121
0.425297,-0.13034,-0.0721622,123
0.425603,-0.130478,-0.0713878,127
