ply
format ascii 1.0
comment VCGLIB generated
element vertex 1335
property float x
property float y
property float z
property float nx
property float ny
property float nz
element face 0
property list uchar int vertex_indices
end_header
0.308367 -0.60472 -0.364962 0 0 0 
0.306904 -0.604188 -0.363433 0 0 0 
0.307857 -0.604538 -0.362954 0 0 0 
0.310507 -0.605508 -0.363199 0 0 0 
0.311475 -0.605865 -0.362716 0 0 0 
0.309993 -0.605325 -0.361188 0 0 0 
0.313578 -0.606637 -0.36181 0 0 0 
0.310578 -0.605543 -0.359647 0 0 0 
0.307869 -0.604555 -0.35762 0 0 0 
0.308629 -0.604835 -0.357049 0 0 0 
0.309738 -0.605243 -0.356621 0 0 0 
0.309609 -0.605197 -0.355678 0 0 0 
0.309629 -0.605207 -0.354798 0 0 0 
0.309848 -0.605289 -0.354 0 0 0 
0.30967 -0.605226 -0.35304 0 0 0 
0.311284 -0.605818 -0.352805 0 0 0 
0.311605 -0.605938 -0.352045 0 0 0 
0.310628 -0.605583 -0.350766 0 0 0 
0.309261 -0.605085 -0.349338 0 0 0 
0.31182 -0.606023 -0.349466 0 0 0 
0.311342 -0.60585 -0.348391 0 0 0 
0.311714 -0.605988 -0.347652 0 0 0 
0.311338 -0.605853 -0.34662 0 0 0 
0.313315 -0.606578 -0.3465 0 0 0 
0.311584 -0.605947 -0.344948 0 0 0 
0.312458 -0.606269 -0.3444 0 0 0 
0.312082 -0.606133 -0.343373 0 0 0 
0.311657 -0.60598 -0.34233 0 0 0 
0.312431 -0.606265 -0.341741 0 0 0 
0.312057 -0.60613 -0.340719 0 0 0 
0.312382 -0.606252 -0.33996 0 0 0 
0.311112 -0.605789 -0.338611 0 0 0 
0.313437 -0.606641 -0.338588 0 0 0 
0.313564 -0.60669 -0.337754 0 0 0 
0.311889 -0.60608 -0.336266 0 0 0 
0.313366 -0.606622 -0.335923 0 0 0 
0.312743 -0.606396 -0.334821 0 0 0 
0.312471 -0.606299 -0.333848 0 0 0 
0.312649 -0.606366 -0.333036 0 0 0 
0.312278 -0.606233 -0.332031 0 0 0 
0.31171 -0.606027 -0.330959 0 0 0 
0.312038 -0.606149 -0.330201 0 0 0 
0.313817 -0.606802 -0.329946 0 0 0 
0.309576 -0.605253 -0.327613 0 0 0 
0.310148 -0.605464 -0.326944 0 0 0 
0.309786 -0.605334 -0.325956 0 0 0 
0.309326 -0.605168 -0.324937 0 0 0 
0.309604 -0.605271 -0.324168 0 0 0 
0.306711 -0.604216 -0.322342 0 0 0 
0.306744 -0.60423 -0.321498 0 0 0 
0.307602 -0.604545 -0.320925 0 0 0 
0.306715 -0.604223 -0.319779 0 0 0 
0.307282 -0.604432 -0.31911 0 0 0 
0.30951 -0.605249 -0.318975 0 0 0 
0.30571 -0.603862 -0.316899 0 0 0 
0.305073 -0.603631 -0.315847 0 0 0 
0.304487 -0.603419 -0.314815 0 0 0 
0.304715 -0.603504 -0.314041 0 0 0 
0.304036 -0.603257 -0.312984 0 0 0 
0.303882 -0.603203 -0.312093 0 0 0 
0.304015 -0.603254 -0.311291 0 0 0 
0.302488 -0.602697 -0.309982 0 0 0 
0.302526 -0.602713 -0.309156 0 0 0 
0.301717 -0.602419 -0.308074 0 0 0 
0.303077 -0.602919 -0.307646 0 0 0 
0.302596 -0.602745 -0.306666 0 0 0 
0.302117 -0.602572 -0.305689 0 0 0 
0.302487 -0.602709 -0.304963 0 0 0 
0.302575 -0.602743 -0.304154 0 0 0 
0.301862 -0.602485 -0.303114 0 0 0 
0.302563 -0.602743 -0.302483 0 0 0 
0.302227 -0.602622 -0.301555 0 0 0 
0.303307 -0.603019 -0.301029 0 0 0 
0.302077 -0.602571 -0.29985 0 0 0 
0.302261 -0.60264 -0.299071 0 0 0 
0.302257 -0.602641 -0.298241 0 0 0 
0.301878 -0.602504 -0.297307 0 0 0 
0.302156 -0.602608 -0.296555 0 0 0 
0.30206 -0.602575 -0.295701 0 0 0 
0.30314 -0.602972 -0.295164 0 0 0 
0.301588 -0.602406 -0.293922 0 0 0 
0.301867 -0.60251 -0.293171 0 0 0 
0.301913 -0.602529 -0.292358 0 0 0 
0.301679 -0.602445 -0.291472 0 0 0 
0.301913 -0.602533 -0.290709 0 0 0 
0.302476 -0.602741 -0.29003 0 0 0 
0.302523 -0.60276 -0.289218 0 0 0 
0.30229 -0.602677 -0.288335 0 0 0 
0.30201 -0.602577 -0.287443 0 0 0 
0.302059 -0.602596 -0.286633 0 0 0 
0.301781 -0.602497 -0.285744 0 0 0 
0.301924 -0.602551 -0.284958 0 0 0 
0.302115 -0.602623 -0.284185 0 0 0 
0.302493 -0.602763 -0.283456 0 0 0 
0.301702 -0.602475 -0.282448 0 0 0 
0.300961 -0.602206 -0.281455 0 0 0 
0.301245 -0.602312 -0.280706 0 0 0 
0.300925 -0.602197 -0.279815 0 0 0 
0.300514 -0.602048 -0.278906 0 0 0 
0.300752 -0.602138 -0.278147 0 0 0 
0.300388 -0.602006 -0.277251 0 0 0 
0.300396 -0.602011 -0.276441 0 0 0 
0.300403 -0.602016 -0.275631 0 0 0 
0.299672 -0.60175 -0.274659 0 0 0 
0.300143 -0.601924 -0.273952 0 0 0 
0.299921 -0.601845 -0.273094 0 0 0 
0.299516 -0.601699 -0.272199 0 0 0 
0.299664 -0.601755 -0.271423 0 0 0 
0.299444 -0.601677 -0.270569 0 0 0 
0.298766 -0.60143 -0.269622 0 0 0 
0.298686 -0.601403 -0.268801 0 0 0 
0.298606 -0.601376 -0.26798 0 0 0 
0.297249 -0.600881 -0.266903 0 0 0 
0.296853 -0.600738 -0.266024 0 0 0 
0.296414 -0.600579 -0.265138 0 0 0 
0.29593 -0.600404 -0.264245 0 0 0 
0.295539 -0.600262 -0.263373 0 0 0 
0.294475 -0.599875 -0.262375 0 0 0 
0.295209 -0.600146 -0.261721 0 0 0 
0.294596 -0.599923 -0.260812 0 0 0 
0.294165 -0.599767 -0.25994 0 0 0 
0.293913 -0.599677 -0.259103 0 0 0 
0.294557 -0.599914 -0.25843 0 0 0 
0.293948 -0.599694 -0.25753 0 0 0 
0.29513 -0.600128 -0.25695 0 0 0 
0.29488 -0.600038 -0.256115 0 0 0 
0.294674 -0.599965 -0.255289 0 0 0 
0.294918 -0.600056 -0.254541 0 0 0 
0.295027 -0.600098 -0.25377 0 0 0 
0.295317 -0.600206 -0.253029 0 0 0 
0.295427 -0.600248 -0.252257 0 0 0 
0.295448 -0.600258 -0.251471 0 0 0 
0.295425 -0.600251 -0.250678 0 0 0 
0.296032 -0.600475 -0.249986 0 0 0 
0.295964 -0.600453 -0.249185 0 0 0 
0.296122 -0.600512 -0.24842 0 0 0 
0.296371 -0.600605 -0.247669 0 0 0 
0.29635 -0.600599 -0.246876 0 0 0 
0.296284 -0.600577 -0.246077 0 0 0 
0.29676 -0.600753 -0.245359 0 0 0 
0.297418 -0.600996 -0.244665 0 0 0 
0.29681 -0.600776 -0.243788 0 0 0 
0.297198 -0.60092 -0.243054 0 0 0 
0.298132 -0.601263 -0.242395 0 0 0 
0.297705 -0.601109 -0.241546 0 0 0 
0.297869 -0.601171 -0.240778 0 0 0 
0.297851 -0.601166 -0.239986 0 0 0 
0.298516 -0.601412 -0.239284 0 0 0 
0.298135 -0.601274 -0.238445 0 0 0 
0.298574 -0.601437 -0.237711 0 0 0 
0.29938 -0.601734 -0.237022 0 0 0 
0.299365 -0.60173 -0.236229 0 0 0 
0.29967 -0.601844 -0.235475 0 0 0 
0.300344 -0.602092 -0.234765 0 0 0 
0.300421 -0.602123 -0.233981 0 0 0 
0.300454 -0.602136 -0.233193 0 0 0 
0.300165 -0.602032 -0.232368 0 0 0 
0.300611 -0.602198 -0.231627 0 0 0 
0.301475 -0.602516 -0.230929 0 0 0 
0.303086 -0.603108 -0.230309 0 0 0 
0.301821 -0.602647 -0.22938 0 0 0 
0.302042 -0.602729 -0.228609 0 0 0 
0.302588 -0.602931 -0.227871 0 0 0 
0.302299 -0.602828 -0.227047 0 0 0 
0.302661 -0.602962 -0.226289 0 0 0 
0.302605 -0.602944 -0.225489 0 0 0 
0.303294 -0.603198 -0.22476 0 0 0 
0.303379 -0.603231 -0.223972 0 0 0 
0.304306 -0.603572 -0.223261 0 0 0 
0.304205 -0.603537 -0.222455 0 0 0 
0.304292 -0.603571 -0.221666 0 0 0 
0.30593 -0.604173 -0.221007 0 0 0 
0.304889 -0.603793 -0.220123 0 0 0 
0.306297 -0.604311 -0.219438 0 0 0 
0.306245 -0.604294 -0.218634 0 0 0 
0.306335 -0.604329 -0.217841 0 0 0 
0.306946 -0.604555 -0.217087 0 0 0 
0.30699 -0.604573 -0.21629 0 0 0 
0.306845 -0.604522 -0.215479 0 0 0 
0.30727 -0.604679 -0.214708 0 0 0 
0.308458 -0.605116 -0.213986 0 0 0 
0.308362 -0.605083 -0.213177 0 0 0 
0.307837 -0.604892 -0.212342 0 0 0 
0.308217 -0.605034 -0.211563 0 0 0 
0.309413 -0.605474 -0.210831 0 0 0 
0.310135 -0.60574 -0.210067 0 0 0 
0.309848 -0.605637 -0.209246 0 0 0 
0.310524 -0.605886 -0.208477 0 0 0 
0.310044 -0.605713 -0.207646 0 0 0 
0.310288 -0.605804 -0.206853 0 0 0 
0.311644 -0.606303 -0.206111 0 0 0 
0.311842 -0.606377 -0.205312 0 0 0 
0.311556 -0.606274 -0.204491 0 0 0 
0.312192 -0.606509 -0.203709 0 0 0 
0.312198 -0.606513 -0.202901 0 0 0 
0.312545 -0.606643 -0.202105 0 0 0 
0.313626 -0.60704 -0.201333 0 0 0 
0.313584 -0.607027 -0.20052 0 0 0 
0.313005 -0.606817 -0.199691 0 0 0 
0.313405 -0.606965 -0.198893 0 0 0 
0.313414 -0.606971 -0.198082 0 0 0 
0.314207 -0.607263 -0.197291 0 0 0 
0.314119 -0.607233 -0.196477 0 0 0 
0.315064 -0.607581 -0.195685 0 0 0 
0.315224 -0.607642 -0.194874 0 0 0 
0.314841 -0.607504 -0.194053 0 0 0 
0.315298 -0.607673 -0.193247 0 0 0 
0.315015 -0.607571 -0.192429 0 0 0 
0.315472 -0.607741 -0.19162 0 0 0 
0.315043 -0.607585 -0.190802 0 0 0 
0.315008 -0.607575 -0.189988 0 0 0 
0.315517 -0.607763 -0.189177 0 0 0 
0.315731 -0.607843 -0.188364 0 0 0 
0.315648 -0.607815 -0.187549 0 0 0 
0.315765 -0.60786 -0.186734 0 0 0 
0.315585 -0.607796 -0.185919 0 0 0 
0.315208 -0.607659 -0.185106 0 0 0 
0.315572 -0.607795 -0.18429 0 0 0 
0.314704 -0.607479 -0.183483 0 0 0 
0.314872 -0.607542 -0.182668 0 0 0 
0.315583 -0.607805 -0.181846 0 0 0 
0.314815 -0.607525 -0.181042 0 0 0 
0.314542 -0.607427 -0.180233 0 0 0 
0.314269 -0.607329 -0.179426 0 0 0 
0.314095 -0.607267 -0.178617 0 0 0 
0.31407 -0.60726 -0.177805 0 0 0 
0.313848 -0.607181 -0.176999 0 0 0 
0.31309 -0.606905 -0.176207 0 0 0 
0.313604 -0.607095 -0.175382 0 0 0 
0.313043 -0.606891 -0.174588 0 0 0 
0.313313 -0.606992 -0.173769 0 0 0 
0.312607 -0.606735 -0.172982 0 0 0 
0.311711 -0.606409 -0.172205 0 0 0 
0.311835 -0.606456 -0.171392 0 0 0 
0.311572 -0.606362 -0.170594 0 0 0 
0.311698 -0.60641 -0.169781 0 0 0 
0.311291 -0.606263 -0.168991 0 0 0 
0.310644 -0.606027 -0.168213 0 0 0 
0.311157 -0.606217 -0.167382 0 0 0 
0.310656 -0.606036 -0.1666 0 0 0 
0.310928 -0.606137 -0.165779 0 0 0 
0.309899 -0.605762 -0.165027 0 0 0 
0.310076 -0.605829 -0.164212 0 0 0 
0.310494 -0.605984 -0.163381 0 0 0 
0.309229 -0.605522 -0.16265 0 0 0 
0.308306 -0.605186 -0.161903 0 0 0 
0.308053 -0.605095 -0.161116 0 0 0 
0.307469 -0.604883 -0.160352 0 0 0 
0.307504 -0.604897 -0.159548 0 0 0 
0.307491 -0.604895 -0.158747 0 0 0 
0.307052 -0.604736 -0.157977 0 0 0 
0.306614 -0.604577 -0.157208 0 0 0 
0.305895 -0.604315 -0.156462 0 0 0 
0.306215 -0.604434 -0.155638 0 0 0 
0.306253 -0.60445 -0.154835 0 0 0 
0.305819 -0.604293 -0.15407 0 0 0 
0.305857 -0.604309 -0.153267 0 0 0 
0.306227 -0.604447 -0.152435 0 0 0 
0.305229 -0.604082 -0.151721 0 0 0 
0.305222 -0.604082 -0.150923 0 0 0 
0.30531 -0.604116 -0.150115 0 0 0 
0.307148 -0.604792 -0.149143 0 0 0 
0.30719 -0.604809 -0.148336 0 0 0 
0.305576 -0.604219 -0.147689 0 0 0 
0.305242 -0.604099 -0.146921 0 0 0 
0.306182 -0.604445 -0.146025 0 0 0 
0.306652 -0.60462 -0.145174 0 0 0 
0.307029 -0.60476 -0.14433 0 0 0 
0.306173 -0.604448 -0.143617 0 0 0 
0.30674 -0.604658 -0.142752 0 0 0 
0.306123 -0.604433 -0.142016 0 0 0 
0.307023 -0.604765 -0.14111 0 0 0 
0.307023 -0.604767 -0.140304 0 0 0 
0.306501 -0.604578 -0.139559 0 0 0 
0.306217 -0.604476 -0.138787 0 0 0 
0.306456 -0.604565 -0.137953 0 0 0 
0.306552 -0.604602 -0.137135 0 0 0 
0.306555 -0.604605 -0.136328 0 0 0 
0.30689 -0.60473 -0.135479 0 0 0 
0.307084 -0.604803 -0.134646 0 0 0 
0.306612 -0.604632 -0.1339 0 0 0 
0.306712 -0.604671 -0.133078 0 0 0 
0.306622 -0.60464 -0.132282 0 0 0 
0.307055 -0.604801 -0.131414 0 0 0 
0.306871 -0.604735 -0.13063 0 0 0 
0.30645 -0.604582 -0.12988 0 0 0 
0.306932 -0.604761 -0.129002 0 0 0 
0.307416 -0.604941 -0.128121 0 0 0 
0.307186 -0.604858 -0.127343 0 0 0 
0.307481 -0.604968 -0.126488 0 0 0 
0.307824 -0.605096 -0.125623 0 0 0 
0.307547 -0.604997 -0.124852 0 0 0 
0.307462 -0.604967 -0.124052 0 0 0 
0.308143 -0.605219 -0.123131 0 0 0 
0.307771 -0.605085 -0.122375 0 0 0 
0.308358 -0.605302 -0.121466 0 0 0 
0.308322 -0.605291 -0.120655 0 0 0 
0.308383 -0.605315 -0.119828 0 0 0 
0.308685 -0.605428 -0.11896 0 0 0 
0.309518 -0.605736 -0.118 0 0 0 
0.309726 -0.605814 -0.117144 0 0 0 
0.310226 -0.605999 -0.116236 0 0 0 
0.310436 -0.606078 -0.115377 0 0 0 
0.309774 -0.605837 -0.114671 0 0 0 
0.31013 -0.60597 -0.113785 0 0 0 
0.310681 -0.606174 -0.112861 0 0 0 
0.310991 -0.60629 -0.111979 0 0 0 
0.310815 -0.606227 -0.111185 0 0 0 
0.311468 -0.606469 -0.110236 0 0 0 
0.311195 -0.606371 -0.10946 0 0 0 
0.311508 -0.606487 -0.108572 0 0 0 
0.311529 -0.606497 -0.107739 0 0 0 
0.312187 -0.606741 -0.10678 0 0 0 
0.311719 -0.606571 -0.106042 0 0 0 
0.313314 -0.607158 -0.104892 0 0 0 
0.312009 -0.606681 -0.104321 0 0 0 
0.313263 -0.607143 -0.103233 0 0 0 
0.31245 -0.606847 -0.102565 0 0 0 
0.31346 -0.60722 -0.10152 0 0 0 
0.312254 -0.606779 -0.100937 0 0 0 
0.312427 -0.606845 -0.100065 0 0 0 
0.312995 -0.607055 -0.0991083 0 0 0 
0.313615 -0.607285 -0.0981371 0 0 0 
0.313444 -0.607224 -0.0973352 0 0 0 
0.313423 -0.607218 -0.0965007 0 0 0 
0.313847 -0.607376 -0.0955667 0 0 0 
0.314224 -0.607516 -0.0946412 0 0 0 
0.314154 -0.607493 -0.0938146 0 0 0 
0.314135 -0.607488 -0.0929763 0 0 0 
0.313967 -0.607428 -0.0921717 0 0 0 
0.313998 -0.607442 -0.0913211 0 0 0 
0.314129 -0.607492 -0.0904464 0 0 0 
0.31446 -0.607615 -0.0895234 0 0 0 
0.314493 -0.607629 -0.0886695 0 0 0 
0.314078 -0.607479 -0.0879226 0 0 0 
0.314211 -0.60753 -0.087044 0 0 0 
0.314196 -0.607526 -0.086201 0 0 0 
0.314181 -0.607523 -0.085357 0 0 0 
0.314665 -0.607702 -0.084388 0 0 0 
0.31485 -0.607773 -0.083492 0 0 0 
0.315187 -0.607898 -0.082556 0 0 0 
0.315324 -0.607951 -0.081669 0 0 0 
0.316115 -0.608243 -0.080613 0 0 0 
0.314899 -0.607799 -0.080073 0 0 0 
0.315137 -0.607888 -0.079157 0 0 0 
0.314826 -0.607776 -0.078385 0 0 0 
0.314715 -0.607737 -0.07756 0 0 0 
0.314905 -0.607809 -0.076655 0 0 0 
0.315196 -0.607918 -0.075721 0 0 0 
0.315237 -0.607935 -0.074853 0 0 0 
0.314777 -0.607768 -0.074121 0 0 0 
0.314969 -0.607841 -0.073211 0 0 0 
0.314861 -0.607803 -0.072383 0 0 0 
0.315556 -0.608061 -0.07133 0 0 0 
0.3157 -0.608116 -0.070429 0 0 0 
0.315141 -0.607912 -0.069726 0 0 0 
0.314884 -0.60782 -0.068939 0 0 0 
0.313428 -0.607287 -0.068497 0 0 0 
0.312379 -0.606904 -0.067943 0 0 0 
0.312076 -0.606795 -0.067174 0 0 0 
0.312219 -0.60685 -0.066274 0 0 0 
0.312314 -0.606887 -0.065388 0 0 0 
0.310876 -0.606361 -0.064958 0 0 0 
0.311514 -0.606597 -0.06391 0 0 0 
0.31018 -0.606109 -0.063455 0 0 0 
0.309686 -0.60593 -0.062749 0 0 0 
0.309683 -0.605931 -0.061894 0 0 0 
0.308897 -0.605644 -0.06128 0 0 0 
0.308651 -0.605556 -0.0605 0 0 0 
0.30748 -0.605128 -0.060011 0 0 0 
0.307139 -0.605005 -0.059264 0 0 0 
0.30675 -0.604864 -0.058533 0 0 0 
0.306797 -0.604883 -0.057664 0 0 0 
0.306361 -0.604725 -0.056949 0 0 0 
0.305396 -0.604373 -0.056407 0 0 0 
0.304914 -0.604198 -0.05571 0 0 0 
0.304578 -0.604076 -0.054968 0 0 0 
0.304387 -0.604008 -0.054178 0 0 0 
0.305444 -0.604399 -0.052974 0 0 0 
0.3041 -0.603907 -0.052566 0 0 0 
0.304101 -0.60391 -0.051712 0 0 0 
0.304919 -0.604212 -0.050581 0 0 0 
0.304153 -0.603932 -0.049985 0 0 0 
0.304107 -0.603918 -0.049144 0 0 0 
0.304253 -0.603973 -0.048237 0 0 0 
0.304736 -0.604153 -0.047212 0 0 0 
0.304644 -0.604121 -0.046384 0 0 0 
0.304695 -0.604142 -0.045506 0 0 0 
0.304507 -0.604075 -0.044712 0 0 0 
0.304704 -0.604149 -0.04378 0 0 0 
0.305433 -0.604419 -0.042658 0 0 0 
0.305293 -0.60437 -0.041843 0 0 0 
0.305396 -0.60441 -0.040941 0 0 0 
0.305789 -0.604556 -0.039932 0 0 0 
0.306087 -0.604668 -0.038955 0 0 0 
0.306921 -0.604976 -0.037779 0 0 0 
0.306442 -0.604802 -0.037085 0 0 0 
0.30645 -0.604807 -0.036211 0 0 0 
0.307337 -0.605135 -0.035007 0 0 0 
0.306711 -0.604907 -0.034367 0 0 0 
0.307551 -0.605218 -0.033175 0 0 0 
0.307659 -0.60526 -0.032257 0 0 0 
0.307424 -0.605176 -0.031469 0 0 0 
0.308072 -0.605416 -0.030342 0 0 0 
0.308526 -0.605585 -0.029285 0 0 0 
0.308686 -0.605646 -0.028341 0 0 0 
0.308846 -0.605707 -0.027395 0 0 0 
0.308859 -0.605714 -0.026506 0 0 0 
0.309416 -0.605921 -0.0254 0 0 0 
0.308884 -0.605727 -0.024725 0 0 0 
0.309393 -0.605916 -0.023634 0 0 0 
0.309954 -0.606125 -0.02252 0 0 0 
0.309968 -0.606132 -0.021623 0 0 0 
0.310931 -0.606488 -0.02034 0 0 0 
0.310747 -0.606422 -0.019521 0 0 0 
0.310663 -0.606394 -0.018661 0 0 0 
0.311682 -0.60677 -0.017344 0 0 0 
0.311397 -0.606668 -0.016563 0 0 0 
0.312069 -0.606917 -0.015384 0 0 0 
0.31249 -0.607074 -0.014306 0 0 0 
0.312307 -0.607009 -0.013481 0 0 0 
0.312831 -0.607203 -0.012355 0 0 0 
0.312799 -0.607194 -0.011463 0 0 0 
0.313275 -0.607371 -0.010353 0 0 0 
0.313194 -0.607343 -0.00947996 0 0 0 
0.313774 -0.607559 -0.00831997 0 0 0 
0.315073 -0.608038 -0.00684396 0 0 0 
0.313104 -0.607317 -0.00678997 0 0 0 
0.313787 -0.60757 -0.00557897 0 0 0 
0.314116 -0.607693 -0.00451996 0 0 0 
0.31424 -0.607741 -0.00354997 0 0 0 
0.31493 -0.607997 -0.00232597 0 0 0 
0.313929 -0.607631 -0.00185596 0 0 0 
0.313493 -0.607473 -0.00113497 0 0 0 
0.31316 -0.607353 -0.000367961 0 0 0 
0.314154 -0.607721 0.00100204 0 0 0 
0.314025 -0.607675 0.00186404 0 0 0 
0.314307 -0.607781 0.00291403 0 0 0 
0.314332 -0.607793 0.00384904 0 0 0 
0.313743 -0.607578 0.00449903 0 0 0 
0.313922 -0.607646 0.00550603 0 0 0 
0.313232 -0.607395 0.00610804 0 0 0 
0.313719 -0.607576 0.00726103 0 0 0 
0.313593 -0.607532 0.00812802 0 0 0 
0.313364 -0.60745 0.00894604 0 0 0 
0.313801 -0.607613 0.010082 0 0 0 
0.313112 -0.607362 0.010681 0 0 0 
0.313396 -0.607469 0.011746 0 0 0 
0.296264 -0.596704 -0.387542 0 0 0 
0.29557 -0.596459 -0.3863 0 0 0 
0.296334 -0.596733 -0.38579 0 0 0 
0.298665 -0.597566 -0.386059 0 0 0 
0.302714 -0.599011 -0.387172 0 0 0 
0.296088 -0.596652 -0.382995 0 0 0 
0.29908 -0.59772 -0.383577 0 0 0 
0.297905 -0.597304 -0.382107 0 0 0 
0.299773 -0.597972 -0.382126 0 0 0 
0.300983 -0.598405 -0.381818 0 0 0 
0.300659 -0.598292 -0.380766 0 0 0 
0.301922 -0.598744 -0.380478 0 0 0 
0.302466 -0.59894 -0.379842 0 0 0 
0.300986 -0.598415 -0.37824 0 0 0 
0.302734 -0.59904 -0.378176 0 0 0 
0.301349 -0.598549 -0.376627 0 0 0 
0.302423 -0.598933 -0.376239 0 0 0 
0.30263 -0.599009 -0.375442 0 0 0 
0.303321 -0.599258 -0.374871 0 0 0 
0.303578 -0.599352 -0.374096 0 0 0 
0.303253 -0.599238 -0.373054 0 0 0 
0.30585 -0.600166 -0.373353 0 0 0 
0.302366 -0.598926 -0.370866 0 0 0 
0.306076 -0.600251 -0.371663 0 0 0 
0.305112 -0.599909 -0.370332 0 0 0 
0.304787 -0.599795 -0.369293 0 0 0 
0.304608 -0.599734 -0.368322 0 0 0 
0.307514 -0.600772 -0.368727 0 0 0 
0.310711 -0.601914 -0.369249 0 0 0 
0.310476 -0.601833 -0.368244 0 0 0 
0.311243 -0.602108 -0.367681 0 0 0 
0.308666 -0.601192 -0.365655 0 0 0 
0.307991 -0.600953 -0.364467 0 0 0 
0.309544 -0.601509 -0.364246 0 0 0 
0.309015 -0.601322 -0.363124 0 0 0 
0.307994 -0.60096 -0.361795 0 0 0 
0.309546 -0.601516 -0.361566 0 0 0 
0.31096 -0.602022 -0.361273 0 0 0 
0.309831 -0.601622 -0.359903 0 0 0 
0.309651 -0.60156 -0.358936 0 0 0 
0.312369 -0.602531 -0.35918 0 0 0 
0.309938 -0.601666 -0.357276 0 0 0 
0.311253 -0.602138 -0.35693 0 0 0 
0.311823 -0.602343 -0.356273 0 0 0 
0.311243 -0.602138 -0.355145 0 0 0 
0.313019 -0.602774 -0.354977 0 0 0 
0.312235 -0.602496 -0.353768 0 0 0 
0.313211 -0.602847 -0.35327 0 0 0 
0.314141 -0.60318 -0.352751 0 0 0 
0.312649 -0.60265 -0.351265 0 0 0 
0.313022 -0.602786 -0.350524 0 0 0 
0.311541 -0.602259 -0.349052 0 0 0 
0.313419 -0.602931 -0.348903 0 0 0 
0.313441 -0.602942 -0.348023 0 0 0 
0.314524 -0.60333 -0.347556 0 0 0 
0.315155 -0.603557 -0.34691 0 0 0 
0.316706 -0.604113 -0.346615 0 0 0 
0.314139 -0.603199 -0.344745 0 0 0 
0.313559 -0.602994 -0.343639 0 0 0 
0.314289 -0.603257 -0.343031 0 0 0 
0.31624 -0.603955 -0.342877 0 0 0 
0.313683 -0.603045 -0.341037 0 0 0 
0.314919 -0.603488 -0.340613 0 0 0 
0.313835 -0.603103 -0.33933 0 0 0 
0.314264 -0.603258 -0.338607 0 0 0 
0.313637 -0.603037 -0.337497 0 0 0 
0.314217 -0.603246 -0.336829 0 0 0 
0.313993 -0.603168 -0.335869 0 0 0 
0.313317 -0.602929 -0.334749 0 0 0 
0.313747 -0.603084 -0.334026 0 0 0 
0.313825 -0.603114 -0.333178 0 0 0 
0.313152 -0.602877 -0.332066 0 0 0 
0.314335 -0.603301 -0.331605 0 0 0 
0.314415 -0.603331 -0.330758 0 0 0 
0.313041 -0.602843 -0.329409 0 0 0 
0.311777 -0.602394 -0.328105 0 0 0 
0.313953 -0.603173 -0.327979 0 0 0 
0.312087 -0.602509 -0.326475 0 0 0 
0.310831 -0.602063 -0.325186 0 0 0 
0.311259 -0.602217 -0.324465 0 0 0 
0.312233 -0.602567 -0.323925 0 0 0 
0.311373 -0.602263 -0.322776 0 0 0 
0.311406 -0.602276 -0.321924 0 0 0 
0.310404 -0.601921 -0.320735 0 0 0 
0.309751 -0.60169 -0.319664 0 0 0 
0.310129 -0.601827 -0.318928 0 0 0 
0.308452 -0.60123 -0.317534 0 0 0 
0.308536 -0.601262 -0.316708 0 0 0 
0.3076 -0.60093 -0.31556 0 0 0 
0.306766 -0.600635 -0.314448 0 0 0 
0.306562 -0.600564 -0.313536 0 0 0 
0.306165 -0.600425 -0.312567 0 0 0 
0.306636 -0.600594 -0.311866 0 0 0 
0.305234 -0.600096 -0.310592 0 0 0 
0.305799 -0.6003 -0.309921 0 0 0 
0.305215 -0.600093 -0.308903 0 0 0 
0.304253 -0.599752 -0.307774 0 0 0 
0.304625 -0.599887 -0.307047 0 0 0 
0.30476 -0.599937 -0.306248 0 0 0 
0.304324 -0.599784 -0.305282 0 0 0 
0.303038 -0.599326 -0.304072 0 0 0 
0.30341 -0.599461 -0.303346 0 0 0 
0.304067 -0.599698 -0.3027 0 0 0 
0.303777 -0.599596 -0.301783 0 0 0 
0.302874 -0.599276 -0.300695 0 0 0 
0.302305 -0.599075 -0.299705 0 0 0 
0.302677 -0.59921 -0.29898 0 0 0 
0.302109 -0.599009 -0.297994 0 0 0 
0.303 -0.599329 -0.29741 0 0 0 
0.302338 -0.599094 -0.296402 0 0 0 
0.3029 -0.599297 -0.295727 0 0 0 
0.302099 -0.599013 -0.294685 0 0 0 
0.302238 -0.599065 -0.293897 0 0 0 
0.301722 -0.598882 -0.292936 0 0 0 
0.301628 -0.598851 -0.292088 0 0 0 
0.301908 -0.598953 -0.291338 0 0 0 
0.301534 -0.598821 -0.290419 0 0 0 
0.301675 -0.598874 -0.289634 0 0 0 
0.30191 -0.598959 -0.288873 0 0 0 
0.301864 -0.598945 -0.28804 0 0 0 
0.3021 -0.599031 -0.287279 0 0 0 
0.301915 -0.598967 -0.286413 0 0 0 
0.301358 -0.59877 -0.285457 0 0 0 
0.301547 -0.59884 -0.284685 0 0 0 
0.300899 -0.59861 -0.283711 0 0 0 
0.300625 -0.598514 -0.28283 0 0 0 
0.301047 -0.598667 -0.282115 0 0 0 
0.301145 -0.598704 -0.281323 0 0 0 
0.301011 -0.598658 -0.280477 0 0 0 
0.300414 -0.598447 -0.279525 0 0 0 
0.300884 -0.598616 -0.278821 0 0 0 
0.301029 -0.598671 -0.278041 0 0 0 
0.300851 -0.598609 -0.277189 0 0 0 
0.299748 -0.598217 -0.276131 0 0 0 
0.299941 -0.598288 -0.275365 0 0 0 
0.300319 -0.598425 -0.274639 0 0 0 
0.300328 -0.59843 -0.273831 0 0 0 
0.300106 -0.598352 -0.272975 0 0 0 
0.299517 -0.598144 -0.272042 0 0 0 
0.299389 -0.5981 -0.271209 0 0 0 
0.298116 -0.597648 -0.270137 0 0 0 
0.297353 -0.597377 -0.269177 0 0 0 
0.296412 -0.597043 -0.268184 0 0 0 
0.295791 -0.596823 -0.26726 0 0 0 
0.296346 -0.597023 -0.266575 0 0 0 
0.295412 -0.596691 -0.265592 0 0 0 
0.295741 -0.596811 -0.264862 0 0 0 
0.29508 -0.596577 -0.263938 0 0 0 
0.295095 -0.596584 -0.263147 0 0 0 
0.294796 -0.596479 -0.262297 0 0 0 
0.294542 -0.59639 -0.261458 0 0 0 
0.294558 -0.596398 -0.26067 0 0 0 
0.295968 -0.596903 -0.26014 0 0 0 
0.294234 -0.596286 -0.25903 0 0 0 
0.294475 -0.596374 -0.258284 0 0 0 
0.294716 -0.596462 -0.257538 0 0 0 
0.294645 -0.596438 -0.256736 0 0 0 
0.294977 -0.596559 -0.256005 0 0 0 
0.295041 -0.596584 -0.255227 0 0 0 
0.295419 -0.596721 -0.254503 0 0 0 
0.296385 -0.597067 -0.253876 0 0 0 
0.295864 -0.596883 -0.252999 0 0 0 
0.296742 -0.597199 -0.252354 0 0 0 
0.295636 -0.596806 -0.251383 0 0 0 
0.296063 -0.59696 -0.250663 0 0 0 
0.2964 -0.597082 -0.249928 0 0 0 
0.296874 -0.597254 -0.249213 0 0 0 
0.296807 -0.597231 -0.248413 0 0 0 
0.297011 -0.597306 -0.247655 0 0 0 
0.296944 -0.597284 -0.246856 0 0 0 
0.297693 -0.597554 -0.246179 0 0 0 
0.297446 -0.597467 -0.245352 0 0 0 
0.297607 -0.597527 -0.244586 0 0 0 
0.297996 -0.597668 -0.243853 0 0 0 
0.297886 -0.59763 -0.243048 0 0 0 
0.298139 -0.597723 -0.242294 0 0 0 
0.29853 -0.597864 -0.241558 0 0 0 
0.298512 -0.59786 -0.240766 0 0 0 
0.299133 -0.598083 -0.240059 0 0 0 
0.299481 -0.59821 -0.239314 0 0 0 
0.299648 -0.598271 -0.238545 0 0 0 
0.299585 -0.598251 -0.237746 0 0 0 
0.299936 -0.598378 -0.236999 0 0 0 
0.299737 -0.598309 -0.236184 0 0 0 
0.30087 -0.598715 -0.235531 0 0 0 
0.300625 -0.59863 -0.23471 0 0 0 
0.30121 -0.598841 -0.233987 0 0 0 
0.300689 -0.598657 -0.233135 0 0 0 
0.301829 -0.599066 -0.232473 0 0 0 
0.301862 -0.599079 -0.231683 0 0 0 
0.302498 -0.599309 -0.23096 0 0 0 
0.303323 -0.599605 -0.230254 0 0 0 
0.302012 -0.599139 -0.229321 0 0 0 
0.302742 -0.599402 -0.228604 0 0 0 
0.303057 -0.599516 -0.227842 0 0 0 
0.303093 -0.599531 -0.227052 0 0 0 
0.304203 -0.599929 -0.226366 0 0 0 
0.30368 -0.599744 -0.22552 0 0 0 
0.304513 -0.600044 -0.224804 0 0 0 
0.305067 -0.600244 -0.224058 0 0 0 
0.305388 -0.60036 -0.22329 0 0 0 
0.305099 -0.600259 -0.222467 0 0 0 
0.305327 -0.600342 -0.22169 0 0 0 
0.305509 -0.600409 -0.220909 0 0 0 
0.306257 -0.600679 -0.220173 0 0 0 
0.307151 -0.601 -0.219445 0 0 0 
0.307051 -0.600966 -0.218638 0 0 0 
0.307426 -0.601102 -0.217867 0 0 0 
0.307898 -0.601273 -0.217101 0 0 0 
0.307704 -0.601206 -0.216286 0 0 0 
0.308177 -0.601377 -0.215519 0 0 0 
0.308413 -0.601463 -0.214734 0 0 0 
0.309751 -0.601943 -0.214021 0 0 0 
0.309846 -0.601979 -0.213223 0 0 0 
0.309749 -0.601946 -0.212413 0 0 0 
0.309749 -0.601948 -0.211609 0 0 0 
0.310037 -0.602053 -0.210823 0 0 0 
0.310519 -0.602227 -0.210046 0 0 0 
0.311971 -0.602748 -0.209319 0 0 0 
0.311102 -0.602439 -0.208467 0 0 0 
0.311346 -0.602529 -0.207673 0 0 0 
0.312708 -0.603017 -0.206933 0 0 0 
0.311691 -0.602656 -0.206077 0 0 0 
0.312715 -0.603024 -0.205316 0 0 0 
0.312671 -0.60301 -0.204506 0 0 0 
0.31292 -0.603101 -0.203707 0 0 0 
0.313218 -0.60321 -0.20291 0 0 0 
0.313224 -0.603214 -0.202101 0 0 0 
0.313769 -0.60341 -0.201311 0 0 0 
0.31461 -0.603713 -0.200528 0 0 0 
0.31447 -0.603665 -0.199712 0 0 0 
0.314774 -0.603775 -0.19891 0 0 0 
0.314341 -0.603623 -0.198086 0 0 0 
0.315285 -0.603962 -0.197298 0 0 0 
0.315197 -0.603933 -0.196484 0 0 0 
0.31575 -0.604132 -0.195683 0 0 0 
0.315268 -0.603962 -0.19486 0 0 0 
0.315872 -0.60418 -0.194057 0 0 0 
0.31638 -0.604363 -0.193251 0 0 0 
0.316294 -0.604335 -0.192435 0 0 0 
0.316407 -0.604377 -0.191622 0 0 0 
0.317664 -0.604829 -0.190819 0 0 0 
0.316337 -0.604356 -0.189992 0 0 0 
0.317346 -0.604719 -0.189183 0 0 0 
0.316369 -0.604371 -0.188363 0 0 0 
0.317678 -0.604841 -0.18755 0 0 0 
0.317446 -0.60476 -0.186733 0 0 0 
0.31642 -0.604395 -0.185919 0 0 0 
0.316935 -0.604582 -0.185102 0 0 0 
0.316805 -0.604537 -0.184287 0 0 0 
0.315933 -0.604227 -0.183479 0 0 0 
0.317243 -0.604697 -0.182651 0 0 0 
0.316419 -0.604405 -0.181845 0 0 0 
0.316738 -0.604521 -0.181025 0 0 0 
0.316313 -0.604371 -0.180217 0 0 0 
0.317529 -0.604807 -0.179379 0 0 0 
0.316855 -0.604569 -0.178576 0 0 0 
0.317476 -0.604792 -0.177746 0 0 0 
0.317102 -0.604661 -0.176938 0 0 0 
0.316928 -0.6046 -0.176126 0 0 0 
0.316407 -0.604416 -0.175325 0 0 0 
0.315247 -0.604003 -0.174544 0 0 0 
0.315519 -0.604103 -0.173722 0 0 0 
0.31461 -0.603779 -0.17294 0 0 0 
0.314982 -0.603914 -0.172114 0 0 0 
0.314862 -0.603873 -0.171306 0 0 0 
0.314547 -0.603762 -0.170506 0 0 0 
0.313693 -0.603459 -0.16973 0 0 0 
0.313282 -0.603314 -0.168937 0 0 0 
0.313801 -0.603502 -0.168103 0 0 0 
0.313099 -0.603252 -0.167326 0 0 0 
0.313765 -0.603492 -0.166483 0 0 0 
0.312479 -0.603034 -0.165738 0 0 0 
0.311976 -0.602856 -0.164956 0 0 0 
0.31196 -0.602853 -0.164149 0 0 0 
0.311411 -0.602658 -0.163373 0 0 0 
0.310816 -0.602447 -0.162601 0 0 0 
0.31143 -0.602669 -0.161757 0 0 0 
0.310981 -0.60251 -0.160978 0 0 0 
0.310244 -0.602248 -0.16022 0 0 0 
0.310617 -0.602384 -0.159389 0 0 0 
0.310943 -0.602502 -0.15856 0 0 0 
0.310545 -0.602362 -0.157781 0 0 0 
0.308901 -0.601775 -0.157096 0 0 0 
0.308651 -0.601688 -0.156311 0 0 0 
0.308402 -0.601601 -0.155527 0 0 0 
0.307488 -0.601276 -0.154797 0 0 0 
0.307954 -0.601444 -0.153957 0 0 0 
0.307946 -0.601443 -0.153156 0 0 0 
0.307795 -0.601391 -0.152366 0 0 0 
0.30755 -0.601305 -0.151585 0 0 0 
0.307638 -0.601339 -0.150775 0 0 0 
0.306966 -0.601101 -0.150033 0 0 0 
0.307578 -0.601321 -0.149174 0 0 0 
0.308096 -0.601509 -0.148322 0 0 0 
0.307758 -0.60139 -0.147551 0 0 0 
0.307658 -0.601356 -0.146757 0 0 0 
0.307797 -0.601408 -0.145939 0 0 0 
0.307604 -0.60134 -0.145154 0 0 0 
0.307791 -0.601409 -0.14433 0 0 0 
0.307266 -0.601223 -0.143582 0 0 0 
0.307407 -0.601275 -0.142762 0 0 0 
0.307405 -0.601277 -0.141958 0 0 0 
0.30769 -0.601381 -0.14112 0 0 0 
0.307309 -0.601246 -0.140358 0 0 0 
0.307691 -0.601385 -0.139509 0 0 0 
0.307739 -0.601404 -0.138696 0 0 0 
0.307502 -0.601321 -0.137918 0 0 0 
0.307742 -0.601409 -0.137082 0 0 0 
0.307602 -0.601361 -0.136293 0 0 0 
0.307605 -0.601364 -0.135485 0 0 0 
0.307608 -0.601367 -0.134677 0 0 0 
0.307803 -0.601439 -0.133843 0 0 0 
0.308142 -0.601562 -0.13299 0 0 0 
0.308099 -0.601548 -0.132186 0 0 0 
0.308153 -0.601569 -0.131368 0 0 0 
0.308159 -0.601574 -0.130557 0 0 0 
0.308213 -0.601595 -0.129739 0 0 0 
0.308508 -0.601702 -0.128886 0 0 0 
0.308563 -0.601724 -0.128066 0 0 0 
0.308236 -0.601609 -0.127301 0 0 0 
0.30882 -0.60182 -0.126402 0 0 0 
0.308782 -0.601808 -0.125594 0 0 0 
0.309224 -0.601969 -0.124713 0 0 0 
0.309668 -0.60213 -0.123829 0 0 0 
0.309438 -0.602049 -0.123048 0 0 0 
0.309209 -0.601969 -0.122268 0 0 0 
0.30951 -0.602079 -0.121404 0 0 0 
0.310005 -0.602258 -0.120505 0 0 0 
0.310357 -0.602386 -0.119629 0 0 0 
0.310759 -0.602532 -0.118742 0 0 0 
0.309708 -0.602158 -0.118099 0 0 0 
0.310643 -0.602494 -0.11712 0 0 0 
0.310222 -0.602345 -0.116371 0 0 0 
0.310966 -0.602614 -0.11542 0 0 0 
0.311566 -0.602831 -0.11449 0 0 0 
0.310853 -0.602577 -0.113793 0 0 0 
0.31165 -0.602865 -0.112825 0 0 0 
0.311717 -0.602891 -0.111988 0 0 0 
0.31198 -0.602987 -0.111113 0 0 0 
0.312833 -0.603294 -0.110126 0 0 0 
0.313099 -0.603391 -0.109246 0 0 0 
0.312481 -0.603172 -0.108534 0 0 0 
0.31314 -0.60341 -0.107577 0 0 0 
0.312474 -0.603174 -0.106876 0 0 0 
0.312741 -0.603271 -0.105993 0 0 0 
0.312617 -0.603229 -0.105187 0 0 0 
0.314267 -0.603822 -0.104023 0 0 0 
0.313402 -0.603514 -0.103363 0 0 0 
0.314267 -0.603826 -0.102352 0 0 0 
0.313204 -0.603447 -0.101736 0 0 0 
0.313082 -0.603405 -0.100927 0 0 0 
0.314393 -0.603877 -0.0998146 0 0 0 
0.313924 -0.603711 -0.0990766 0 0 0 
0.314695 -0.603989 -0.0980729 0 0 0 
0.314276 -0.603841 -0.0973244 0 0 0 
0.31361 -0.603605 -0.0966311 0 0 0 
0.314035 -0.603759 -0.0956986 0 0 0 
0.314411 -0.603895 -0.0947746 0 0 0 
0.314889 -0.604068 -0.0938258 0 0 0 
0.315168 -0.604171 -0.0929196 0 0 0 
0.315049 -0.60413 -0.0921031 0 0 0 
0.31553 -0.604304 -0.0911477 0 0 0 
0.315312 -0.604228 -0.0903531 0 0 0 
0.315545 -0.604314 -0.0894527 0 0 0 
0.315378 -0.604256 -0.0886458 0 0 0 
0.315661 -0.604359 -0.0877309 0 0 0 
0.315145 -0.604177 -0.0870077 0 0 0 
0.31553 -0.604316 -0.086067 0 0 0 
0.315065 -0.604152 -0.085332 0 0 0 
0.315751 -0.6044 -0.084314 0 0 0 
0.315436 -0.604289 -0.083542 0 0 0 
0.316527 -0.604682 -0.082417 0 0 0 
0.315009 -0.60414 -0.081949 0 0 0 
0.315697 -0.604389 -0.080922 0 0 0 
0.315786 -0.604422 -0.080047 0 0 0 
0.315824 -0.604438 -0.079183 0 0 0 
0.315964 -0.60449 -0.078293 0 0 0 
0.316154 -0.60456 -0.077388 0 0 0 
0.316144 -0.604559 -0.076534 0 0 0 
0.316084 -0.604539 -0.075694 0 0 0 
0.316125 -0.604556 -0.074826 0 0 0 
0.316318 -0.604627 -0.073916 0 0 0 
0.316108 -0.604554 -0.073115 0 0 0 
0.315848 -0.604463 -0.072328 0 0 0 
0.316143 -0.604571 -0.071387 0 0 0 
0.316439 -0.604679 -0.070443 0 0 0 
0.316533 -0.604715 -0.069555 0 0 0 
0.316376 -0.60466 -0.068738 0 0 0 
0.31431 -0.603922 -0.068468 0 0 0 
0.314755 -0.604084 -0.067481 0 0 0 
0.313401 -0.603601 -0.067015 0 0 0 
0.313397 -0.603601 -0.066158 0 0 0 
0.313044 -0.603477 -0.065403 0 0 0 
0.312642 -0.603335 -0.064664 0 0 0 
0.311105 -0.602786 -0.064265 0 0 0 
0.31051 -0.602575 -0.063589 0 0 0 
0.310359 -0.602523 -0.062779 0 0 0 
0.310356 -0.602524 -0.061924 0 0 0 
0.30952 -0.602226 -0.061325 0 0 0 
0.308638 -0.601912 -0.060743 0 0 0 
0.308149 -0.601739 -0.060041 0 0 0 
0.307515 -0.601514 -0.059386 0 0 0 
0.307562 -0.601533 -0.058518 0 0 0 
0.307124 -0.601378 -0.057803 0 0 0 
0.306204 -0.60105 -0.057244 0 0 0 
0.3063 -0.601087 -0.05636 0 0 0 
0.305817 -0.600916 -0.055663 0 0 0 
0.305384 -0.600762 -0.054952 0 0 0 
0.304856 -0.600575 -0.054272 0 0 0 
0.304952 -0.600612 -0.053388 0 0 0 
0.304569 -0.600476 -0.052662 0 0 0 
0.304714 -0.60053 -0.05176 0 0 0 
0.304188 -0.600344 -0.051083 0 0 0 
0.304285 -0.600381 -0.050196 0 0 0 
0.304335 -0.600401 -0.049324 0 0 0 
0.304385 -0.600421 -0.048451 0 0 0 
0.304436 -0.600441 -0.047577 0 0 0 
0.305209 -0.60072 -0.046451 0 0 0 
0.304827 -0.600585 -0.045725 0 0 0 
0.305554 -0.600848 -0.04461 0 0 0 
0.306576 -0.601216 -0.043386 0 0 0 
0.305612 -0.600873 -0.042865 0 0 0 
0.305569 -0.60086 -0.042017 0 0 0 
0.305962 -0.601003 -0.041011 0 0 0 
0.306405 -0.601163 -0.039985 0 0 0 
0.306217 -0.601098 -0.039186 0 0 0 
0.306127 -0.601068 -0.038351 0 0 0 
0.306815 -0.601317 -0.037229 0 0 0 
0.306774 -0.601304 -0.036374 0 0 0 
0.307417 -0.601537 -0.035262 0 0 0 
0.307035 -0.601402 -0.034533 0 0 0 
0.30817 -0.601811 -0.033231 0 0 0 
0.308474 -0.601922 -0.032239 0 0 0 
0.308042 -0.601769 -0.031526 0 0 0 
0.308397 -0.601899 -0.030512 0 0 0 
0.308211 -0.601834 -0.029704 0 0 0 
0.30911 -0.602158 -0.028476 0 0 0 
0.309418 -0.602271 -0.027473 0 0 0 
0.309728 -0.602384 -0.026467 0 0 0 
0.310436 -0.60264 -0.025302 0 0 0 
0.310052 -0.602505 -0.024567 0 0 0 
0.309817 -0.602423 -0.023773 0 0 0 
0.309831 -0.60243 -0.02288 0 0 0 
0.309945 -0.602473 -0.021945 0 0 0 
0.310757 -0.602766 -0.020726 0 0 0 
0.310423 -0.602648 -0.019969 0 0 0 
0.310688 -0.602746 -0.018968 0 0 0 
0.310904 -0.602825 -0.017985 0 0 0 
0.311221 -0.602941 -0.016959 0 0 0 
0.31179 -0.603147 -0.015825 0 0 0 
0.31226 -0.603318 -0.014729 0 0 0 
0.312733 -0.60349 -0.01363 0 0 0 
0.313055 -0.603607 -0.012591 0 0 0 
0.312973 -0.60358 -0.011722 0 0 0 
0.312891 -0.603553 -0.010852 0 0 0 
0.313113 -0.603635 -0.00985097 0 0 0 
0.313489 -0.603772 -0.00878196 0 0 0 
0.313865 -0.603909 -0.00770997 0 0 0 
0.313836 -0.6039 -0.00681197 0 0 0 
0.313857 -0.60391 -0.00589197 0 0 0 
0.313879 -0.60392 -0.00496996 0 0 0 
0.313545 -0.603803 -0.00420497 0 0 0 
0.313924 -0.603941 -0.00312396 0 0 0 
0.313437 -0.603768 -0.00242697 0 0 0 
0.31346 -0.603779 -0.00150197 0 0 0 
0.313943 -0.603954 -0.000367961 0 0 0 
0.313864 -0.603928 0.000514038 0 0 0 
0.313838 -0.603921 0.00142003 0 0 0 
0.313965 -0.603969 0.00239704 0 0 0 
0.314194 -0.604053 0.00342303 0 0 0 
0.314682 -0.60423 0.00457103 0 0 0 
0.313938 -0.603966 0.00514903 0 0 0 
0.31458 -0.604198 0.00637203 0 0 0 
0.313684 -0.603879 0.00687603 0 0 0 
0.313352 -0.603762 0.00764503 0 0 0 
0.313175 -0.603701 0.00848503 0 0 0 
0.312793 -0.603566 0.00922903 0 0 0 
0.31328 -0.603743 0.010387 0 0 0 
0.313564 -0.603847 0.01145 0 0 0 
0.296257 -0.593192 -0.387186 0 0 0 
0.298396 -0.593938 -0.387366 0 0 0 
0.29855 -0.593994 -0.386547 0 0 0 
0.298989 -0.594149 -0.38587 0 0 0 
0.298288 -0.593907 -0.384627 0 0 0 
0.299013 -0.594161 -0.384091 0 0 0 
0.299215 -0.594234 -0.383296 0 0 0 
0.304929 -0.596222 -0.385191 0 0 0 
0.300674 -0.594745 -0.382219 0 0 0 
0.300878 -0.594818 -0.381423 0 0 0 
0.30166 -0.595092 -0.380905 0 0 0 
0.301144 -0.594915 -0.379762 0 0 0 
0.30582 -0.596542 -0.381099 0 0 0 
0.306521 -0.596788 -0.380529 0 0 0 
0.302532 -0.595404 -0.377741 0 0 0 
0.304828 -0.596204 -0.377927 0 0 0 
0.306312 -0.596722 -0.377724 0 0 0 
0.304904 -0.596235 -0.376168 0 0 0 
0.308513 -0.597492 -0.376946 0 0 0 
0.304055 -0.595944 -0.373984 0 0 0 
0.306317 -0.596732 -0.374131 0 0 0 
0.307266 -0.597065 -0.373668 0 0 0 
0.306542 -0.596815 -0.37244 0 0 0 
0.314828 -0.599698 -0.375298 0 0 0 
0.306229 -0.59671 -0.370509 0 0 0 
0.310104 -0.59806 -0.371354 0 0 0 
0.311723 -0.598625 -0.371176 0 0 0 
0.310534 -0.598214 -0.369744 0 0 0 
0.3112 -0.598448 -0.369138 0 0 0 
0.308475 -0.597502 -0.367039 0 0 0 
0.310581 -0.598236 -0.367066 0 0 0 
0.311197 -0.598453 -0.366437 0 0 0 
0.313785 -0.599355 -0.366661 0 0 0 
0.310032 -0.598052 -0.364139 0 0 0 
0.312251 -0.598826 -0.364197 0 0 0 
0.311866 -0.598694 -0.363135 0 0 0 
0.315991 -0.600131 -0.363991 0 0 0 
0.312908 -0.599061 -0.361783 0 0 0 
0.312271 -0.598842 -0.360618 0 0 0 
0.314665 -0.599676 -0.360725 0 0 0 
0.313568 -0.599297 -0.359369 0 0 0 
0.314144 -0.599499 -0.358712 0 0 0 
0.313505 -0.599279 -0.357552 0 0 0 
0.31479 -0.599728 -0.357184 0 0 0 
0.313746 -0.599367 -0.355862 0 0 0 
0.313917 -0.599429 -0.355039 0 0 0 
0.314393 -0.599597 -0.354338 0 0 0 
0.315124 -0.599853 -0.353738 0 0 0 
0.314181 -0.599527 -0.352468 0 0 0 
0.313445 -0.599273 -0.351285 0 0 0 
0.315288 -0.599917 -0.351123 0 0 0 
0.313892 -0.599433 -0.349683 0 0 0 
0.313814 -0.599408 -0.348765 0 0 0 
0.314898 -0.599787 -0.348298 0 0 0 
0.314414 -0.599621 -0.347223 0 0 0 
0.316163 -0.600231 -0.347008 0 0 0 
0.315779 -0.6001 -0.345971 0 0 0 
0.317333 -0.600643 -0.345673 0 0 0 
0.317101 -0.600564 -0.344695 0 0 0 
0.314938 -0.599814 -0.342993 0 0 0 
0.315926 -0.60016 -0.342477 0 0 0 
0.315697 -0.600082 -0.341507 0 0 0 
0.316333 -0.600305 -0.340857 0 0 0 
0.317481 -0.600707 -0.340393 0 0 0 
0.31547 -0.60001 -0.338773 0 0 0 
0.315396 -0.599986 -0.337864 0 0 0 
0.316998 -0.600545 -0.337561 0 0 0 
0.315754 -0.600114 -0.336231 0 0 0 
0.315225 -0.599932 -0.335163 0 0 0 
0.316113 -0.600244 -0.334599 0 0 0 
0.317006 -0.600556 -0.334034 0 0 0 
0.314654 -0.59974 -0.33233 0 0 0 
0.316402 -0.600351 -0.332063 0 0 0 
0.315217 -0.59994 -0.330775 0 0 0 
0.316208 -0.600287 -0.330241 0 0 0 
0.314471 -0.599685 -0.328772 0 0 0 
0.315611 -0.600084 -0.328287 0 0 0 
0.314332 -0.599641 -0.326982 0 0 0 
0.313863 -0.599479 -0.325954 0 0 0 
0.312846 -0.599128 -0.324747 0 0 0 
0.313277 -0.59928 -0.324024 0 0 0 
0.312315 -0.598947 -0.322841 0 0 0 
0.313493 -0.599359 -0.322363 0 0 0 
0.312134 -0.598888 -0.321056 0 0 0 
0.309998 -0.598147 -0.319505 0 0 0 
0.311016 -0.598503 -0.318975 0 0 0 
0.310755 -0.598415 -0.318034 0 0 0 
0.311185 -0.598566 -0.317314 0 0 0 
0.309943 -0.598136 -0.316066 0 0 0 
0.310028 -0.598168 -0.315239 0 0 0 
0.309771 -0.59808 -0.314306 0 0 0 
0.308346 -0.597586 -0.313014 0 0 0 
0.308821 -0.597753 -0.312312 0 0 0 
0.308227 -0.597549 -0.311282 0 0 0 
0.307877 -0.597429 -0.31033 0 0 0 
0.30811 -0.597512 -0.309554 0 0 0 
0.306845 -0.597074 -0.308331 0 0 0 
0.306596 -0.596989 -0.307415 0 0 0 
0.306299 -0.596888 -0.306487 0 0 0 
0.306484 -0.596954 -0.305701 0 0 0 
0.307583 -0.597339 -0.30518 0 0 0 
0.305751 -0.596703 -0.303812 0 0 0 
0.305696 -0.596686 -0.302959 0 0 0 
0.305309 -0.596553 -0.302013 0 0 0 
0.304494 -0.596272 -0.300949 0 0 0 
0.304157 -0.596156 -0.300022 0 0 0 
0.304343 -0.596223 -0.299242 0 0 0 
0.303723 -0.596009 -0.298241 0 0 0 
0.303625 -0.595977 -0.297385 0 0 0 
0.303622 -0.595978 -0.296555 0 0 0 
0.303148 -0.595815 -0.2956 0 0 0 
0.303193 -0.595833 -0.294785 0 0 0 
0.302674 -0.595654 -0.293822 0 0 0 
0.302392 -0.595557 -0.292923 0 0 0 
0.302579 -0.595624 -0.292149 0 0 0 
0.301455 -0.595235 -0.291035 0 0 0 
0.301176 -0.59514 -0.290143 0 0 0 
0.30141 -0.595223 -0.289384 0 0 0 
0.301458 -0.595242 -0.288577 0 0 0 
0.301227 -0.595164 -0.2877 0 0 0 
0.301089 -0.595118 -0.286849 0 0 0 
0.301045 -0.595104 -0.286021 0 0 0 
0.30156 -0.595286 -0.285331 0 0 0 
0.301517 -0.595272 -0.284504 0 0 0 
0.300591 -0.594952 -0.283465 0 0 0 
0.301199 -0.595166 -0.282796 0 0 0 
0.301203 -0.595169 -0.281983 0 0 0 
0.301162 -0.595157 -0.28116 0 0 0 
0.301446 -0.595258 -0.280412 0 0 0 
0.300709 -0.595003 -0.279429 0 0 0 
0.30104 -0.59512 -0.278693 0 0 0 
0.300537 -0.594947 -0.277768 0 0 0 
0.300406 -0.594903 -0.276928 0 0 0 
0.300645 -0.594988 -0.276172 0 0 0 
0.300145 -0.594816 -0.275253 0 0 0 
0.299692 -0.59466 -0.274346 0 0 0 
0.299058 -0.594441 -0.273402 0 0 0 
0.298197 -0.594143 -0.272413 0 0 0 
0.29807 -0.594101 -0.271583 0 0 0 
0.297261 -0.593821 -0.270611 0 0 0 
0.296818 -0.593669 -0.269719 0 0 0 
0.297102 -0.59377 -0.26898 0 0 0 
0.29648 -0.593555 -0.268054 0 0 0 
0.296221 -0.593467 -0.267205 0 0 0 
0.295422 -0.59319 -0.266249 0 0 0 
0.294717 -0.592947 -0.265315 0 0 0 
0.295225 -0.593125 -0.264623 0 0 0 
0.295059 -0.59307 -0.263798 0 0 0 
0.29476 -0.592967 -0.262949 0 0 0 
0.294417 -0.59285 -0.262093 0 0 0 
0.29524 -0.593138 -0.261458 0 0 0 
0.295076 -0.593083 -0.260636 0 0 0 
0.295093 -0.593091 -0.259849 0 0 0 
0.295199 -0.59313 -0.259079 0 0 0 
0.295711 -0.59331 -0.258381 0 0 0 
0.295279 -0.593161 -0.257514 0 0 0 
0.295792 -0.593342 -0.256815 0 0 0 
0.295451 -0.593225 -0.255966 0 0 0 
0.29565 -0.593296 -0.255211 0 0 0 
0.296345 -0.59354 -0.254541 0 0 0 
0.296139 -0.59347 -0.253717 0 0 0 
0.29634 -0.593542 -0.252961 0 0 0 
0.297445 -0.593929 -0.252354 0 0 0 
0.297059 -0.593796 -0.2515 0 0 0 
0.297398 -0.593916 -0.250765 0 0 0 
0.297692 -0.594021 -0.250021 0 0 0 
0.297896 -0.594094 -0.249263 0 0 0 
0.298601 -0.594341 -0.248582 0 0 0 
0.298442 -0.594288 -0.247766 0 0 0 
0.297513 -0.593966 -0.246836 0 0 0 
0.298673 -0.594372 -0.246219 0 0 0 
0.298379 -0.594271 -0.245386 0 0 0 
0.298632 -0.594361 -0.244633 0 0 0 
0.298612 -0.594356 -0.24384 0 0 0 
0.299048 -0.59451 -0.243112 0 0 0 
0.29944 -0.594649 -0.242376 0 0 0 
0.299468 -0.59466 -0.241589 0 0 0 
0.299495 -0.594672 -0.240803 0 0 0 
0.299935 -0.594827 -0.240071 0 0 0 
0.300147 -0.594903 -0.239308 0 0 0 
0.300727 -0.595107 -0.238592 0 0 0 
0.300849 -0.595151 -0.237816 0 0 0 
0.302032 -0.595565 -0.237172 0 0 0 
0.300909 -0.595176 -0.236241 0 0 0 
0.301585 -0.595413 -0.235531 0 0 0 
0.301986 -0.595555 -0.234787 0 0 0 
0.30276 -0.595826 -0.234084 0 0 0 
0.302421 -0.59571 -0.233251 0 0 0 
0.302779 -0.595837 -0.232499 0 0 0 
0.303045 -0.595931 -0.231735 0 0 0 
0.303544 -0.596107 -0.230995 0 0 0 
0.303346 -0.59604 -0.23018 0 0 0 
0.303614 -0.596135 -0.229414 0 0 0 
0.303929 -0.596247 -0.228652 0 0 0 
0.304105 -0.596311 -0.227875 0 0 0 
0.305125 -0.596668 -0.227182 0 0 0 
0.304693 -0.596519 -0.226343 0 0 0 
0.305623 -0.596845 -0.225636 0 0 0 
0.305098 -0.596664 -0.22479 0 0 0 
0.305512 -0.59681 -0.224032 0 0 0 
0.307298 -0.597435 -0.223396 0 0 0 
0.306534 -0.59717 -0.222529 0 0 0 
0.306291 -0.597088 -0.22171 0 0 0 
0.307183 -0.597401 -0.220987 0 0 0 
0.307367 -0.597467 -0.220203 0 0 0 
0.307884 -0.597649 -0.219445 0 0 0 
0.307927 -0.597665 -0.218649 0 0 0 
0.308589 -0.597898 -0.217899 0 0 0 
0.308347 -0.597816 -0.21708 0 0 0 
0.308964 -0.598033 -0.216324 0 0 0 
0.309009 -0.59805 -0.215526 0 0 0 
0.309581 -0.598252 -0.214763 0 0 0 
0.31054 -0.598588 -0.214024 0 0 0 
0.310779 -0.598673 -0.213235 0 0 0 
0.311068 -0.598776 -0.212449 0 0 0 
0.310923 -0.598727 -0.211635 0 0 0 
0.311165 -0.598814 -0.210845 0 0 0 
0.312279 -0.599204 -0.210102 0 0 0 
0.311699 -0.599004 -0.209264 0 0 0 
0.312088 -0.599141 -0.208479 0 0 0 
0.312722 -0.599364 -0.207705 0 0 0 
0.31292 -0.599435 -0.206907 0 0 0 
0.313704 -0.599711 -0.206135 0 0 0 
0.313855 -0.599765 -0.205333 0 0 0 
0.314055 -0.599837 -0.204532 0 0 0 
0.314159 -0.599875 -0.203727 0 0 0 
0.314311 -0.59993 -0.202923 0 0 0 
0.3153 -0.600277 -0.202149 0 0 0 
0.314668 -0.600058 -0.201316 0 0 0 
0.315266 -0.600269 -0.200525 0 0 0 
0.315224 -0.600256 -0.199712 0 0 0 
0.314643 -0.600055 -0.198884 0 0 0 
0.315144 -0.600232 -0.198087 0 0 0 
0.315893 -0.600495 -0.197295 0 0 0 
0.3162 -0.600604 -0.196489 0 0 0 
0.315914 -0.600506 -0.19567 0 0 0 
0.316321 -0.60065 -0.194866 0 0 0 
0.31663 -0.60076 -0.194057 0 0 0 
0.31704 -0.600905 -0.19325 0 0 0 
0.316607 -0.600756 -0.19243 0 0 0 
0.317415 -0.60104 -0.191625 0 0 0 
0.317778 -0.601168 -0.190813 0 0 0 
0.318843 -0.601541 -0.190004 0 0 0 
0.317361 -0.601026 -0.189179 0 0 0 
0.317925 -0.601225 -0.188366 0 0 0 
0.318992 -0.601599 -0.18755 0 0 0 
0.318308 -0.601363 -0.186733 0 0 0 
0.319077 -0.601633 -0.185914 0 0 0 
0.319498 -0.601782 -0.185093 0 0 0 
0.319165 -0.601668 -0.184276 0 0 0 
0.319085 -0.601641 -0.183458 0 0 0 
0.319306 -0.601721 -0.182637 0 0 0 
0.318675 -0.601503 -0.181826 0 0 0 
0.318847 -0.601564 -0.181006 0 0 0 
0.318269 -0.601365 -0.180197 0 0 0 
0.319143 -0.601671 -0.179364 0 0 0 
0.318965 -0.601612 -0.178548 0 0 0 
0.318588 -0.601482 -0.177738 0 0 0 
0.318513 -0.601458 -0.176922 0 0 0 
0.318538 -0.601468 -0.176104 0 0 0 
0.318213 -0.601357 -0.175295 0 0 0 
0.31829 -0.601386 -0.174475 0 0 0 
0.317767 -0.601205 -0.173674 0 0 0 
0.318244 -0.601373 -0.172841 0 0 0 
0.317424 -0.601089 -0.172053 0 0 0 
0.316955 -0.600928 -0.171255 0 0 0 
0.317033 -0.600957 -0.170436 0 0 0 
0.316517 -0.600779 -0.169643 0 0 0 
0.31615 -0.600653 -0.168844 0 0 0 
0.315884 -0.600562 -0.168042 0 0 0 
0.316014 -0.600609 -0.167222 0 0 0 
0.315108 -0.600295 -0.166453 0 0 0 
0.31514 -0.600308 -0.165639 0 0 0 
0.314484 -0.600081 -0.164862 0 0 0 
0.314811 -0.600197 -0.164032 0 0 0 
0.31357 -0.599766 -0.163291 0 0 0 
0.314535 -0.600105 -0.162424 0 0 0 
0.313296 -0.599675 -0.161688 0 0 0 
0.312503 -0.5994 -0.160929 0 0 0 
0.312101 -0.599261 -0.160147 0 0 0 
0.311845 -0.599174 -0.159356 0 0 0 
0.311397 -0.59902 -0.15858 0 0 0 
0.311482 -0.599051 -0.157767 0 0 0 
0.311133 -0.598931 -0.156986 0 0 0 
0.31011 -0.598576 -0.156257 0 0 0 
0.309907 -0.598507 -0.155468 0 0 0 
0.309658 -0.598422 -0.154683 0 0 0 
0.309169 -0.598254 -0.153919 0 0 0 
0.309017 -0.598202 -0.153128 0 0 0 
0.308866 -0.598152 -0.152337 0 0 0 
0.309145 -0.598251 -0.15151 0 0 0 
0.308135 -0.5979 -0.150796 0 0 0 
0.308367 -0.597983 -0.149972 0 0 0 
0.30817 -0.597917 -0.149188 0 0 0 
0.308834 -0.59815 -0.148322 0 0 0 
0.308637 -0.598083 -0.147537 0 0 0 
0.308872 -0.598167 -0.146709 0 0 0 
0.308725 -0.598118 -0.145919 0 0 0 
0.308435 -0.598018 -0.145144 0 0 0 
0.308576 -0.598069 -0.144325 0 0 0 
0.308812 -0.598154 -0.143495 0 0 0 
0.309002 -0.598222 -0.142668 0 0 0 
0.308953 -0.598207 -0.141867 0 0 0 
0.308905 -0.598192 -0.141066 0 0 0 
0.308905 -0.598194 -0.14026 0 0 0 
0.309001 -0.59823 -0.139441 0 0 0 
0.30905 -0.598249 -0.138628 0 0 0 
0.309291 -0.598335 -0.137791 0 0 0 
0.30867 -0.59812 -0.137059 0 0 0 
0.309344 -0.598357 -0.136167 0 0 0 
0.308915 -0.598209 -0.135412 0 0 0 
0.308631 -0.598112 -0.13464 0 0 0 
0.310414 -0.598736 -0.133598 0 0 0 
0.309792 -0.598521 -0.132868 0 0 0 
0.309028 -0.598257 -0.13216 0 0 0 
0.309322 -0.598361 -0.131309 0 0 0 
0.309425 -0.598399 -0.130484 0 0 0 
0.309335 -0.598369 -0.129685 0 0 0 
0.309391 -0.598391 -0.128865 0 0 0 
0.310025 -0.598614 -0.127961 0 0 0 
0.309888 -0.598568 -0.127167 0 0 0 
0.309801 -0.59854 -0.126366 0 0 0 
0.31068 -0.598849 -0.12542 0 0 0 
0.310013 -0.598618 -0.124705 0 0 0 
0.311137 -0.599012 -0.123716 0 0 0 
0.310373 -0.598747 -0.123018 0 0 0 
0.310288 -0.59872 -0.122215 0 0 0 
0.311172 -0.59903 -0.121256 0 0 0 
0.311185 -0.599037 -0.120434 0 0 0 
0.311296 -0.599077 -0.119597 0 0 0 
0.311504 -0.599152 -0.118742 0 0 0 
0.311909 -0.599295 -0.117853 0 0 0 
0.311485 -0.599149 -0.117103 0 0 0 
0.312086 -0.599361 -0.116178 0 0 0 
0.312199 -0.599403 -0.115334 0 0 0 
0.312363 -0.599462 -0.114482 0 0 0 
0.312331 -0.599453 -0.113663 0 0 0 
0.31279 -0.599615 -0.112755 0 0 0 
0.313152 -0.599743 -0.111862 0 0 0 
0.313121 -0.599735 -0.11104 0 0 0 
0.313141 -0.599743 -0.110209 0 0 0 
0.31321 -0.59977 -0.109367 0 0 0 
0.313378 -0.59983 -0.108506 0 0 0 
0.313892 -0.600012 -0.107577 0 0 0 
0.313963 -0.600039 -0.106732 0 0 0 
0.314777 -0.600325 -0.10574 0 0 0 
0.315049 -0.600422 -0.104853 0 0 0 
0.31542 -0.600553 -0.103943 0 0 0 
0.315345 -0.600529 -0.103122 0 0 0 
0.314674 -0.600297 -0.102423 0 0 0 
0.315196 -0.600481 -0.101479 0 0 0 
0.314477 -0.600232 -0.100792 0 0 0 
0.315397 -0.600555 -0.0997621 0 0 0 
0.315574 -0.600619 -0.0988861 0 0 0 
0.314656 -0.6003 -0.0982438 0 0 0 
0.31538 -0.600555 -0.0972488 0 0 0 
0.315408 -0.600567 -0.0964026 0 0 0 
0.315487 -0.600597 -0.0955446 0 0 0 
0.315716 -0.600679 -0.0946523 0 0 0 
0.315696 -0.600674 -0.0938146 0 0 0 
0.317432 -0.601282 -0.0925778 0 0 0 
0.315957 -0.600769 -0.0920687 0 0 0 
0.316289 -0.600887 -0.0911477 0 0 0 
0.31582 -0.600725 -0.0904114 0 0 0 
0.315703 -0.600686 -0.0895939 0 0 0 
0.315886 -0.600752 -0.0887051 0 0 0 
0.316371 -0.600924 -0.0877429 0 0 0 
0.316154 -0.60085 -0.0869473 0 0 0 
0.318306 -0.601604 -0.085576 0 0 0 
0.316324 -0.600913 -0.085209 0 0 0 
0.316109 -0.60084 -0.084413 0 0 0 
0.316245 -0.60089 -0.083529 0 0 0 
0.316885 -0.601116 -0.082518 0 0 0 
0.31657 -0.601007 -0.081746 0 0 0 
0.316759 -0.601075 -0.080845 0 0 0 
0.316696 -0.601056 -0.080008 0 0 0 
0.316886 -0.601124 -0.079105 0 0 0 
0.316674 -0.601052 -0.078306 0 0 0 
0.316512 -0.600997 -0.077494 0 0 0 
0.316653 -0.601049 -0.076601 0 0 0 
0.316441 -0.600977 -0.075802 0 0 0 
0.316987 -0.601169 -0.074799 0 0 0 
0.316625 -0.601045 -0.074039 0 0 0 
0.316768 -0.601097 -0.073142 0 0 0 
0.31762 -0.601397 -0.072049 0 0 0 
0.316853 -0.601131 -0.071401 0 0 0 
0.317099 -0.601219 -0.070472 0 0 0 
0.317143 -0.601236 -0.069598 0 0 0 
0.316531 -0.601024 -0.06891 0 0 0 
0.315116 -0.600532 -0.068454 0 0 0 
0.316268 -0.600937 -0.067263 0 0 0 
0.313706 -0.600043 -0.067145 0 0 0 
0.313253 -0.599887 -0.06642 0 0 0 
0.313099 -0.599835 -0.065608 0 0 0 
0.312946 -0.599784 -0.064796 0 0 0 
0.311506 -0.599283 -0.064369 0 0 0 
0.311108 -0.599146 -0.063633 0 0 0 
0.311302 -0.599215 -0.062719 0 0 0 
0.310855 -0.599061 -0.061999 0 0 0 
0.310115 -0.598805 -0.06137 0 0 0 
0.310113 -0.598806 -0.060516 0 0 0 
0.30918 -0.598482 -0.05995 0 0 0 
0.308934 -0.598398 -0.059172 0 0 0 
0.308105 -0.59811 -0.058579 0 0 0 
0.30786 -0.598027 -0.057803 0 0 0 
0.307568 -0.597927 -0.057043 0 0 0 
0.306502 -0.597556 -0.056531 0 0 0 
