0.404402,-0.166967,-0.175276,20
0.405011,-0.167314,-0.174667,18
0.405073,-0.167352,-0.173806,20
0.40711,-0.168508,-0.173846,22
0.406344,-0.168076,-0.172605,24
0.405444,-0.167569,-0.171308,27
0.405599,-0.167659,-0.17049,25
0.407732,-0.168869,-0.170556,29
0.406643,-0.168255,-0.169181,26
0.405791,-0.167774,-0.167915,31
0.407278,-0.168619,-0.167685,32
0.406791,-0.168345,-0.166583,30
0.40982,-0.170064,-0.167016,29
0.410541,-0.170474,-0.166436,28
0.408417,-0.169274,-0.164628,26
0.409086,-0.169655,-0.164027,35
0.409292,-0.169774,-0.163226,35
0.411087,-0.170793,-0.163099,35
0.410779,-0.170621,-0.162078,34
0.410331,-0.17037,-0.161,36
0.41082,-0.170649,-0.160316,29
0.409814,-0.170081,-0.15901,33
0.410535,-0.170492,-0.158422,36
0.409578,-0.169952,-0.157143,32
0.411281,-0.170919,-0.156954,38
0.410788,-0.170642,-0.155868,42
0.411091,-0.170816,-0.155105,39
0.410274,-0.170355,-0.153893,35
0.412264,-0.171485,-0.153804,34
0.41163,-0.171128,-0.152666,45
0.411279,-0.170932,-0.151645,40
0.411819,-0.17124,-0.150974,41
0.410767,-0.170646,-0.149682,38
0.41262,-0.171698,-0.149519,44
0.41288,-0.171848,-0.148736,34
0.412247,-0.171492,-0.147611,41
0.412414,-0.171588,-0.146794,41
0.411363,-0.170995,-0.145516,40
0.412279,-0.171516,-0.144983,46
0.410996,-0.170792,-0.143625,44
0.410001,-0.170231,-0.142381,43
0.410586,-0.170564,-0.141724,45
0.410568,-0.170556,-0.140845,43
0.408931,-0.169631,-0.139376,46
0.407904,-0.169051,-0.138137,46
0.407203,-0.168656,-0.13702,40
0.406187,-0.168083,-0.135794,42
0.405493,-0.167692,-0.134688,41
0.405028,-0.16743,-0.133667,46
0.404161,-0.166941,-0.132507,47
0.403566,-0.166606,-0.131447,48
0.402885,-0.166222,-0.130361,45
0.402207,-0.16584,-0.129279,45
0.40295,-0.166264,-0.128686,50
0.401697,-0.165556,-0.127414,46
0.401554,-0.165477,-0.126521,49
0.400007,-0.164602,-0.12516,52
0.400391,-0.164823,-0.124449,52
0.398898,-0.163979,-0.123117,49
0.39876,-0.163902,-0.122236,51
0.397756,-0.163336,-0.121075,58
0.398441,-0.163726,-0.120464,62
0.397612,-0.163258,-0.119366,59
0.396018,-0.162357,-0.118027,60
0.396868,-0.162841,-0.117471,55
0.39622,-0.162476,-0.11644,61
0.396001,-0.162354,-0.115547,61
0.395783,-0.162233,-0.114655,60
0.396035,-0.162377,-0.113909,68
0.396245,-0.162498,-0.113151,61
0.396669,-0.162741,-0.112456,60
0.396409,-0.162596,-0.111555,67
0.396962,-0.162911,-0.110898,73
0.396189,-0.162476,-0.109846,72
0.396957,-0.162913,-0.109252,73
0.397857,-0.163425,-0.108693,71
0.396739,-0.162794,-0.107546,76
0.396823,-0.162843,-0.106751,81
0.397594,-0.163282,-0.106151,84
0.39725,-0.16309,-0.105233,88
0.397121,-0.163019,-0.104377,85
0.397851,-0.163434,-0.103762,83
0.398152,-0.163607,-0.103026,83
0.397723,-0.163366,-0.102088,87
0.398801,-0.163979,-0.101563,87
0.398242,-0.163664,-0.100592,90
0.39915,-0.164181,-0.100017,88
0.399368,-0.164307,-0.099255,87
0.39963,-0.164458,-0.0985043,90
0.398984,-0.164094,-0.0975155,93
0.399549,-0.164416,-0.096844,88
0.400247,-0.164814,-0.0962045,90
0.400817,-0.165139,-0.0955299,86
0.401301,-0.165416,-0.0948317,89
0.401087,-0.165296,-0.093957,95
0.401092,-0.165301,-0.0931382,92
0.40184,-0.165728,-0.0925026,89
0.401539,-0.165559,-0.0916085,95
0.401502,-0.16554,-0.0907798,94
0.402208,-0.165943,-0.0901299,100
0.402084,-0.165874,-0.0892802,96
0.402047,-0.165856,-0.0884522,95
0.401967,-0.165813,-0.0876148,98
0.402985,-0.166392,-0.0870313,99
0.402422,-0.166075,-0.0860827,100
0.402518,-0.166131,-0.0852863,105
0.402879,-0.166338,-0.0845491,101
0.40324,-0.166545,-0.083811,101
0.403603,-0.166753,-0.0830719,99
0.403878,-0.166911,-0.0823128,94
0.403889,-0.166919,-0.0814959,96
0.403547,-0.166728,-0.0806042,99
0.404045,-0.167012,-0.0798915,103
0.404189,-0.167096,-0.0791035,110
0.404379,-0.167205,-0.0783245,105
0.404392,-0.167215,-0.077509,106
0.405782,-0.168005,-0.0769725,104
0.405084,-0.167612,-0.0760124,106
0.404743,-0.167421,-0.0751265,105
0.404492,-0.16728,-0.07426,105
0.404862,-0.167492,-0.0735152,112
0.405188,-0.167679,-0.0727609,114
0.405159,-0.167665,-0.0719384,110
0.405309,-0.167752,-0.0711498,109
0.404927,-0.167537,-0.0702625,109
0.405121,-0.16765,-0.0694827,113
0.405405,-0.167813,-0.0687186,110
0.405557,-0.167901,-0.0679301,114
0.40562,-0.167939,-0.0671256,116
0.405684,-0.167977,-0.0663213,114
0.406149,-0.168243,-0.0655861,118
0.406213,-0.168282,-0.0647813,117
0.406502,-0.168447,-0.064014,125
0.406657,-0.168537,-0.0632238,127
0.40641,-0.1684,-0.0623676,129
0.406655,-0.168541,-0.0615922,128
0.407125,-0.168809,-0.0608517,129
0.406745,-0.168596,-0.0599762,128
0.406858,-0.168662,-0.0591789,124
0.406302,-0.168349,-0.0582793,130
0.40704,-0.16877,-0.0575774,132
0.406619,-0.168533,-0.0567003,133
0.407001,-0.168752,-0.0559431,130
0.407385,-0.168972,-0.0551846,136
0.40786,-0.169243,-0.0544378,131
0.407528,-0.169057,-0.0535763,139
0.407241,-0.168897,-0.052723,136
0.407896,-0.16927,-0.0519987,132
0.407745,-0.169187,-0.0511643,132
0.407013,-0.168773,-0.0502546,139
0.407803,-0.169224,-0.0495448,132
0.407788,-0.169217,-0.0487297,137
0.407908,-0.169287,-0.0479318,137
0.40758,-0.169103,-0.0470787,140
0.407701,-0.169174,-0.0462813,134
0.407598,-0.169118,-0.0454572,137
0.407899,-0.169291,-0.0446807,146
0.407797,-0.169235,-0.0438573,144
0.40774,-0.169205,-0.0430395,144
0.408088,-0.169404,-0.0422666,144
0.407539,-0.169095,-0.041396,141
0.408786,-0.169805,-0.0407174,148
0.407699,-0.16919,-0.0397923,145
0.407645,-0.169161,-0.0389768,151
0.407547,-0.169108,-0.0381573,147
0.407762,-0.169232,-0.0373688,152
0.408023,-0.169382,-0.036584,149
0.407658,-0.169177,-0.0357402,146
0.407517,-0.169099,-0.0349184,147
0.408138,-0.169454,-0.0341648,150
0.407416,-0.169046,-0.0332929,147
0.407544,-0.169121,-0.0324958,156
0.407674,-0.169197,-0.0316984,154
0.407312,-0.168994,-0.0308614,156
0.4078,-0.169273,-0.0300921,158
0.407976,-0.169375,-0.0292973,163
0.40775,-0.169248,-0.0284724,160
0.407479,-0.169097,-0.0276454,158
0.407567,-0.169149,-0.0268446,160
0.407521,-0.169125,-0.0260345,163
0.407521,-0.169127,-0.0252277,156
0.407744,-0.169255,-0.0244352,163
0.408372,-0.169614,-0.0236663,165
0.407209,-0.168956,-0.02279,161
0.407255,-0.168984,-0.0219871,160
0.40748,-0.169114,-0.0211937,165
0.40717,-0.16894,-0.0203716,166
0.407263,-0.168995,-0.019571,166
0.407221,-0.168973,-0.0187638,166
0.407002,-0.168851,-0.0179487,172
0.406429,-0.168528,-0.0171191,167
0.406345,-0.168482,-0.0163124,175
0.406128,-0.168362,-0.0155009,174
0.404501,-0.16744,-0.0146379,174
0.40442,-0.167396,-0.0138361,165
0.403813,-0.167054,-0.0130174,172
0.403165,-0.166688,-0.0122001,168
0.403085,-0.166645,-0.011402,171
0.40305,-0.166627,-0.0106054,176
0.401193,-0.165575,-0.00976437,175
0.402025,-0.166049,-0.00899146,171
0.400609,-0.165248,-0.00816954,182
0.400104,-0.164963,-0.00737017,173
0.398959,-0.164316,-0.00656276,177
0.398885,-0.164276,-0.00577509,174
0.398812,-0.164236,-0.00498776,174
0.398781,-0.164221,-0.00420118,168
0.398156,-0.163868,-0.00341028,165
0.398977,-0.164336,-0.00262983,166
0.397843,-0.163694,-0.00183952,160
0.398408,-0.164017,-0.00105595,163
0.39838,-0.164003,-0.000270567,163
0.399461,-0.164619,0.000518168,164
0.398708,-0.164194,0.0013019,163
0.399151,-0.164447,0.00209126,166
0.399338,-0.164555,0.00288009,164
0.399526,-0.164664,0.00366977,168
0.399843,-0.164846,0.00446205,168
0.399989,-0.164931,0.00525301,166
0.400867,-0.165431,0.0060578,170
0.401967,-0.166058,0.00687084,168
0.400561,-0.165262,0.00763285,164
0.400452,-0.165202,0.00842055,165
0.401464,-0.165778,0.00923756,167
0.401831,-0.165989,0.0100405,166
0.402504,-0.166373,0.0108544,165
0.402352,-0.166289,0.0116442,164
0.402071,-0.166131,0.0124289,163
0.402007,-0.166097,0.0132205,164
0.402508,-0.166384,0.0140342,165
0.403579,-0.166994,0.0148736,164
0.403867,-0.167159,0.0156837,162
0.404111,-0.1673,0.016493,160
0.404181,-0.167341,0.0172952,160
0.403813,-0.167134,0.0180759,166
0.40463,-0.1676,0.0189169,168
0.404965,-0.167793,0.0197354,162
0.405523,-0.168112,0.020568,160
0.405552,-0.16813,0.0213721,162
0.405581,-0.168149,0.0221765,168
0.406053,-0.168419,0.023009,162
0.40635,-0.168589,0.0238323,167
0.40687,-0.168887,0.0246719,161
0.407169,-0.169059,0.0254986,161
0.407469,-0.169231,0.0263269,158
0.408039,-0.169557,0.0271764,162
0.407938,-0.169501,0.0279778,158
0.409773,-0.170546,0.0289293,160
0.410306,-0.17085,0.029785,162
0.410024,-0.170692,0.0305763,163
0.410559,-0.170998,0.0314353,161
0.411919,-0.171772,0.0323679,156
0.412094,-0.171874,0.0332018,162
0.413281,-0.17255,0.0341283,161
0.412951,-0.172365,0.0349196,158
0.413822,-0.172861,0.0358233,157
0.414836,-0.173439,0.036745,163
0.415483,-0.173809,0.0376349,167
0.416132,-0.17418,0.038528,166
0.416456,-0.174366,0.0393905,164
0.41664,-0.174472,0.0402398,161
0.416824,-0.174579,0.0410903,159
0.417953,-0.175222,0.0420455,159
0.418425,-0.175492,0.0429322,158
0.41866,-0.175628,0.0437943,161
0.419087,-0.175873,0.0446798,163
0.419277,-0.175983,0.0455394,162
0.419707,-0.176229,0.046429,163
0.42009,-0.176449,0.0473151,164
0.421388,-0.177188,0.0483172,164
0.421294,-0.177137,0.0491484,170
0.421537,-0.177277,0.0500232,170
0.421975,-0.177528,0.0509248,168
0.422269,-0.177697,0.0518094,171
0.422031,-0.177565,0.0526235,175
0.422182,-0.177652,0.0534902,171
0.421655,-0.177355,0.0542633,168
0.421323,-0.177169,0.0550621,175
0.421668,-0.177367,0.0559573,178
0.421868,-0.177483,0.0568332,174
0.421248,-0.177133,0.0575885,181
0.421304,-0.177167,0.0584434,176
0.421796,-0.177448,0.0593654,181
0.419832,-0.176335,0.0599092,178
0.419172,-0.175963,0.0606499,181
0.41861,-0.175646,0.0614037,175
0.417908,-0.175249,0.0621327,179
0.418156,-0.175392,0.0630146,173
0.416983,-0.174728,0.0636624,169
0.416853,-0.174656,0.0644806,171
0.417007,-0.174746,0.0653469,170
0.416689,-0.174568,0.066133,171
0.416608,-0.174524,0.0669594,175
0.416386,-0.1744,0.0677609,165
0.416212,-0.174303,0.0685704,164
0.416226,-0.174313,0.0694138,164
0.416383,-0.174404,0.0702836,160
0.416257,-0.174335,0.0711022,163
0.415052,-0.173653,0.0717183,158
0.415209,-0.173744,0.0725879,157
0.415132,-0.173703,0.0734138,159
0.414495,-0.173343,0.0741309,155
0.415402,-0.17386,0.0751488,156
0.415514,-0.173926,0.0760134,155
0.414783,-0.173513,0.0767097,152
0.414709,-0.173473,0.0775365,153
0.414635,-0.173433,0.0783635,154
0.415828,-0.174113,0.079453,154
0.414723,-0.173488,0.0800672,150
0.414885,-0.173582,0.0809449,153
0.416176,-0.174318,0.0820651,158
0.415022,-0.173664,0.0826638,151
0.414717,-0.173493,0.0834428,150
0.4146,-0.173429,0.0842624,146
0.415186,-0.173764,0.0852384,147
0.415634,-0.174021,0.0861863,147
0.415424,-0.173903,0.0869875,147
0.416393,-0.174456,0.0880582,150
0.415381,-0.173883,0.0886759,143
0.415219,-0.173794,0.0894879,145
0.414542,-0.173411,0.0901783,148
0.414803,-0.173562,0.0910895,149
0.415207,-0.173793,0.0920364,145
0.415801,-0.174133,0.0930317,142
0.415405,-0.17391,0.0937883,148
0.415482,-0.173956,0.0946601,152
0.415653,-0.174056,0.0955564,139
0.415778,-0.174129,0.0964423,142
0.415148,-0.173773,0.0971383,143
0.415793,-0.174142,0.0981575,142
0.416014,-0.17427,0.0990709,148
0.416236,-0.174398,0.0999861,148
0.416506,-0.174554,0.100916,147
0.416825,-0.174737,0.10186,149
0.416811,-0.174732,0.102717,152
0.41737,-0.175051,0.103729,146
0.416976,-0.17483,0.104485,152
0.417393,-0.175069,0.105462,150
0.41743,-0.175092,0.106337,154
0.417562,-0.17517,0.107239,155
0.417456,-0.175111,0.108076,157
0.418068,-0.175462,0.109115,158
0.417867,-0.17535,0.109926,165
0.417858,-0.175347,0.110792,157
0.417562,-0.175181,0.111576,157
0.417458,-0.175124,0.112415,160
0.417402,-0.175094,0.113268,164
0.417156,-0.174957,0.114065,163
0.41691,-0.174819,0.114862,161
0.416379,-0.174519,0.115573,165
0.417471,-0.175143,0.116773,169
0.417322,-0.17506,0.1176,170
0.416218,-0.174435,0.118135,164
0.415595,-0.174083,0.118814,163
0.415733,-0.174164,0.119727,169
0.415539,-0.174056,0.120538,166
0.415108,-0.173813,0.121274,166
0.414773,-0.173625,0.122038,160
0.41458,-0.173518,0.122848,161
0.414388,-0.173411,0.123658,162
0.413725,-0.173036,0.124314,154
0.413912,-0.173144,0.125246,155
0.413674,-0.173012,0.12604,151
0.414239,-0.173335,0.127099,148
0.413908,-0.173149,0.127863,147
0.413813,-0.173097,0.128705,148
0.414522,-0.173503,0.129819,150
0.413813,-0.173102,0.130455,141
0.413295,-0.17281,0.131153,149
0.413957,-0.173188,0.132256,143
0.412968,-0.172628,0.132791,150
0.414386,-0.173437,0.134162,145
0.413679,-0.173037,0.134793,146
0.414771,-0.17366,0.136059,145
0.41359,-0.172991,0.136521,140
0.413735,-0.173076,0.137453,140
0.413739,-0.17308,0.138336,141
0.413838,-0.173139,0.139254,136
0.413606,-0.173009,0.140052,133
0.413895,-0.173176,0.141041,136
0.413569,-0.172993,0.141805,132
0.413954,-0.173214,0.142833,130
0.413865,-0.173166,0.143686,135
0.415061,-0.173848,0.145024,134
0.415164,-0.173909,0.145953,134
0.414552,-0.173563,0.14661,134
0.41456,-0.17357,0.147504,128
0.413997,-0.173252,0.148178,134
0.414243,-0.173395,0.149165,136
0.414538,-0.173565,0.150172,137
0.4145,-0.173545,0.151051,144
0.41537,-0.174042,0.152289,133
0.414615,-0.173615,0.152886,132
0.414817,-0.173732,0.153863,127
0.415403,-0.174068,0.154996,129
0.415847,-0.174323,0.156075,131
0.415522,-0.174141,0.156844,133
0.416691,-0.174808,0.158223,126
0.416801,-0.174873,0.159174,129
0.416235,-0.174553,0.159845,123
0.416394,-0.174645,0.160817,119
0.417522,-0.17529,0.162195,115
0.417489,-0.175273,0.163091,122
0.417845,-0.175478,0.164153,111
0.417714,-0.175406,0.16501,122
0.417877,-0.175501,0.165992,123
0.418186,-0.175679,0.167039,124
0.418448,-0.17583,0.168068,114
0.418172,-0.175676,0.168865,123
0.41863,-0.175939,0.169983,116
0.418992,-0.176147,0.171061,123
0.418716,-0.175992,0.17186,117
0.419374,-0.176369,0.173074,117
0.419295,-0.176327,0.173962,117
0.419908,-0.176677,0.175161,123
0.420423,-0.176973,0.17632,116
0.420395,-0.176959,0.177236,117
0.419971,-0.17672,0.177972,114
0.420488,-0.177017,0.179138,111
0.421207,-0.177428,0.180401,108
0.421429,-0.177557,0.181438,106
0.421303,-0.177488,0.182315,109
0.420629,-0.177107,0.182935,108
0.421401,-0.177548,0.184234,109
0.421425,-0.177565,0.185183,113
0.42175,-0.177752,0.186277,114
0.421876,-0.177826,0.187277,114
0.421651,-0.1777,0.188111,109
0.422129,-0.177974,0.189284,113
0.421904,-0.177849,0.190119,114
0.42153,-0.177639,0.190882,111
0.421557,-0.177657,0.19184,112
0.421936,-0.177875,0.192972,103
0.421412,-0.177579,0.19366,99
0.420989,-0.177341,0.194398,106
0.420867,-0.177274,0.195284,107
0.422,-0.177921,0.1968,113
0.42218,-0.178026,0.197842,110
0.421255,-0.177502,0.198327,111
0.421385,-0.177578,0.199345,109
0.421566,-0.177684,0.20039,108
0.421345,-0.177561,0.201231,133
0.421628,-0.177724,0.202332,109
0.421407,-0.177601,0.203174,104
0.421389,-0.177593,0.204121,106
0.401638,-0.161446,-0.204722,12
0.400878,-0.161026,-0.2034,10
0.406331,-0.164059,-0.205435,9
0.407642,-0.16479,-0.20522,14
0.397953,-0.159407,-0.199117,11
0.401364,-0.161305,-0.200035,12
0.401554,-0.161413,-0.199231,11
0.404799,-0.163219,-0.200039,12
0.402706,-0.162058,-0.198029,12
0.400818,-0.161011,-0.196137,10
0.403044,-0.162251,-0.196395,14
0.403373,-0.162436,-0.195662,15
0.40352,-0.16252,-0.194833,17
0.404124,-0.162858,-0.19424,15
0.399443,-0.160258,-0.190945,15
0.399857,-0.16049,-0.190263,12
0.402702,-0.162074,-0.190811,18
0.400866,-0.161056,-0.188988,15
0.402319,-0.161866,-0.188823,18
0.401341,-0.161325,-0.18744,12
0.403977,-0.162793,-0.187857,14
0.401817,-0.161594,-0.185892,18
0.402101,-0.161754,-0.18514,13
0.402385,-0.161915,-0.184387,15
0.402805,-0.162151,-0.183701,26
0.405139,-0.16345,-0.18394,20
0.40424,-0.162953,-0.182611,18
0.404527,-0.163115,-0.181856,20
0.407573,-0.164811,-0.182418,21
0.40648,-0.164205,-0.180998,22
0.404072,-0.162868,-0.178963,20
0.406142,-0.164022,-0.179048,16
0.406754,-0.164365,-0.178442,21
0.406126,-0.164018,-0.177255,24
0.404271,-0.162989,-0.175503,24
0.4074,-0.164731,-0.17606,19
0.405352,-0.163594,-0.174226,22
0.406604,-0.164293,-0.173911,21
0.406208,-0.164075,-0.172841,22
0.405586,-0.163731,-0.171671,21
0.407899,-0.16502,-0.171826,27
0.407501,-0.164801,-0.170758,25
0.407243,-0.164659,-0.169754,25
0.409017,-0.165648,-0.169652,26
0.409128,-0.165712,-0.168811,26
0.407667,-0.164902,-0.16728,29
0.409119,-0.165712,-0.167027,30
0.408166,-0.165184,-0.165726,30
0.410928,-0.166722,-0.166031,30
0.41034,-0.166398,-0.164888,29
0.408687,-0.165481,-0.163294,30
0.4101,-0.166269,-0.163009,31
0.409376,-0.165869,-0.161817,30
0.409629,-0.166011,-0.161038,31
0.410394,-0.166439,-0.160473,35
0.410975,-0.166765,-0.159829,37
0.410344,-0.166416,-0.158683,34
0.409113,-0.165733,-0.157294,34
0.410714,-0.166626,-0.157067,41
0.410783,-0.166667,-0.156212,38
0.412539,-0.167646,-0.156038,43
0.413599,-0.168238,-0.155578,38
0.410759,-0.16666,-0.153557,39
0.413079,-0.167953,-0.153598,40
0.411787,-0.167237,-0.152203,42
0.412656,-0.167722,-0.151663,41
0.412915,-0.167869,-0.150882,39
0.412142,-0.167441,-0.1497,46
0.412589,-0.167692,-0.148992,46
0.413085,-0.16797,-0.148302,41
0.413676,-0.168301,-0.147647,36
0.411497,-0.167091,-0.145941,37
0.412177,-0.167472,-0.145322,41
0.411644,-0.167177,-0.144246,41
0.410508,-0.166548,-0.14295,45
0.410675,-0.166643,-0.14214,38
0.408123,-0.165226,-0.140332,38
0.406875,-0.164534,-0.139013,45
0.407132,-0.164679,-0.138245,43
0.405711,-0.163891,-0.136873,43
0.405245,-0.163634,-0.135849,46
0.406178,-0.164155,-0.135326,41
0.404857,-0.163422,-0.134002,39
0.403769,-0.162819,-0.132767,47
0.404292,-0.163112,-0.1321,47
0.403788,-0.162834,-0.131075,43
0.402443,-0.162088,-0.129763,48
0.401636,-0.161641,-0.128642,49
0.401493,-0.161564,-0.127751,55
0.401043,-0.161316,-0.126758,53
0.400638,-0.161093,-0.125782,56
0.400017,-0.160749,-0.124737,55
0.400357,-0.160941,-0.124013,52
0.400918,-0.161254,-0.123361,51
0.398947,-0.16016,-0.121881,54
0.397945,-0.159605,-0.120724,60
0.397508,-0.159364,-0.119754,62
0.397115,-0.159147,-0.118801,57
0.398227,-0.159768,-0.118328,63
0.397747,-0.159503,-0.117349,57
0.397914,-0.159598,-0.116575,65
0.397823,-0.15955,-0.11572,62
0.39959,-0.160535,-0.11544,57
0.398029,-0.159668,-0.114133,55
0.397895,-0.159596,-0.113268,60
0.397505,-0.159381,-0.112327,64
0.398103,-0.159716,-0.111684,67
0.398704,-0.160053,-0.111039,66
0.397368,-0.159311,-0.109821,71
0.397923,-0.159623,-0.109164,73
0.399344,-0.160415,-0.108756,75
0.398565,-0.159984,-0.107708,72
0.399081,-0.160273,-0.107035,70
0.399816,-0.160684,-0.106422,68
0.399772,-0.160662,-0.105586,73
0.399338,-0.160423,-0.104643,73
0.399511,-0.160521,-0.10387,74
0.40064,-0.161151,-0.103361,74
0.400423,-0.161033,-0.102479,85
0.400772,-0.161229,-0.101752,79
0.401252,-0.161499,-0.101059,80
0.401036,-0.16138,-0.100179,82
0.401212,-0.161481,-0.0994048,82
0.402264,-0.162068,-0.0988597,77
0.401916,-0.161877,-0.0979463,82
0.401788,-0.161807,-0.0970916,86
0.402668,-0.162299,-0.0964958,86
0.402715,-0.162328,-0.0956856,89
0.403159,-0.162577,-0.0949753,90
0.403516,-0.162777,-0.094242,83
0.403697,-0.16288,-0.0934641,91
0.403746,-0.16291,-0.0926537,88
0.40437,-0.16326,-0.0919831,85
0.404155,-0.163142,-0.0911083,88
0.404382,-0.163271,-0.0903405,88
0.404433,-0.163301,-0.0895304,88
0.404573,-0.163381,-0.0887415,95
0.404536,-0.163363,-0.0879114,93
0.405076,-0.163665,-0.0872144,98
0.404907,-0.163573,-0.0863542,100
0.405671,-0.164001,-0.0857055,100
0.404969,-0.163612,-0.0847268,103
0.405779,-0.164065,-0.0840856,103
0.405789,-0.164072,-0.0832663,99
0.4062,-0.164304,-0.0825345,102
0.406613,-0.164535,-0.0818015,98
0.406445,-0.164444,-0.0809441,98
0.406412,-0.164428,-0.080116,93
0.406647,-0.164561,-0.0793444,103
0.407331,-0.164944,-0.0786645,103
0.407389,-0.164978,-0.0778545,104
0.406954,-0.164738,-0.0769455,108
0.407102,-0.164823,-0.0761549,107
0.407251,-0.164908,-0.0753642,106
0.407714,-0.165168,-0.0746346,104
0.406968,-0.164754,-0.0736701,99
0.40779,-0.165214,-0.0730084,107
0.408526,-0.165626,-0.0723272,108
0.407912,-0.165286,-0.0713918,115
0.4091,-0.16595,-0.0707914,106
0.407812,-0.165235,-0.0697351,110
0.408594,-0.165672,-0.0690575,113
0.408567,-0.16566,-0.068233,115
0.408947,-0.165873,-0.0674804,117
0.408831,-0.165811,-0.0666405,118
0.408941,-0.165874,-0.0658402,115
0.408735,-0.165762,-0.0649864,120
0.408891,-0.165851,-0.0641943,120
0.408867,-0.165839,-0.0633721,120
0.408619,-0.165703,-0.0625138,121
0.408731,-0.165768,-0.0617149,129
0.409159,-0.166008,-0.0609659,124
0.409363,-0.166124,-0.0601803,119
0.40916,-0.166013,-0.0593316,128
0.40923,-0.166054,-0.0585253,130
0.408713,-0.165768,-0.0576313,131
0.409414,-0.166161,-0.0569197,132
0.410754,-0.166909,-0.0562984,131
0.409556,-0.166244,-0.0553075,135
0.409763,-0.166362,-0.0545207,129
0.409881,-0.166429,-0.0537208,133
0.409682,-0.166321,-0.0528774,129
0.410072,-0.16654,-0.0521145,128
0.410146,-0.166583,-0.0513083,128
0.409858,-0.166425,-0.0504547,141
0.40921,-0.166066,-0.0495564,137
0.40942,-0.166185,-0.0487696,143
0.409947,-0.166481,-0.0480216,142
0.410749,-0.166929,-0.047305,138
0.41001,-0.16652,-0.0464004,138
0.409184,-0.166062,-0.0454891,143
0.41021,-0.166635,-0.0447957,139
0.409429,-0.166203,-0.0438931,144
0.409778,-0.166399,-0.0431199,137
0.409226,-0.166094,-0.0422469,143
0.409711,-0.166366,-0.0414877,138
0.409565,-0.166287,-0.0406604,145
0.409375,-0.166183,-0.0398294,147
0.410043,-0.166557,-0.0390858,147
0.409898,-0.166479,-0.0382595,150
0.409394,-0.1662,-0.0373993,148
0.409476,-0.166248,-0.0365968,148
0.409199,-0.166095,-0.0357609,154
0.409733,-0.166395,-0.0349996,153
0.409636,-0.166343,-0.0341807,155
0.409811,-0.166443,-0.0333857,159
0.410529,-0.166845,-0.0326356,155
0.40935,-0.16619,-0.0317278,152
0.409526,-0.16629,-0.0309329,152
0.409522,-0.16629,-0.0301235,158
0.409114,-0.166065,-0.0292838,160
0.409291,-0.166166,-0.0284889,162
0.40965,-0.166367,-0.0277062,158
0.409919,-0.166519,-0.0269159,166
0.409017,-0.166019,-0.0260465,163
0.410007,-0.166573,-0.0253034,167
0.409061,-0.166048,-0.0244352,162
0.408971,-0.166,-0.0236228,168
0.409422,-0.166253,-0.0228424,161
0.408839,-0.16593,-0.0220022,164
0.408617,-0.165809,-0.021184,166
0.408529,-0.165762,-0.0203739,168
0.408488,-0.165741,-0.0195666,174
0.408223,-0.165595,-0.0187489,172
0.407914,-0.165425,-0.0179304,168
0.406761,-0.164785,-0.0170766,171
0.406367,-0.164568,-0.0162591,171
0.406151,-0.16445,-0.0154504,173
0.406556,-0.164677,-0.0146658,175
0.405369,-0.164018,-0.0138238,168
0.404673,-0.163632,-0.013003,172
0.404549,-0.163565,-0.0122028,175
0.404469,-0.163523,-0.0114045,174
0.40356,-0.163018,-0.0105845,176
0.402568,-0.162468,-0.00976649,172
0.402231,-0.162282,-0.00896727,172
0.401851,-0.162072,-0.00816867,177
0.401516,-0.161888,-0.00737251,177
0.400152,-0.16113,-0.00656139,181
0.400506,-0.161329,-0.00577983,169
0.400775,-0.161481,-0.0049958,171
0.399759,-0.160917,-0.00419831,172
0.399004,-0.160498,-0.0034071,167
0.39889,-0.160436,-0.00262251,164
0.398903,-0.160446,-0.00183883,163
0.399428,-0.160741,-0.00105566,164
0.3994,-0.160727,-0.00027082,163
0.399885,-0.160999,0.000515508,162
0.399686,-0.16089,0.00130034,163
0.399959,-0.161044,0.0020878,163
0.400275,-0.161222,0.00287685,162
0.400549,-0.161377,0.00366679,161
0.400223,-0.161198,0.00444971,166
0.400713,-0.161473,0.00524417,164
0.401075,-0.161677,0.00603847,168
0.40131,-0.161809,0.00683178,164
0.400942,-0.161606,0.00761279,168
0.401134,-0.161715,0.0084059,159
0.401412,-0.161873,0.00920217,163
0.401908,-0.162151,0.0100059,162
0.40193,-0.162165,0.0107972,165
0.402081,-0.162252,0.011593,160
0.402798,-0.162653,0.0124092,160
0.403256,-0.16291,0.0132189,164
0.40341,-0.162998,0.0140188,169
0.403521,-0.163062,0.0148177,164
0.403023,-0.162787,0.0155907,164
0.403615,-0.163118,0.0164113,163
0.403815,-0.163232,0.0172159,163
0.405951,-0.164425,0.0181176,164
0.40536,-0.164097,0.0188872,161
0.405828,-0.164361,0.0197115,162
0.40568,-0.16428,0.0205034,164
0.405797,-0.164347,0.0213102,165
0.406268,-0.164612,0.0221391,164
0.406298,-0.16463,0.0229424,163
0.406283,-0.164625,0.0237433,161
0.407158,-0.165114,0.0246035,164
0.407189,-0.165134,0.0254095,162
0.40731,-0.165203,0.0262222,164
0.408908,-0.166096,0.0271435,163
0.408897,-0.166092,0.0279507,164
0.409155,-0.166238,0.028779,159
0.40964,-0.16651,0.0296265,163
0.409946,-0.166683,0.0304616,159
0.410434,-0.166957,0.0313135,158
0.411516,-0.167562,0.0322186,159
0.411963,-0.167814,0.0330727,159
0.413976,-0.168938,0.03407,159
0.412956,-0.168371,0.0347963,163
0.413363,-0.1686,0.0356531,160
0.413541,-0.168702,0.0364898,160
0.415294,-0.169681,0.0374829,159
0.414824,-0.169421,0.0382597,161
0.41631,-0.170252,0.0392359,159
0.415839,-0.169991,0.0400131,162
0.417334,-0.170827,0.0409994,161
0.417472,-0.170906,0.0418439,162
0.417989,-0.171196,0.0427314,164
0.418886,-0.171698,0.0436646,165
0.418837,-0.171674,0.0444925,161
0.419787,-0.172205,0.0454381,166
0.420551,-0.172633,0.0463658,163
0.420935,-0.17285,0.0472505,167
0.420744,-0.172746,0.0480659,163
0.420938,-0.172856,0.0489292,162
0.421132,-0.172966,0.0497938,168
0.422243,-0.173588,0.0507792,165
0.422972,-0.173996,0.0517191,164
0.42254,-0.173758,0.0525056,168
0.422014,-0.173467,0.0532776,166
0.422647,-0.173822,0.0542093,171
0.422073,-0.173504,0.0549732,177
0.422031,-0.173483,0.0558114,169
0.422715,-0.173866,0.0567555,175
0.423354,-0.174225,0.0576961,178
0.423071,-0.174069,0.0585016,177
0.422498,-0.173752,0.0592621,174
0.423089,-0.174083,0.0602001,178
0.422856,-0.173956,0.0610121,176
0.421657,-0.173289,0.0616702,175
0.42085,-0.172841,0.0623865,174
0.420765,-0.172796,0.0632173,175
0.420585,-0.172698,0.0640324,175
0.420693,-0.17276,0.0648954,177
0.419127,-0.171889,0.0654757,171
0.418379,-0.171475,0.0661899,167
0.418155,-0.171352,0.0669923,163
0.418596,-0.1716,0.067911,166
0.417899,-0.171213,0.0686294,167
0.417961,-0.17125,0.069482,167
0.417645,-0.171076,0.0702663,160
0.417377,-0.170929,0.0710585,159
0.417677,-0.171098,0.071956,160
0.417741,-0.171136,0.0728107,158
0.417616,-0.171069,0.07363,158
0.417539,-0.171028,0.0744585,156
0.417226,-0.170856,0.075241,153
0.417245,-0.170868,0.076088,155
0.417406,-0.17096,0.0769639,154
0.417426,-0.170973,0.0778125,158
0.417399,-0.17096,0.0786521,156
0.417467,-0.171001,0.0795116,152
0.417678,-0.17112,0.0804016,155
0.417368,-0.17095,0.0811834,152
0.417343,-0.170938,0.0820248,154
0.417224,-0.170874,0.0828464,154
0.417436,-0.170994,0.08374,153
0.417555,-0.171063,0.0846143,150
0.4172,-0.170867,0.0853849,146
0.417556,-0.171068,0.0863134,149
0.417629,-0.171111,0.0871799,149
0.418083,-0.171366,0.0881341,145
0.417254,-0.170906,0.0887957,146
0.417566,-0.171082,0.0897189,152
0.417736,-0.171179,0.0906109,148
0.418049,-0.171356,0.0915381,152
0.418268,-0.17148,0.0924446,152
0.41744,-0.171021,0.0931003,147
0.41766,-0.171145,0.0940076,149
0.417832,-0.171244,0.0949048,149
0.418339,-0.171529,0.0958863,148
0.41756,-0.171097,0.0965491,145
0.418163,-0.171435,0.0975574,146
0.418625,-0.171695,0.0985331,148
0.418514,-0.171635,0.0993644,149
0.418499,-0.171629,0.100221,151
0.418868,-0.171837,0.101177,146
0.418567,-0.171671,0.10196,151
0.419273,-0.172068,0.103009,154
0.419693,-0.172304,0.103986,154
0.419296,-0.172085,0.104744,153
0.419188,-0.172027,0.10558,162
0.41884,-0.171835,0.10635,157
0.419165,-0.172019,0.107305,160
0.41954,-0.17223,0.108277,161
0.419578,-0.172253,0.109155,162
0.419279,-0.172089,0.10994,165
0.418933,-0.171898,0.11071,162
0.418973,-0.171923,0.11159,164
0.418197,-0.171492,0.112234,156
0.418428,-0.171623,0.11317,163
0.418373,-0.171595,0.114023,159
0.417743,-0.171245,0.114706,167
0.418359,-0.171591,0.115759,169
0.417778,-0.171269,0.116456,173
0.41878,-0.171831,0.11763,172
0.416764,-0.170708,0.117888,172
0.41633,-0.170468,0.118624,172
0.416088,-0.170335,0.119418,176
0.415894,-0.170229,0.120226,164
0.414612,-0.169516,0.120693,165
0.415175,-0.169833,0.121739,163
0.415219,-0.169859,0.122622,157
0.415311,-0.169913,0.123521,155
0.414128,-0.169255,0.12401,154
0.414173,-0.169282,0.124893,149
0.413982,-0.169178,0.1257,148
0.413839,-0.169101,0.126523,149
0.41365,-0.168997,0.12733,145
0.414167,-0.169288,0.128373,149
0.413931,-0.169159,0.129166,147
0.413554,-0.168951,0.129911,141
0.413979,-0.16919,0.130927,151
0.415304,-0.169932,0.132256,145
0.413698,-0.169037,0.132579,152
0.414738,-0.16962,0.133815,148
0.41422,-0.169333,0.134512,149
0.414364,-0.169416,0.13544,145
0.414084,-0.169262,0.136218,147
0.41456,-0.16953,0.137267,142
0.414185,-0.169323,0.138012,143
0.414568,-0.169539,0.139031,145
0.414383,-0.169438,0.139845,148
0.414435,-0.169469,0.140746,140
0.414867,-0.169713,0.141788,140
0.414636,-0.169586,0.142586,137
0.414594,-0.169565,0.143456,141
0.414696,-0.169624,0.144379,136
0.414465,-0.169497,0.145178,139
0.415329,-0.169982,0.146393,139
0.414813,-0.169696,0.147085,142
0.415918,-0.170316,0.148399,139
0.415306,-0.169976,0.149054,136
0.416224,-0.170491,0.150303,132
0.416042,-0.170391,0.151126,137
0.415764,-0.170239,0.151911,132
0.415535,-0.170113,0.152715,127
0.41545,-0.170068,0.153576,127
0.416372,-0.170585,0.154841,125
0.416143,-0.17046,0.155648,129
0.416636,-0.170737,0.156746,134
0.417228,-0.17107,0.157888,135
0.417192,-0.171052,0.158776,134
0.416867,-0.170873,0.159546,125
0.41819,-0.171614,0.160998,124
0.417912,-0.171461,0.16179,123
0.41783,-0.171418,0.162663,122
0.418136,-0.171591,0.163701,119
0.418493,-0.171793,0.164761,118
0.418851,-0.171995,0.165825,117
0.418916,-0.172034,0.166767,125
0.418982,-0.172073,0.167709,127
0.419637,-0.172441,0.168908,123
0.419704,-0.17248,0.169854,118
0.420362,-0.172851,0.171061,120
0.419446,-0.172341,0.171579,117
0.420006,-0.172656,0.172746,119
0.419779,-0.172532,0.173567,115
0.420292,-0.172821,0.174719,118
0.420263,-0.172807,0.17563,121
0.42058,-0.172987,0.176698,120
0.420948,-0.173194,0.177792,114
0.421218,-0.173348,0.178843,113
0.422287,-0.173947,0.180263,111
0.42251,-0.174074,0.181299,117
0.420987,-0.173226,0.181529,118
0.42106,-0.173269,0.182495,116
0.421781,-0.173674,0.183765,119
0.421108,-0.1733,0.184384,114
0.42173,-0.17365,0.185613,110
0.421206,-0.17336,0.186302,108
0.421231,-0.173377,0.187251,96
0.421207,-0.173365,0.188177,110
0.421432,-0.173494,0.189224,106
0.42261,-0.174154,0.190736,113
0.422186,-0.173919,0.191473,113
0.422766,-0.174246,0.192701,109
0.422743,-0.174236,0.193636,105
0.423326,-0.174564,0.194871,102
0.42275,-0.174244,0.195534,101
0.422376,-0.174038,0.196297,99
0.422204,-0.173944,0.19716,101
0.422384,-0.174047,0.1982,106
0.422363,-0.174038,0.199141,103
0.42174,-0.173692,0.199776,109
0.422172,-0.173936,0.200948,139
0.422102,-0.1739,0.201866,104
0.422133,-0.17392,0.202836,110
0.42126,-0.173434,0.203339,105
0.402031,-0.157816,-0.204254,11
0.40204,-0.157823,-0.203351,12
0.402093,-0.157854,-0.202473,15
0.403693,-0.15873,-0.202422,14
0.405628,-0.159788,-0.202543,12
0.407722,-0.160932,-0.20274,17
0.404817,-0.15935,-0.200291,15
0.402502,-0.158089,-0.198166,16
0.403465,-0.158617,-0.197767,15
0.403885,-0.158848,-0.197081,18
0.404169,-0.159006,-0.196324,14
0.40268,-0.158195,-0.194652,14
0.403189,-0.158475,-0.194015,20
0.403064,-0.15841,-0.193051,19
0.402036,-0.157851,-0.19163,16
0.403541,-0.158675,-0.191496,15
0.401566,-0.157599,-0.189603,16
0.403293,-0.158544,-0.189577,18
0.403306,-0.158553,-0.188688,13
0.402776,-0.158266,-0.18753,15
0.404558,-0.159241,-0.187518,13
0.404845,-0.1594,-0.186763,20
0.404311,-0.159111,-0.185606,19
0.403916,-0.158898,-0.18452,16
0.404703,-0.159329,-0.18401,16
0.404717,-0.159339,-0.183123,21
0.403235,-0.158533,-0.181519,25
0.404837,-0.159409,-0.181397,17
0.402455,-0.158111,-0.179373,21
0.405095,-0.159555,-0.179739,23
0.404111,-0.15902,-0.178385,26
0.404489,-0.159229,-0.177676,24
0.40537,-0.159712,-0.1772,24
0.403707,-0.158806,-0.175541,20
0.407326,-0.160784,-0.176328,21
0.406424,-0.160294,-0.175023,21
0.40805,-0.161184,-0.174878,23
0.405453,-0.159768,-0.172806,21
0.406979,-0.160604,-0.172612,22
0.408193,-0.161269,-0.172272,19
0.405917,-0.160028,-0.170364,27
0.405298,-0.159693,-0.169205,28
0.406227,-0.160202,-0.168737,24
0.407988,-0.161166,-0.168631,30
0.406813,-0.160527,-0.16723,30
0.40775,-0.16104,-0.166757,28
0.409617,-0.162062,-0.166684,27
0.408572,-0.161493,-0.165346,28
0.41012,-0.162341,-0.165128,34
0.40737,-0.160842,-0.163067,35
0.409001,-0.161735,-0.162881,27
0.408976,-0.161723,-0.161988,33
0.410154,-0.162369,-0.161602,32
0.408879,-0.161675,-0.160185,33
0.40867,-0.161563,-0.159219,26
0.409708,-0.162132,-0.158769,31
0.408668,-0.161567,-0.157462,32
0.410448,-0.162541,-0.157313,33
0.410331,-0.162479,-0.156385,42
0.410633,-0.162646,-0.155628,37
0.412196,-0.163502,-0.155376,41
0.410865,-0.162777,-0.153963,40
0.412758,-0.163813,-0.153837,37
0.411892,-0.163342,-0.152613,43
0.41215,-0.163486,-0.151835,39
0.412362,-0.163603,-0.151039,41
0.412527,-0.163696,-0.150224,43
0.413491,-0.164225,-0.149718,41
0.411876,-0.163345,-0.148219,42
0.411855,-0.163336,-0.147335,35
0.411323,-0.163047,-0.146259,39
0.410746,-0.162735,-0.145168,44
0.410634,-0.162676,-0.144256,41
0.410384,-0.162541,-0.143293,42
0.409627,-0.162131,-0.142144,42
0.408691,-0.161622,-0.140934,38
0.408171,-0.16134,-0.13988,42
0.409116,-0.161858,-0.139362,44
0.406322,-0.160335,-0.13749,46
0.407031,-0.160724,-0.136889,43
0.406563,-0.160471,-0.135865,45
0.405512,-0.159899,-0.134637,46
0.404422,-0.159306,-0.133402,49
0.403518,-0.158814,-0.132236,50
0.405157,-0.159712,-0.13196,50
0.402032,-0.158007,-0.130032,53
0.402595,-0.158317,-0.129383,48
0.401526,-0.157735,-0.128176,49
0.401252,-0.157588,-0.127244,53
0.40028,-0.157059,-0.126079,53
0.399791,-0.156794,-0.125081,50
0.399261,-0.156507,-0.124071,60
0.398474,-0.156079,-0.12298,56
0.39851,-0.156101,-0.122163,58
0.399064,-0.156406,-0.121514,60
0.399707,-0.156759,-0.120892,62
0.399136,-0.156449,-0.119879,60
0.399997,-0.156922,-0.119324,62
0.398951,-0.156352,-0.118164,59
0.401161,-0.157562,-0.118031,59
0.399632,-0.156728,-0.116723,60
0.399193,-0.156491,-0.11576,59
0.400708,-0.15732,-0.1154,57
0.399227,-0.156514,-0.11412,62
0.399093,-0.156443,-0.113255,59
0.400042,-0.156963,-0.112717,53
0.399995,-0.15694,-0.111878,59
0.400078,-0.156987,-0.111078,66
0.400814,-0.157391,-0.11047,67
0.400812,-0.157392,-0.109644,72
0.401071,-0.157536,-0.108895,76
0.401287,-0.157656,-0.108133,71
0.401198,-0.157609,-0.107283,67
0.401066,-0.157539,-0.106422,72
0.401501,-0.157779,-0.105721,78
0.402244,-0.158187,-0.105105,80
0.402024,-0.158069,-0.10422,84
0.40255,-0.158359,-0.103541,81
0.403386,-0.158817,-0.102944,74
0.403386,-0.15882,-0.102119,81
0.403607,-0.158943,-0.101354,83
0.404006,-0.159163,-0.100635,82
0.404627,-0.159504,-0.0999736,79
0.403568,-0.158928,-0.0988712,78
0.404631,-0.15951,-0.0983235,81
0.404944,-0.159684,-0.0975792,81
0.405658,-0.160076,-0.0969361,88
0.40535,-0.15991,-0.0960323,86
0.405665,-0.160084,-0.0952863,85
0.405714,-0.160113,-0.0944734,86
0.406343,-0.160458,-0.0938034,86
0.406437,-0.160512,-0.0930009,83
0.406442,-0.160517,-0.092177,84
0.406269,-0.160425,-0.0913108,95
0.406946,-0.160796,-0.0906475,91
0.407266,-0.160973,-0.0898979,94
0.407362,-0.161028,-0.0890953,97
0.407639,-0.161181,-0.0883343,95
0.407288,-0.160992,-0.087429,93
0.408284,-0.161538,-0.086831,98
0.407843,-0.161299,-0.0859066,99
0.408662,-0.161749,-0.0852646,97
0.408581,-0.161707,-0.0844215,101
0.408817,-0.161838,-0.0836481,104
0.408917,-0.161895,-0.082845,102
0.408522,-0.161681,-0.081936,97
0.409391,-0.162158,-0.0812965,93
0.408996,-0.161944,-0.080389,95
0.409053,-0.161977,-0.0795775,101
0.409834,-0.162406,-0.0789145,104
0.410255,-0.162639,-0.0781756,106
0.410359,-0.162698,-0.0773716,103
0.409693,-0.162335,-0.0764146,104
0.410115,-0.162568,-0.0756747,107
0.409767,-0.16238,-0.0747838,106
0.410099,-0.162564,-0.0740254,108
0.41066,-0.162872,-0.0733094,108
0.410222,-0.162635,-0.0724038,108
0.41051,-0.162795,-0.0716354,110
0.410391,-0.162732,-0.0707914,108
0.410727,-0.162917,-0.0700306,113
0.411154,-0.163153,-0.0692853,114
0.411127,-0.16314,-0.068458,110
0.411465,-0.163327,-0.0676951,113
0.411347,-0.163265,-0.0668524,119
0.411094,-0.163129,-0.0659874,118
0.411935,-0.163591,-0.0653083,119
0.411408,-0.163305,-0.0643983,121
0.411703,-0.163468,-0.0636259,115
0.411132,-0.163158,-0.0627123,122
0.411519,-0.163371,-0.0619545,124
0.411815,-0.163536,-0.0611813,122
0.411382,-0.163301,-0.0602935,123
0.411315,-0.163266,-0.0594641,123
0.411066,-0.163132,-0.0586078,132
0.410909,-0.163049,-0.0577665,128
0.411662,-0.163462,-0.0570602,128
0.411141,-0.16318,-0.0561663,127
0.411395,-0.16332,-0.0553855,132
0.411376,-0.163312,-0.0545655,129
0.411084,-0.163155,-0.0537082,134
0.410885,-0.163048,-0.052865,137
0.41114,-0.16319,-0.052084,133
0.411441,-0.163357,-0.0513083,140
0.411698,-0.163499,-0.0505257,136
0.411363,-0.163318,-0.0496667,136
0.411576,-0.163436,-0.0488782,143
0.411379,-0.163331,-0.0480384,138
0.411319,-0.1633,-0.0472164,141
0.411396,-0.163344,-0.0464113,140
0.4112,-0.163239,-0.0455741,141
0.411506,-0.163408,-0.0447957,141
0.411084,-0.16318,-0.0439341,145
0.411436,-0.163374,-0.0431602,149
0.411334,-0.163321,-0.0423357,152
0.412279,-0.16384,-0.0416237,143
0.411949,-0.163661,-0.0407745,144
0.412213,-0.163808,-0.0399877,147
0.411384,-0.163356,-0.0390904,150
0.411875,-0.163627,-0.0383265,151
0.412186,-0.163799,-0.0375434,155
0.411996,-0.163697,-0.036712,152
0.411715,-0.163546,-0.0358734,152
0.41189,-0.163644,-0.0350771,151
0.412431,-0.163942,-0.0343122,161
0.41206,-0.163741,-0.0334673,161
0.411509,-0.163441,-0.0326091,156
0.411913,-0.163665,-0.0318311,158
0.411137,-0.163242,-0.030958,156
0.411587,-0.16349,-0.0301829,157
0.411084,-0.163218,-0.0293347,161
0.411672,-0.163541,-0.0285681,160
0.411806,-0.163616,-0.0277672,163
0.41135,-0.163369,-0.0269253,160
0.411939,-0.163694,-0.026155,166
0.411439,-0.163422,-0.0253122,170
0.411984,-0.163722,-0.0245368,166
0.411212,-0.163302,-0.0236799,165
0.411485,-0.163454,-0.0228871,166
0.411441,-0.163432,-0.0220756,164
0.410538,-0.16294,-0.021218,169
0.411128,-0.163265,-0.0204417,170
0.409822,-0.162552,-0.0195688,171
0.409376,-0.16231,-0.0187425,173
0.409066,-0.162143,-0.0179243,170
0.407864,-0.161488,-0.0170689,167
0.408583,-0.161883,-0.0162977,172
0.406987,-0.161012,-0.0154331,173
0.406816,-0.160921,-0.014628,170
0.406336,-0.16066,-0.013813,170
0.406254,-0.160618,-0.0130131,172
0.405645,-0.160287,-0.0121974,169
0.405741,-0.160341,-0.0114045,168
0.405442,-0.160179,-0.0106007,171
0.404224,-0.159516,-0.00977603,180
0.403363,-0.159046,-0.00896437,175
0.402938,-0.158816,-0.00816518,177
0.402775,-0.158729,-0.00737251,179
0.402138,-0.158382,-0.00657301,173
0.401116,-0.157826,-0.00577095,173
0.402031,-0.158328,-0.0049958,173
0.400155,-0.157304,-0.00419014,177
0.399698,-0.157056,-0.00340297,171
0.400009,-0.157229,-0.00262183,165
0.400151,-0.157308,-0.00183883,163
0.400037,-0.157248,-0.00105494,167
0.399923,-0.157188,-0.000271535,166
0.399981,-0.157221,0.000511936,161
0.400295,-0.157395,0.001297,160
0.400397,-0.157453,0.00208185,163
0.400799,-0.157674,0.00286998,159
0.401116,-0.15785,0.00365886,164
0.400833,-0.157697,0.00444093,163
0.401323,-0.157967,0.00523401,164
0.401772,-0.158215,0.00602846,164
0.401705,-0.15818,0.00681455,159
0.401681,-0.158169,0.00760138,162
0.402046,-0.158371,0.00839755,164
0.402239,-0.158478,0.0091908,164
0.402433,-0.158587,0.00998496,164
0.402152,-0.158435,0.0107655,166
0.403735,-0.159303,0.0116058,161
0.403801,-0.159341,0.0124001,163
0.403868,-0.15938,0.0131948,166
0.404328,-0.159633,0.0140052,166
0.403741,-0.159314,0.0147747,167
0.404639,-0.159808,0.0156058,167
0.404796,-0.159896,0.0164073,163
0.40526,-0.160152,0.0172242,164
0.404935,-0.159976,0.018004,167
0.404918,-0.159969,0.0187985,160
0.405516,-0.160298,0.0196261,164
0.405764,-0.160436,0.0204368,161
0.407075,-0.161155,0.0213102,162
0.406882,-0.161052,0.0220991,162
0.407001,-0.161118,0.0229066,159
0.406809,-0.161016,0.0236948,163
0.407506,-0.161399,0.0245413,162
0.407804,-0.161564,0.0253636,154
0.408327,-0.161852,0.0262032,161
0.408627,-0.162019,0.0270291,162
0.409378,-0.162432,0.02789,161
0.410222,-0.162896,0.0287616,160
0.410121,-0.162843,0.0295621,161
0.410292,-0.162938,0.0303844,162
0.410553,-0.163083,0.0312152,159
0.412453,-0.164125,0.0321873,157
0.412536,-0.164172,0.0330085,161
0.412254,-0.16402,0.0337976,155
0.412749,-0.164293,0.034657,161
0.413936,-0.164944,0.0355838,158
0.413929,-0.164943,0.0364011,158
0.414569,-0.165295,0.0372821,158
0.414749,-0.165396,0.0381199,160
0.414698,-0.16537,0.0389351,159
0.415947,-0.166056,0.0398861,159
0.415804,-0.165979,0.0406942,159
0.417342,-0.166823,0.041685,154
0.417527,-0.166927,0.0425324,153
0.417103,-0.166697,0.043312,159
0.418371,-0.167393,0.044285,160
0.418985,-0.167731,0.0451868,162
0.419316,-0.167915,0.0460578,162
0.419839,-0.168203,0.0469538,162
0.420126,-0.168362,0.047823,162
0.420939,-0.168809,0.04876,161
0.4219,-0.169337,0.0497198,169
0.421855,-0.169315,0.050553,171
0.422051,-0.169424,0.0514181,164
0.421862,-0.169323,0.0522328,170
0.422638,-0.16975,0.0531786,168
0.422546,-0.169702,0.0540078,169
0.422697,-0.169786,0.054871,165
0.423042,-0.169977,0.0557629,172
0.423533,-0.170249,0.0566779,172
0.424124,-0.170574,0.05761,179
0.424132,-0.170581,0.0584579,175
0.42458,-0.170828,0.0593728,178
0.423324,-0.170143,0.0600282,177
0.422705,-0.169806,0.0607777,176
0.42257,-0.169734,0.0616014,177
0.422968,-0.169954,0.0625102,171
0.423076,-0.170015,0.0633741,177
0.423088,-0.170024,0.0642231,181
0.422423,-0.169662,0.0649597,175
0.421375,-0.169091,0.0656293,178
0.420812,-0.168785,0.0663776,174
0.420013,-0.16835,0.067083,170
0.419979,-0.168333,0.0679194,160
0.421287,-0.169051,0.0689938,167
0.419531,-0.168093,0.0695247,164
0.419451,-0.168051,0.0703527,163
0.419467,-0.168062,0.0711983,158
0.41915,-0.16789,0.0719826,157
0.418977,-0.167798,0.0727928,161
0.419375,-0.168018,0.0737115,164
0.419107,-0.167873,0.0745042,160
0.419221,-0.167938,0.0753704,166
0.419812,-0.168264,0.0763314,160
0.41945,-0.168068,0.0771059,162
0.419661,-0.168185,0.0779944,155
0.419538,-0.16812,0.0788165,159
0.419607,-0.16816,0.0796779,157
0.419581,-0.168148,0.0805203,155
0.419603,-0.168162,0.0813731,158
0.419626,-0.168177,0.0822267,157
0.419362,-0.168035,0.0830196,154
0.419243,-0.167971,0.0838429,157
0.419076,-0.167882,0.0846559,155
0.418672,-0.167663,0.0854163,161
0.419364,-0.168045,0.0864196,158
0.419342,-0.168035,0.0872658,163
0.418796,-0.167738,0.0879933,153
0.418965,-0.167832,0.088883,156
0.419135,-0.167928,0.0897741,152
0.419832,-0.168312,0.0907896,150
0.419717,-0.168251,0.091617,150
0.420129,-0.168479,0.0925701,157
0.419823,-0.168313,0.0933528,149
0.419804,-0.168305,0.0942046,148
0.420219,-0.168535,0.0951626,150
0.420394,-0.168633,0.0960639,152
0.420329,-0.168599,0.0969069,155
0.420602,-0.168751,0.0978348,154
0.420972,-0.168956,0.0987891,154
0.420667,-0.168791,0.0995733,156
0.420653,-0.168785,0.100431,157
0.420542,-0.168727,0.101265,155
0.420239,-0.168563,0.102048,163
0.420611,-0.168769,0.103009,164
0.421227,-0.169109,0.104037,160
0.420924,-0.168945,0.104822,164
0.422076,-0.169578,0.106,160
0.420901,-0.168937,0.106548,163
0.421811,-0.169438,0.107665,160
0.420396,-0.168665,0.108142,167
0.420386,-0.168662,0.109007,162
0.419846,-0.168368,0.109722,166
0.41974,-0.168312,0.110559,164
0.419972,-0.168442,0.111493,168
0.419194,-0.168018,0.112137,159
0.419186,-0.168015,0.113002,165
0.419371,-0.168119,0.113924,161
0.418883,-0.167854,0.11465,172
0.418828,-0.167826,0.115502,167
0.418774,-0.167799,0.116355,167
0.41848,-0.16764,0.117136,163
0.417996,-0.167377,0.117858,171
0.41823,-0.167508,0.118799,166
0.417365,-0.167036,0.119403,170
0.41698,-0.166827,0.120152,168
0.415789,-0.166177,0.120649,165
0.41536,-0.165944,0.121381,165
0.414837,-0.16566,0.122081,162
0.414316,-0.165377,0.122781,157
0.414031,-0.165223,0.123555,152
0.414451,-0.165455,0.124557,151
0.414449,-0.165456,0.125423,154
0.414447,-0.165458,0.12629,149
0.414352,-0.165407,0.127127,150
0.414539,-0.165512,0.128059,147
0.413411,-0.164896,0.128551,145
0.413879,-0.165155,0.129577,144
0.414491,-0.165493,0.130655,146
0.414398,-0.165444,0.131495,144
0.414163,-0.165318,0.132287,150
0.413882,-0.165166,0.133062,146
0.41426,-0.165375,0.134067,150
0.414498,-0.165508,0.135024,148
0.414029,-0.165253,0.135734,142
0.414032,-0.165257,0.136611,137
0.414649,-0.165597,0.137707,142
0.414747,-0.165653,0.138621,138
0.414846,-0.16571,0.139536,141
0.415135,-0.165871,0.140521,142
0.414524,-0.165538,0.141178,143
0.415431,-0.166037,0.142393,139
0.414962,-0.165782,0.143103,142
0.414826,-0.16571,0.143935,141
0.415117,-0.165872,0.144928,133
0.416077,-0.1664,0.146176,139
0.415751,-0.166224,0.14694,141
0.415854,-0.166282,0.147867,137
0.415719,-0.166211,0.148704,140
0.416014,-0.166375,0.149708,128
0.416263,-0.166513,0.150696,138
0.416512,-0.166652,0.151685,135
0.416234,-0.166502,0.15247,141
0.416388,-0.166589,0.153424,139
0.416783,-0.166808,0.154476,142
0.417324,-0.167107,0.15559,136
0.417095,-0.166983,0.156396,131
0.417059,-0.166966,0.15728,125
0.416927,-0.166896,0.158126,131
0.417229,-0.167064,0.15915,127
0.418404,-0.16771,0.160536,128
0.418079,-0.167534,0.161306,125
0.417657,-0.167305,0.162035,115
0.418788,-0.167927,0.163414,119
0.417637,-0.167299,0.163837,125
0.419063,-0.168083,0.165348,124
0.419568,-0.168362,0.166474,122
0.419585,-0.168373,0.167394,117
0.419308,-0.168224,0.168188,116
0.419178,-0.168155,0.169046,118
0.420374,-0.168813,0.17048,123
0.419999,-0.16861,0.171234,123
0.420707,-0.169,0.172464,126
0.421567,-0.169474,0.173764,123
0.420598,-0.168945,0.174257,129
0.420864,-0.169094,0.175298,119
0.421132,-0.169243,0.176341,119
0.421798,-0.16961,0.177567,115
0.421026,-0.169189,0.178143,118
0.423189,-0.170378,0.180057,110
0.421814,-0.169626,0.180359,108
0.421787,-0.169614,0.181276,106
0.422508,-0.170011,0.182541,115
0.422033,-0.169753,0.183253,113
0.422206,-0.169851,0.184267,113
0.42243,-0.169976,0.185307,121
0.422405,-0.169964,0.186231,110
0.42278,-0.170173,0.187346,103
0.422455,-0.169997,0.188129,105
0.422581,-0.170068,0.189128,103
0.422257,-0.169893,0.189911,102
0.422483,-0.17002,0.190961,91
0.42402,-0.170864,0.192651,93
0.422287,-0.169917,0.192749,103
0.423269,-0.170458,0.194175,112
0.422794,-0.1702,0.194886,101
0.42212,-0.169832,0.195497,105
0.423204,-0.170429,0.196983,105
0.421826,-0.169676,0.197241,109
0.422658,-0.170135,0.198607,104
0.421734,-0.169631,0.199089,114
0.421614,-0.169567,0.199976,132
0.423001,-0.17033,0.201633,100
0.422326,-0.169963,0.20224,104
0.422508,-0.170065,0.203287,105
0.404628,-0.155387,-0.204993,9
0.406154,-0.156206,-0.204902,8
0.409233,-0.157857,-0.205635,10
0.406215,-0.156244,-0.203108,12
0.409622,-0.15807,-0.204002,12
0.405082,-0.155642,-0.200687,12
0.405964,-0.156116,-0.200242,10
0.405284,-0.155754,-0.198978,13
0.406029,-0.156155,-0.198459,18
0.406407,-0.15636,-0.197748,14
0.407897,-0.157161,-0.19761,16
0.405324,-0.155785,-0.195379,20
0.403694,-0.154914,-0.193643,19
0.405529,-0.1559,-0.193679,17
0.403354,-0.154737,-0.191676,16
0.405049,-0.155647,-0.191634,16
0.404787,-0.155509,-0.190604,17
0.407,-0.156696,-0.190812,12
0.405085,-0.155673,-0.188959,16
0.405418,-0.155854,-0.188228,12
0.406392,-0.156378,-0.187812,17
0.406635,-0.15651,-0.187033,20
0.40697,-0.156692,-0.186299,19
0.406662,-0.156529,-0.185253,16
0.403759,-0.154977,-0.182955,20
0.406919,-0.156672,-0.183586,18
0.403022,-0.154587,-0.180828,15
0.406535,-0.15647,-0.181615,17
0.407837,-0.15717,-0.18134,14
0.405195,-0.155757,-0.179201,16
0.405803,-0.156085,-0.178599,22
0.405545,-0.155949,-0.177591,23
0.407898,-0.157212,-0.177797,19
0.406674,-0.156558,-0.176341,21
0.405868,-0.156129,-0.175083,22
0.405157,-0.155751,-0.173873,19
0.405493,-0.155933,-0.173144,23
0.406011,-0.156212,-0.172496,25
0.407676,-0.157107,-0.172364,21
0.405774,-0.15609,-0.170626,27
0.407574,-0.157056,-0.170548,22
0.406859,-0.156676,-0.169347,25
0.406193,-0.156322,-0.168172,22
0.406988,-0.15675,-0.167642,31
0.408062,-0.157327,-0.16723,27
0.408449,-0.157537,-0.166517,33
0.407184,-0.156861,-0.165089,25
0.409457,-0.158081,-0.165187,26
0.407316,-0.156936,-0.163389,35
0.406971,-0.156754,-0.162366,30
0.410259,-0.158518,-0.162881,32
0.409169,-0.157936,-0.16154,29
0.409652,-0.158197,-0.160863,39
0.409581,-0.158161,-0.159954,31
0.410297,-0.158547,-0.159372,34
0.408245,-0.15745,-0.157649,37
0.409693,-0.158228,-0.157368,35
0.409808,-0.158292,-0.156538,35
0.410943,-0.158902,-0.156121,36
0.411245,-0.159066,-0.155365,33
0.410294,-0.158559,-0.154107,39
0.410457,-0.158648,-0.153297,36
0.411037,-0.158962,-0.152652,36
0.410505,-0.158679,-0.151568,38
0.410438,-0.158645,-0.150668,37
0.411576,-0.159257,-0.150239,41
0.410211,-0.158528,-0.148837,37
0.41172,-0.159339,-0.148546,38
0.410818,-0.158857,-0.147329,46
0.410566,-0.158725,-0.146363,41
0.410685,-0.158791,-0.145539,38
0.409882,-0.158363,-0.144369,41
0.409496,-0.158158,-0.143359,44
0.408974,-0.15788,-0.142301,42
0.409231,-0.15802,-0.141534,38
