ply
format ascii 1.0
comment VCGLIB generated
element vertex 1303
property float x
property float y
property float z
property float nx
property float ny
property float nz
element face 0
property list uchar int vertex_indices
end_header
0.433164 -0.024653 -0.425726 0 0 0 
0.43309 -0.0246399 -0.424906 0 0 0 
0.431964 -0.0244397 -0.42412 0 0 0 
0.433207 -0.0246609 -0.423257 0 0 0 
0.432397 -0.0245169 -0.422463 0 0 0 
0.432483 -0.0245323 -0.421638 0 0 0 
0.432886 -0.024604 -0.4208 0 0 0 
0.432869 -0.024601 -0.419978 0 0 0 
0.432693 -0.0245699 -0.419163 0 0 0 
0.431941 -0.0244361 -0.418375 0 0 0 
0.432293 -0.0244988 -0.417537 0 0 0 
0.432225 -0.0244867 -0.416718 0 0 0 
0.432052 -0.0244562 -0.415905 0 0 0 
0.431933 -0.0244351 -0.41509 0 0 0 
0.432077 -0.0244608 -0.41426 0 0 0 
0.431855 -0.0244213 -0.413451 0 0 0 
0.431318 -0.0243259 -0.41266 0 0 0 
0.430993 -0.024268 -0.411859 0 0 0 
0.430982 -0.0242662 -0.411039 0 0 0 
0.430241 -0.0241344 -0.410266 0 0 0 
0.42857 -0.0238374 -0.409558 0 0 0 
0.427427 -0.0236339 -0.408819 0 0 0 
0.427264 -0.023605 -0.408016 0 0 0 
0.427204 -0.0235946 -0.407206 0 0 0 
0.427351 -0.0236207 -0.406381 0 0 0 
0.42719 -0.0235921 -0.405578 0 0 0 
0.426158 -0.0234087 -0.404843 0 0 0 
0.425897 -0.0233623 -0.404051 0 0 0 
0.42533 -0.0232616 -0.403284 0 0 0 
0.425836 -0.0233516 -0.40243 0 0 0 
0.426292 -0.0234328 -0.401578 0 0 0 
0.426391 -0.0234504 -0.400756 0 0 0 
0.426439 -0.0234592 -0.399937 0 0 0 
0.427001 -0.0235591 -0.399071 0 0 0 
0.426948 -0.0235498 -0.398259 0 0 0 
0.426588 -0.0234857 -0.397477 0 0 0 
0.426433 -0.0234584 -0.396676 0 0 0 
0.426485 -0.0234676 -0.395855 0 0 0 
0.426947 -0.02355 -0.394993 0 0 0 
0.427 -0.0235594 -0.39417 0 0 0 
0.427465 -0.0236422 -0.393304 0 0 0 
0.426541 -0.023478 -0.392583 0 0 0 
0.426596 -0.0234877 -0.39176 0 0 0 
0.427165 -0.023589 -0.39088 0 0 0 
0.427169 -0.0235898 -0.39006 0 0 0 
0.427329 -0.0236182 -0.389223 0 0 0 
0.427179 -0.0235917 -0.38842 0 0 0 
0.427546 -0.023657 -0.387557 0 0 0 
0.427449 -0.0236398 -0.386748 0 0 0 
0.427972 -0.0237331 -0.385863 0 0 0 
0.42798 -0.0237344 -0.38504 0 0 0 
0.42804 -0.0237452 -0.38421 0 0 0 
0.4281 -0.0237561 -0.383379 0 0 0 
0.429512 -0.0240071 -0.382374 0 0 0 
0.428068 -0.0237504 -0.381736 0 0 0 
0.429273 -0.0239648 -0.380752 0 0 0 
0.428868 -0.0238928 -0.37998 0 0 0 
0.430601 -0.0242013 -0.378917 0 0 0 
0.43051 -0.0241849 -0.3781 0 0 0 
0.430628 -0.024206 -0.377253 0 0 0 
0.431009 -0.0242739 -0.376368 0 0 0 
0.430866 -0.0242485 -0.375557 0 0 0 
0.430462 -0.0241767 -0.374784 0 0 0 
0.431159 -0.0243009 -0.37385 0 0 0 
0.430913 -0.0242571 -0.373053 0 0 0 
0.43135 -0.024335 -0.372154 0 0 0 
0.431367 -0.0243382 -0.371317 0 0 0 
0.431913 -0.0244352 -0.370397 0 0 0 
0.432143 -0.0244762 -0.369525 0 0 0 
0.432745 -0.0245834 -0.368592 0 0 0 
0.432447 -0.0245305 -0.367802 0 0 0 
0.432998 -0.0246284 -0.366874 0 0 0 
0.43419 -0.0248406 -0.365837 0 0 0 
0.434159 -0.0248352 -0.365 0 0 0 
0.43445 -0.0248869 -0.364108 0 0 0 
0.434366 -0.0248721 -0.363278 0 0 0 
0.434283 -0.0248575 -0.362448 0 0 0 
0.434736 -0.024938 -0.361525 0 0 0 
0.435136 -0.0250093 -0.360608 0 0 0 
0.436886 -0.0253207 -0.359449 0 0 0 
0.437184 -0.0253738 -0.358544 0 0 0 
0.436508 -0.0252537 -0.357816 0 0 0 
0.436051 -0.0251724 -0.35705 0 0 0 
0.436836 -0.025312 -0.356053 0 0 0 
0.437082 -0.0253558 -0.355154 0 0 0 
0.437981 -0.0255159 -0.35413 0 0 0 
0.438012 -0.0255214 -0.353268 0 0 0 
0.437881 -0.0254981 -0.352438 0 0 0 
0.438348 -0.0255814 -0.35149 0 0 0 
0.438054 -0.0255291 -0.35069 0 0 0 
0.438196 -0.0255545 -0.349804 0 0 0 
0.43905 -0.0257064 -0.348774 0 0 0 
0.438156 -0.0255474 -0.348096 0 0 0 
0.438027 -0.0255246 -0.347263 0 0 0 
0.437899 -0.0255019 -0.34643 0 0 0 
0.438535 -0.0256152 -0.345436 0 0 0 
0.438299 -0.0255732 -0.344625 0 0 0 
0.438009 -0.0255217 -0.343825 0 0 0 
0.438101 -0.0255382 -0.342944 0 0 0 
0.438195 -0.0255548 -0.342061 0 0 0 
0.43807 -0.0255327 -0.341226 0 0 0 
0.437836 -0.0254913 -0.340414 0 0 0 
0.43804 -0.0255276 -0.339505 0 0 0 
0.437426 -0.0254184 -0.338779 0 0 0 
0.437249 -0.025387 -0.337956 0 0 0 
0.437072 -0.0253557 -0.337132 0 0 0 
0.437386 -0.0254116 -0.336195 0 0 0 
0.436396 -0.0252355 -0.335561 0 0 0 
0.436982 -0.0253398 -0.33456 0 0 0 
0.437298 -0.0253961 -0.333619 0 0 0 
0.436308 -0.0252201 -0.332989 0 0 0 
0.436244 -0.0252087 -0.332139 0 0 0 
0.4358 -0.02513 -0.331381 0 0 0 
0.435521 -0.0250803 -0.330583 0 0 0 
0.435188 -0.0250211 -0.3298 0 0 0 
0.435233 -0.0250294 -0.328923 0 0 0 
0.435064 -0.0249993 -0.328099 0 0 0 
0.433335 -0.0246916 -0.32767 0 0 0 
0.432898 -0.0246142 -0.326917 0 0 0 
0.432678 -0.0245751 -0.32611 0 0 0 
0.431818 -0.024422 -0.325469 0 0 0 
0.431918 -0.0244401 -0.32458 0 0 0 
0.432394 -0.0245247 -0.323593 0 0 0 
0.432443 -0.0245335 -0.322715 0 0 0 
0.432706 -0.0245804 -0.321778 0 0 0 
0.432649 -0.0245703 -0.320927 0 0 0 
0.432325 -0.0245127 -0.320147 0 0 0 
0.432644 -0.0245695 -0.319194 0 0 0 
0.432374 -0.0245216 -0.318399 0 0 0 
0.431677 -0.0243977 -0.317723 0 0 0 
0.431462 -0.0243595 -0.316914 0 0 0 
0.432049 -0.024464 -0.315883 0 0 0 
0.431674 -0.0243975 -0.315118 0 0 0 
0.431941 -0.0244451 -0.314172 0 0 0 
0.431141 -0.0243028 -0.313531 0 0 0 
0.432586 -0.0245599 -0.312244 0 0 0 
0.431624 -0.0243888 -0.31165 0 0 0 
0.432107 -0.0244749 -0.310636 0 0 0 
0.432432 -0.0245327 -0.309667 0 0 0 
0.432381 -0.0245236 -0.308806 0 0 0 
0.432492 -0.0245435 -0.307898 0 0 0 
0.431799 -0.0244203 -0.307229 0 0 0 
0.432393 -0.024526 -0.306173 0 0 0 
0.432721 -0.0245844 -0.305195 0 0 0 
0.432188 -0.0244898 -0.304479 0 0 0 
0.432463 -0.0245387 -0.303516 0 0 0 
0.432523 -0.0245494 -0.302617 0 0 0 
0.432368 -0.024522 -0.301784 0 0 0 
0.432807 -0.0246 -0.300765 0 0 0 
0.432167 -0.0244865 -0.300084 0 0 0 
0.432714 -0.0245838 -0.299028 0 0 0 
0.432884 -0.0246142 -0.298089 0 0 0 
0.432894 -0.0246159 -0.2972 0 0 0 
0.433552 -0.0247331 -0.296101 0 0 0 
0.432751 -0.0245906 -0.295474 0 0 0 
0.432923 -0.0246214 -0.294531 0 0 0 
0.432935 -0.0246234 -0.293639 0 0 0 
0.433 -0.0246351 -0.292729 0 0 0 
0.43388 -0.0247916 -0.291545 0 0 0 
0.433783 -0.0247746 -0.290684 0 0 0 
0.433308 -0.02469 -0.289952 0 0 0 
0.433321 -0.0246924 -0.289055 0 0 0 
0.433986 -0.024811 -0.287934 0 0 0 
0.433566 -0.0247361 -0.287183 0 0 0 
0.433852 -0.0247872 -0.286189 0 0 0 
0.433922 -0.0247997 -0.285267 0 0 0 
0.434264 -0.0248607 -0.284249 0 0 0 
0.434007 -0.024815 -0.28344 0 0 0 
0.435392 -0.0250613 -0.28205 0 0 0 
0.435299 -0.025045 -0.28118 0 0 0 
0.435042 -0.0249993 -0.280368 0 0 0 
0.435444 -0.025071 -0.279319 0 0 0 
0.435243 -0.0250353 -0.278486 0 0 0 
0.435812 -0.0251366 -0.277373 0 0 0 
0.435832 -0.0251401 -0.276458 0 0 0 
0.435742 -0.0251242 -0.275583 0 0 0 
0.435982 -0.025167 -0.274583 0 0 0 
0.436279 -0.0252199 -0.273562 0 0 0 
0.43619 -0.0252042 -0.272684 0 0 0 
0.437709 -0.0254745 -0.271198 0 0 0 
0.436732 -0.0253008 -0.270652 0 0 0 
0.437199 -0.0253839 -0.269558 0 0 0 
0.438002 -0.0255268 -0.268332 0 0 0 
0.437301 -0.0254024 -0.267683 0 0 0 
0.437827 -0.0254959 -0.26656 0 0 0 
0.438243 -0.02557 -0.265477 0 0 0 
0.438213 -0.0255647 -0.264566 0 0 0 
0.438575 -0.025629 -0.2635 0 0 0 
0.438769 -0.0256638 -0.262497 0 0 0 
0.438965 -0.0256986 -0.261494 0 0 0 
0.440118 -0.0259039 -0.260104 0 0 0 
0.439189 -0.0257386 -0.259547 0 0 0 
0.439837 -0.025854 -0.258355 0 0 0 
0.440375 -0.0259498 -0.257205 0 0 0 
0.440065 -0.0258947 -0.256397 0 0 0 
0.440774 -0.026021 -0.255171 0 0 0 
0.440862 -0.0260367 -0.254199 0 0 0 
0.44095 -0.0260523 -0.253224 0 0 0 
0.441322 -0.0261188 -0.25213 0 0 0 
0.440162 -0.0259125 -0.251675 0 0 0 
0.440478 -0.0259687 -0.250604 0 0 0 
0.441592 -0.0261669 -0.249192 0 0 0 
0.442368 -0.0263052 -0.247918 0 0 0 
0.443091 -0.0264338 -0.246662 0 0 0 
0.443183 -0.0264504 -0.245674 0 0 0 
0.442015 -0.0262425 -0.245229 0 0 0 
0.44205 -0.0262489 -0.244265 0 0 0 
0.441914 -0.0262248 -0.243375 0 0 0 
0.441207 -0.0260991 -0.242734 0 0 0 
0.441072 -0.0260751 -0.241844 0 0 0 
0.442368 -0.0263058 -0.240321 0 0 0 
0.442176 -0.0262717 -0.239452 0 0 0 
0.441469 -0.0261459 -0.238814 0 0 0 
0.441507 -0.0261528 -0.237843 0 0 0 
0.441373 -0.0261292 -0.236948 0 0 0 
0.442216 -0.0262791 -0.235612 0 0 0 
0.440765 -0.0260211 -0.235312 0 0 0 
0.441205 -0.0260994 -0.234155 0 0 0 
0.410609 -0.0172381 -0.639202 0 0 0 
0.406771 -0.0165868 -0.636466 0 0 0 
0.408852 -0.01694 -0.636568 0 0 0 
0.405487 -0.016369 -0.634077 0 0 0 
0.406184 -0.0164875 -0.633522 0 0 0 
0.409838 -0.0171077 -0.634353 0 0 0 
0.406072 -0.0164686 -0.631697 0 0 0 
0.408143 -0.0168201 -0.631778 0 0 0 
0.409244 -0.017007 -0.6314 0 0 0 
0.410151 -0.0171611 -0.63093 0 0 0 
0.406289 -0.0165056 -0.628266 0 0 0 
0.405918 -0.0164429 -0.627215 0 0 0 
0.40579 -0.0164214 -0.626278 0 0 0 
0.403257 -0.0159913 -0.624251 0 0 0 
0.410982 -0.0173027 -0.626864 0 0 0 
0.408236 -0.0168368 -0.624744 0 0 0 
0.41087 -0.0172838 -0.62504 0 0 0 
0.408178 -0.0168269 -0.622957 0 0 0 
0.409179 -0.0169969 -0.622521 0 0 0 
0.408511 -0.0168837 -0.621347 0 0 0 
0.410105 -0.0171544 -0.621167 0 0 0 
0.407039 -0.016634 -0.618948 0 0 0 
0.409899 -0.0171196 -0.619318 0 0 0 
0.411106 -0.0173245 -0.618961 0 0 0 
0.410237 -0.0171771 -0.617707 0 0 0 
0.407953 -0.0167895 -0.615852 0 0 0 
0.410526 -0.0172264 -0.616076 0 0 0 
0.411043 -0.017314 -0.615418 0 0 0 
0.411907 -0.0174608 -0.614907 0 0 0 
0.410987 -0.0173049 -0.613643 0 0 0 
0.412448 -0.0175529 -0.613378 0 0 0 
0.411181 -0.0173379 -0.611975 0 0 0 
0.409923 -0.0171244 -0.610581 0 0 0 
0.411276 -0.0173544 -0.610268 0 0 0 
0.412242 -0.0175182 -0.609791 0 0 0 
0.411176 -0.0173374 -0.608483 0 0 0 
0.411942 -0.0174675 -0.607923 0 0 0 
0.412512 -0.0175643 -0.607281 0 0 0 
0.414632 -0.0179243 -0.60726 0 0 0 
0.412561 -0.0175729 -0.605559 0 0 0 
0.414731 -0.0179414 -0.60555 0 0 0 
0.413906 -0.0178014 -0.60435 0 0 0 
0.414682 -0.0179331 -0.603783 0 0 0 
0.412664 -0.0175906 -0.602123 0 0 0 
0.413834 -0.0177893 -0.60171 0 0 0 
0.414559 -0.0179125 -0.601122 0 0 0 
0.414086 -0.0178323 -0.600071 0 0 0 
0.416118 -0.0181773 -0.59998 0 0 0 
0.41434 -0.0178756 -0.598432 0 0 0 
0.41577 -0.0181184 -0.598107 0 0 0 
0.415596 -0.018089 -0.597172 0 0 0 
0.41648 -0.018239 -0.596635 0 0 0 
0.416708 -0.0182781 -0.595852 0 0 0 
0.416183 -0.0181889 -0.594788 0 0 0 
0.416162 -0.0181854 -0.593913 0 0 0 
0.417149 -0.0183529 -0.593409 0 0 0 
0.417784 -0.0184609 -0.592773 0 0 0 
0.416402 -0.0182263 -0.591405 0 0 0 
0.417035 -0.018334 -0.590769 0 0 0 
0.41752 -0.0184163 -0.590077 0 0 0 
0.419123 -0.0186884 -0.589783 0 0 0 
0.42048 -0.018919 -0.589396 0 0 0 
0.419082 -0.0186818 -0.588035 0 0 0 
0.419368 -0.0187304 -0.587268 0 0 0 
0.419502 -0.0187532 -0.586449 0 0 0 
0.419228 -0.0187069 -0.585489 0 0 0 
0.420689 -0.0189548 -0.585127 0 0 0 
0.420569 -0.0189344 -0.584219 0 0 0 
0.421884 -0.0191577 -0.583801 0 0 0 
0.421351 -0.0190676 -0.582754 0 0 0 
0.420873 -0.0189865 -0.581728 0 0 0 
0.422653 -0.0192887 -0.581459 0 0 0 
0.423204 -0.0193822 -0.580774 0 0 0 
0.422981 -0.0193443 -0.579833 0 0 0 
0.423067 -0.0193592 -0.578995 0 0 0 
0.423102 -0.0193653 -0.578142 0 0 0 
0.423086 -0.0193626 -0.577272 0 0 0 
0.425092 -0.0197032 -0.577053 0 0 0 
0.423572 -0.0194453 -0.575699 0 0 0 
0.425374 -0.0197512 -0.575408 0 0 0 
0.424268 -0.0195634 -0.574192 0 0 0 
0.423839 -0.0194908 -0.573193 0 0 0 
0.423928 -0.0195061 -0.572359 0 0 0 
0.4249 -0.0196711 -0.571799 0 0 0 
0.425667 -0.0198014 -0.571171 0 0 0 
0.42503 -0.0196933 -0.570113 0 0 0 
0.425797 -0.0198237 -0.569484 0 0 0 
0.427301 -0.0200791 -0.569076 0 0 0 
0.426713 -0.0199794 -0.568033 0 0 0 
0.426963 -0.0200219 -0.567245 0 0 0 
0.426481 -0.0199401 -0.566239 0 0 0 
0.427203 -0.0200627 -0.56559 0 0 0 
0.42735 -0.0200877 -0.56477 0 0 0 
0.428233 -0.0202376 -0.564164 0 0 0 
0.428697 -0.0203165 -0.563435 0 0 0 
0.429744 -0.0204943 -0.562871 0 0 0 
0.428151 -0.0202242 -0.561554 0 0 0 
0.429302 -0.0204195 -0.561017 0 0 0 
0.430193 -0.0205709 -0.560404 0 0 0 
0.429867 -0.0205157 -0.55945 0 0 0 
0.432255 -0.020921 -0.559247 0 0 0 
0.429377 -0.0204326 -0.557591 0 0 0 
0.431492 -0.0207917 -0.557307 0 0 0 
0.431752 -0.0208359 -0.556513 0 0 0 
0.431692 -0.0208259 -0.555633 0 0 0 
0.432434 -0.0209519 -0.554968 0 0 0 
0.432375 -0.020942 -0.554089 0 0 0 
0.433227 -0.0210866 -0.553449 0 0 0 
0.432847 -0.0210222 -0.552486 0 0 0 
0.432736 -0.0210035 -0.551594 0 0 0 
0.432465 -0.0209576 -0.550662 0 0 0 
0.434448 -0.0212942 -0.550306 0 0 0 
0.434284 -0.0212664 -0.5494 0 0 0 
0.434119 -0.0212386 -0.548496 0 0 0 
0.434602 -0.0213207 -0.547754 0 0 0 
0.435248 -0.0214305 -0.54705 0 0 0 
0.434869 -0.0213662 -0.546094 0 0 0 
0.434977 -0.0213845 -0.545258 0 0 0 
0.435571 -0.0214855 -0.544539 0 0 0 
0.436005 -0.0215592 -0.543781 0 0 0 
0.436386 -0.0216239 -0.543008 0 0 0 
0.436278 -0.0216057 -0.542119 0 0 0 
0.437585 -0.0218277 -0.541562 0 0 0 
0.437206 -0.0217635 -0.54061 0 0 0 
0.436773 -0.0216901 -0.539648 0 0 0 
0.436722 -0.0216815 -0.538775 0 0 0 
0.437542 -0.0218207 -0.538099 0 0 0 
0.437383 -0.0217939 -0.537202 0 0 0 
0.438151 -0.0219243 -0.536511 0 0 0 
0.437665 -0.0218419 -0.535542 0 0 0 
0.437561 -0.0218245 -0.534659 0 0 0 
0.437133 -0.0217518 -0.533707 0 0 0 
0.438557 -0.0219937 -0.533153 0 0 0 
0.438128 -0.0219208 -0.532201 0 0 0 
0.4383 -0.0219501 -0.531377 0 0 0 
0.438417 -0.0219701 -0.530543 0 0 0 
0.438536 -0.0219903 -0.529708 0 0 0 
0.439092 -0.0220848 -0.528963 0 0 0 
0.438173 -0.0219289 -0.527918 0 0 0 
0.438019 -0.021903 -0.52703 0 0 0 
0.437868 -0.0218774 -0.526144 0 0 0 
0.438098 -0.0219164 -0.525333 0 0 0 
0.438656 -0.0220112 -0.524586 0 0 0 
0.438068 -0.0219116 -0.523617 0 0 0 
0.438409 -0.0219695 -0.522828 0 0 0 
0.438205 -0.0219349 -0.521935 0 0 0 
0.438219 -0.0219375 -0.521083 0 0 0 
0.438018 -0.0219033 -0.520193 0 0 0 
0.438796 -0.0220355 -0.519482 0 0 0 
0.438322 -0.0219551 -0.518543 0 0 0 
0.437577 -0.0218288 -0.517557 0 0 0 
0.437432 -0.0218043 -0.516681 0 0 0 
0.436692 -0.0216788 -0.515702 0 0 0 
0.436928 -0.0217188 -0.514895 0 0 0 
0.436839 -0.0217038 -0.514032 0 0 0 
0.43675 -0.0216889 -0.513169 0 0 0 
0.436879 -0.0217108 -0.512344 0 0 0 
0.437008 -0.0217329 -0.511519 0 0 0 
0.436059 -0.0215718 -0.510517 0 0 0 
0.436027 -0.0215665 -0.509668 0 0 0 
0.435298 -0.0214428 -0.508708 0 0 0 
0.435214 -0.0214287 -0.507852 0 0 0 
0.435613 -0.0214966 -0.507073 0 0 0 
0.434835 -0.0213644 -0.506111 0 0 0 
0.43502 -0.021396 -0.5053 0 0 0 
0.434565 -0.0213188 -0.504391 0 0 0 
0.434217 -0.0212599 -0.503501 0 0 0 
0.433553 -0.021147 -0.502566 0 0 0 
0.433793 -0.0211879 -0.501765 0 0 0 
0.433077 -0.0210666 -0.500827 0 0 0 
0.432947 -0.0210445 -0.499974 0 0 0 
0.432552 -0.0209777 -0.499085 0 0 0 
0.432424 -0.020956 -0.498235 0 0 0 
0.431822 -0.0208538 -0.497321 0 0 0 
0.432961 -0.0210474 -0.496642 0 0 0 
0.431621 -0.0208198 -0.495634 0 0 0 
0.431022 -0.0207183 -0.494727 0 0 0 
0.43053 -0.020635 -0.493836 0 0 0 
0.429728 -0.0204987 -0.492908 0 0 0 
0.430023 -0.0205489 -0.492119 0 0 0 
0.429067 -0.0203868 -0.491177 0 0 0 
0.428635 -0.0203134 -0.490302 0 0 0 
0.427481 -0.0201176 -0.489344 0 0 0 
0.427672 -0.0201501 -0.488546 0 0 0 
0.427296 -0.0200863 -0.487684 0 0 0 
0.426664 -0.0199791 -0.486794 0 0 0 
0.426393 -0.0199333 -0.485947 0 0 0 
0.426277 -0.0199138 -0.485117 0 0 0 
0.425141 -0.0197208 -0.48418 0 0 0 
0.424772 -0.0196584 -0.483328 0 0 0 
0.424405 -0.0195961 -0.482477 0 0 0 
0.424395 -0.0195944 -0.481664 0 0 0 
0.423928 -0.0195153 -0.480807 0 0 0 
0.423868 -0.0195052 -0.47999 0 0 0 
0.42396 -0.019521 -0.479189 0 0 0 
0.422789 -0.0193223 -0.47827 0 0 0 
0.42435 -0.0195873 -0.477605 0 0 0 
0.423836 -0.0195002 -0.476749 0 0 0 
0.423779 -0.0194905 -0.475935 0 0 0 
0.424077 -0.0195412 -0.475152 0 0 0 
0.423666 -0.0194716 -0.474308 0 0 0 
0.423763 -0.0194881 -0.473508 0 0 0 
0.424671 -0.0196424 -0.472772 0 0 0 
0.424312 -0.0195815 -0.471935 0 0 0 
0.42502 -0.0197018 -0.47118 0 0 0 
0.42512 -0.0197187 -0.470377 0 0 0 
0.425474 -0.019779 -0.469593 0 0 0 
0.424811 -0.0196665 -0.468736 0 0 0 
0.425268 -0.0197441 -0.467958 0 0 0 
0.425522 -0.0197874 -0.467166 0 0 0 
0.425574 -0.0197962 -0.466359 0 0 0 
0.425218 -0.0197358 -0.465526 0 0 0 
0.425882 -0.0198487 -0.464758 0 0 0 
0.425527 -0.0197885 -0.463927 0 0 0 
0.426142 -0.019893 -0.463153 0 0 0 
0.426401 -0.019937 -0.462357 0 0 0 
0.4262 -0.019903 -0.461535 0 0 0 
0.427486 -0.0201215 -0.460792 0 0 0 
0.426413 -0.0199394 -0.459925 0 0 0 
0.426572 -0.0199665 -0.459122 0 0 0 
0.426835 -0.0200111 -0.458324 0 0 0 
0.426739 -0.0199949 -0.457509 0 0 0 
0.426951 -0.020031 -0.456707 0 0 0 
0.42701 -0.0200411 -0.455898 0 0 0 
0.426557 -0.0199643 -0.45507 0 0 0 
0.426925 -0.0200268 -0.454273 0 0 0 
0.427396 -0.020107 -0.453479 0 0 0 
0.427973 -0.0202049 -0.452687 0 0 0 
0.428655 -0.0203207 -0.451896 0 0 0 
0.428614 -0.020314 -0.451081 0 0 0 
0.428936 -0.0203688 -0.450276 0 0 0 
0.428639 -0.0203183 -0.449454 0 0 0 
0.428652 -0.0203206 -0.448641 0 0 0 
0.428821 -0.0203493 -0.447831 0 0 0 
0.428938 -0.0203694 -0.44702 0 0 0 
0.429264 -0.0204248 -0.446212 0 0 0 
0.429228 -0.0204188 -0.445397 0 0 0 
0.429504 -0.0204656 -0.444586 0 0 0 
0.429365 -0.0204421 -0.44377 0 0 0 
0.429642 -0.0204892 -0.442958 0 0 0 
0.429504 -0.0204659 -0.442142 0 0 0 
0.429939 -0.0205397 -0.44133 0 0 0 
0.430844 -0.0206935 -0.440519 0 0 0 
0.431491 -0.0208034 -0.439704 0 0 0 
0.431564 -0.020816 -0.438886 0 0 0 
0.431743 -0.0208464 -0.438067 0 0 0 
0.431765 -0.0208501 -0.437248 0 0 0 
0.432733 -0.0210147 -0.436425 0 0 0 
0.431758 -0.0208491 -0.43561 0 0 0 
0.431939 -0.02088 -0.434789 0 0 0 
0.43191 -0.0208752 -0.43397 0 0 0 
0.43183 -0.0208618 -0.433152 0 0 0 
0.432118 -0.0209108 -0.432328 0 0 0 
0.433356 -0.0211211 -0.431489 0 0 0 
0.432908 -0.021045 -0.430675 0 0 0 
0.43357 -0.0211574 -0.429841 0 0 0 
0.433968 -0.0212252 -0.42901 0 0 0 
0.43368 -0.0211763 -0.428193 0 0 0 
0.433603 -0.0211634 -0.427372 0 0 0 
0.433952 -0.0212226 -0.426539 0 0 0 
0.433718 -0.0211829 -0.425722 0 0 0 
0.434173 -0.0212604 -0.424885 0 0 0 
0.433623 -0.0211669 -0.424079 0 0 0 
0.434026 -0.0212355 -0.423241 0 0 0 
0.432896 -0.0210438 -0.422458 0 0 0 
0.432403 -0.0209601 -0.421655 0 0 0 
0.432964 -0.0210555 -0.420811 0 0 0 
0.434163 -0.0212591 -0.419938 0 0 0 
0.433987 -0.0212293 -0.419121 0 0 0 
0.432596 -0.0209933 -0.41836 0 0 0 
0.432739 -0.0210176 -0.417531 0 0 0 
0.433939 -0.0212214 -0.416649 0 0 0 
0.432077 -0.0209054 -0.41592 0 0 0 
0.432063 -0.0209031 -0.415099 0 0 0 
0.431787 -0.0208563 -0.414293 0 0 0 
0.431827 -0.0208632 -0.413469 0 0 0 
0.431447 -0.0207988 -0.41267 0 0 0 
0.431017 -0.0207258 -0.411875 0 0 0 
0.431006 -0.020724 -0.411055 0 0 0 
0.43016 -0.0205806 -0.41029 0 0 0 
0.430463 -0.0206321 -0.40945 0 0 0 
0.428894 -0.0203657 -0.408738 0 0 0 
0.428006 -0.0202151 -0.407983 0 0 0 
0.427895 -0.0201963 -0.407176 0 0 0 
0.427424 -0.0201164 -0.406395 0 0 0 
0.427211 -0.0200803 -0.405596 0 0 0 
0.425872 -0.0198531 -0.404886 0 0 0 
0.427199 -0.0200785 -0.403968 0 0 0 
0.427451 -0.0201214 -0.403132 0 0 0 
0.426778 -0.0200072 -0.402373 0 0 0 
0.426877 -0.020024 -0.40155 0 0 0 
0.427182 -0.0200759 -0.400708 0 0 0 
0.427333 -0.0201017 -0.399879 0 0 0 
0.427383 -0.0201101 -0.399059 0 0 0 
0.427227 -0.0200837 -0.398257 0 0 0 
0.427122 -0.0200662 -0.39745 0 0 0 
0.427379 -0.0201099 -0.396609 0 0 0 
0.427071 -0.0200575 -0.395822 0 0 0 
0.427431 -0.0201189 -0.394968 0 0 0 
0.427795 -0.0201805 -0.394114 0 0 0 
0.42759 -0.0201459 -0.393316 0 0 0 
0.427541 -0.0201377 -0.392503 0 0 0 
0.427854 -0.0201908 -0.39165 0 0 0 
0.427857 -0.0201915 -0.39083 0 0 0 
0.427965 -0.0202099 -0.389998 0 0 0 
0.429266 -0.0204309 -0.38903 0 0 0 
0.43021 -0.0205912 -0.388097 0 0 0 
0.42855 -0.0203095 -0.387467 0 0 0 
0.429024 -0.0203901 -0.386588 0 0 0 
0.428668 -0.0203297 -0.385807 0 0 0 
0.428416 -0.0202871 -0.385015 0 0 0 
0.428528 -0.0203061 -0.384178 0 0 0 
0.428901 -0.0203695 -0.383307 0 0 0 
0.430266 -0.0206013 -0.382306 0 0 0 
0.430067 -0.0205677 -0.381505 0 0 0 
0.430549 -0.0206495 -0.380613 0 0 0 
0.430665 -0.0206695 -0.379769 0 0 0 
0.430993 -0.020725 -0.378895 0 0 0 
0.431216 -0.020763 -0.378034 0 0 0 
0.431282 -0.0207742 -0.377194 0 0 0 
0.431506 -0.0208125 -0.37633 0 0 0 
0.431995 -0.0208956 -0.375427 0 0 0 
0.432168 -0.0209252 -0.374568 0 0 0 
0.431762 -0.0208563 -0.373794 0 0 0 
0.431515 -0.0208144 -0.372997 0 0 0 
0.433013 -0.0210688 -0.371936 0 0 0 
0.432289 -0.020946 -0.37121 0 0 0 
0.432572 -0.020994 -0.37033 0 0 0 
0.43376 -0.0211958 -0.369306 0 0 0 
0.433088 -0.0210818 -0.368574 0 0 0 
0.434173 -0.0212662 -0.36756 0 0 0 
0.433342 -0.0211251 -0.366854 0 0 0 
0.434697 -0.0213554 -0.365791 0 0 0 
0.434666 -0.0213501 -0.364953 0 0 0 
0.434636 -0.021345 -0.364114 0 0 0 
0.435195 -0.0214401 -0.363175 0 0 0 
0.435595 -0.0215082 -0.362261 0 0 0 
0.435782 -0.0215399 -0.361382 0 0 0 
0.436996 -0.021746 -0.36032 0 0 0 
0.436481 -0.0216588 -0.359562 0 0 0 
0.436887 -0.0217278 -0.358639 0 0 0 
0.438 -0.0219169 -0.357585 0 0 0 
0.437268 -0.0217927 -0.356867 0 0 0 
0.438112 -0.0219361 -0.355857 0 0 0 
0.438579 -0.0220153 -0.354915 0 0 0 
0.438446 -0.0219928 -0.354085 0 0 0 
0.44023 -0.022296 -0.352886 0 0 0 
0.438672 -0.0220315 -0.352328 0 0 0 
0.438868 -0.0220649 -0.351432 0 0 0 
0.438791 -0.022052 -0.350589 0 0 0 
0.43877 -0.0220485 -0.349735 0 0 0 
0.43886 -0.0220636 -0.348858 0 0 0 
0.438894 -0.0220696 -0.347991 0 0 0 
0.438601 -0.0220199 -0.347191 0 0 0 
0.438746 -0.0220446 -0.346301 0 0 0 
0.438563 -0.0220138 -0.345478 0 0 0 
0.439149 -0.0221132 -0.344493 0 0 0 
0.438145 -0.021943 -0.343844 0 0 0 
0.438403 -0.0219866 -0.342927 0 0 0 
0.438496 -0.0220025 -0.342044 0 0 0 
0.43848 -0.022 -0.341185 0 0 0 
0.438355 -0.0219789 -0.340348 0 0 0 
0.438669 -0.0220323 -0.339414 0 0 0 
0.438272 -0.0219649 -0.338639 0 0 0 
0.438697 -0.0220371 -0.337678 0 0 0 
0.438629 -0.0220257 -0.336827 0 0 0 
0.438179 -0.0219494 -0.336064 0 0 0 
0.438003 -0.0219195 -0.335238 0 0 0 
0.437445 -0.0218249 -0.334502 0 0 0 
0.437271 -0.0217955 -0.333678 0 0 0 
0.437151 -0.0217752 -0.332839 0 0 0 
0.437141 -0.0217737 -0.331975 0 0 0 
0.436968 -0.0217444 -0.33115 0 0 0 
0.436796 -0.0217152 -0.330325 0 0 0 
0.435972 -0.0215754 -0.32966 0 0 0 
0.435856 -0.0215557 -0.328822 0 0 0 
0.435361 -0.0214717 -0.328079 0 0 0 
0.435407 -0.0214798 -0.3272 0 0 0 
0.434212 -0.0212769 -0.326637 0 0 0 
0.433775 -0.0212028 -0.325883 0 0 0 
0.433071 -0.0210834 -0.325199 0 0 0 
0.433065 -0.0210825 -0.324336 0 0 0 
0.433168 -0.0211 -0.323444 0 0 0 
0.433109 -0.0210902 -0.322593 0 0 0 
0.432891 -0.0210531 -0.321785 0 0 0 
0.43278 -0.0210344 -0.320949 0 0 0 
0.43267 -0.0210158 -0.32011 0 0 0 
0.432668 -0.0210153 -0.319244 0 0 0 
0.432129 -0.0209242 -0.318523 0 0 0 
0.432449 -0.0209785 -0.317567 0 0 0 
0.431913 -0.0208875 -0.316848 0 0 0 
0.432019 -0.0209056 -0.315949 0 0 0 
0.432607 -0.0210057 -0.314913 0 0 0 
0.432178 -0.020933 -0.314164 0 0 0 
0.431804 -0.0208695 -0.313399 0 0 0 
0.43202 -0.0209062 -0.312467 0 0 0 
0.432236 -0.0209429 -0.311532 0 0 0 
0.43213 -0.0209252 -0.31069 0 0 0 
0.432347 -0.0209621 -0.309753 0 0 0 
0.432082 -0.0209171 -0.308956 0 0 0 
0.43273 -0.0210273 -0.307888 0 0 0 
0.43166 -0.0208457 -0.307332 0 0 0 
0.432577 -0.0210015 -0.30618 0 0 0 
0.432313 -0.0209568 -0.305382 0 0 0 
0.43248 -0.0209852 -0.304453 0 0 0 
0.432701 -0.0210228 -0.303505 0 0 0 
0.432761 -0.0210331 -0.302606 0 0 0 
0.432714 -0.0210252 -0.30174 0 0 0 
0.432614 -0.0210082 -0.30089 0 0 0 
0.433539 -0.0211655 -0.299716 0 0 0 
0.433765 -0.0212038 -0.29876 0 0 0 
0.43372 -0.0211962 -0.297888 0 0 0 
0.433946 -0.0212347 -0.296929 0 0 0 
0.432927 -0.0210617 -0.296371 0 0 0 
0.433641 -0.0211831 -0.295252 0 0 0 
0.433651 -0.021185 -0.294359 0 0 0 
0.433283 -0.0211224 -0.293592 0 0 0 
0.433186 -0.0211061 -0.292735 0 0 0 
0.433522 -0.0211634 -0.291732 0 0 0 
0.432776 -0.0210368 -0.291091 0 0 0 
0.433819 -0.021214 -0.289849 0 0 0 
0.433778 -0.0212071 -0.28897 0 0 0 
0.434228 -0.0212835 -0.287922 0 0 0 
0.433861 -0.0212213 -0.287152 0 0 0 
0.434803 -0.0213813 -0.28593 0 0 0 
0.434545 -0.0213376 -0.285121 0 0 0 
0.43456 -0.0213404 -0.284217 0 0 0 
0.434412 -0.0213154 -0.28337 0 0 0 
0.434922 -0.0214019 -0.28229 0 0 0 
0.435103 -0.0214328 -0.281324 0 0 0 
0.434846 -0.0213894 -0.280512 0 0 0 
0.43481 -0.0213831 -0.279623 0 0 0 
0.435212 -0.0214516 -0.278573 0 0 0 
0.435451 -0.0214922 -0.27758 0 0 0 
0.4358 -0.0215517 -0.276545 0 0 0 
0.436207 -0.0216207 -0.275487 0 0 0 
0.436117 -0.0216056 -0.274611 0 0 0 
0.436082 -0.0215998 -0.273713 0 0 0 
0.438269 -0.0219713 -0.271982 0 0 0 
0.437902 -0.0219089 -0.271205 0 0 0 
0.436701 -0.0217052 -0.270742 0 0 0 
0.437113 -0.0217751 -0.26967 0 0 0 
0.437748 -0.0218832 -0.26851 0 0 0 
0.438163 -0.0219537 -0.267432 0 0 0 
0.437852 -0.021901 -0.266631 0 0 0 
0.438884 -0.0220763 -0.265309 0 0 0 
0.439247 -0.022138 -0.264244 0 0 0 
0.43978 -0.0222286 -0.263109 0 0 0 
0.439356 -0.0221568 -0.262349 0 0 0 
0.438597 -0.022028 -0.261723 0 0 0 
0.439806 -0.0222332 -0.260314 0 0 0 
0.440342 -0.0223245 -0.259169 0 0 0 
0.441051 -0.022445 -0.25795 0 0 0 
0.439948 -0.0222577 -0.257464 0 0 0 
0.441679 -0.0225518 -0.255825 0 0 0 
0.440801 -0.0224027 -0.255248 0 0 0 
0.441285 -0.0224852 -0.254112 0 0 0 
0.441317 -0.0224906 -0.25316 0 0 0 
0.441919 -0.0225929 -0.25197 0 0 0 
0.442237 -0.022647 -0.250896 0 0 0 
0.442271 -0.0226528 -0.249939 0 0 0 
0.443164 -0.0228046 -0.248618 0 0 0 
0.443774 -0.0229084 -0.247412 0 0 0 
0.442372 -0.0226704 -0.247061 0 0 0 
0.443268 -0.0228227 -0.24573 0 0 0 
0.44342 -0.0228484 -0.244716 0 0 0 
0.442938 -0.0227666 -0.243974 0 0 0 
0.442572 -0.0227045 -0.243182 0 0 0 
0.442953 -0.0227695 -0.242065 0 0 0 
0.442933 -0.0227661 -0.241121 0 0 0 
0.442452 -0.0226846 -0.240378 0 0 0 
0.441801 -0.0225741 -0.239714 0 0 0 
0.442183 -0.0226391 -0.238591 0 0 0 
0.441991 -0.0226067 -0.237721 0 0 0 
0.441801 -0.0225744 -0.236852 0 0 0 
0.442012 -0.0226103 -0.235801 0 0 0 
0.441707 -0.0225587 -0.234981 0 0 0 
0.442379 -0.022673 -0.233716 0 0 0 
0.408152 -0.0134613 -0.63797 0 0 0 
0.413207 -0.0142784 -0.639493 0 0 0 
0.406514 -0.0131966 -0.635403 0 0 0 
0.411125 -0.0139422 -0.636701 0 0 0 
0.40728 -0.0133207 -0.633989 0 0 0 
0.40991 -0.0137461 -0.634336 0 0 0 
0.406189 -0.0131446 -0.631704 0 0 0 
0.410191 -0.0137916 -0.632681 0 0 0 
0.406126 -0.0131347 -0.629907 0 0 0 
0.408691 -0.0135493 -0.630207 0 0 0 
0.406601 -0.0132116 -0.628362 0 0 0 
0.405792 -0.013081 -0.627111 0 0 0 
0.407419 -0.013344 -0.626971 0 0 0 
0.412287 -0.014131 -0.628293 0 0 0 
0.409964 -0.0137558 -0.626356 0 0 0 
0.408014 -0.0134405 -0.624596 0 0 0 
0.408033 -0.0134437 -0.623725 0 0 0 
0.409774 -0.0137253 -0.623618 0 0 0 
0.409694 -0.0137126 -0.622701 0 0 0 
0.409911 -0.0137477 -0.621916 0 0 0 
0.412415 -0.0141525 -0.622131 0 0 0 
0.412935 -0.0142366 -0.621472 0 0 0 
0.413456 -0.0143209 -0.620814 0 0 0 
0.409205 -0.0136339 -0.618093 0 0 0 
0.412246 -0.0141255 -0.618524 0 0 0 
0.411917 -0.0140726 -0.617502 0 0 0 
0.409221 -0.0136367 -0.615475 0 0 0 
0.411762 -0.0140476 -0.615677 0 0 0 
0.411238 -0.013963 -0.614579 0 0 0 
0.411508 -0.0140067 -0.613815 0 0 0 
0.410886 -0.0139064 -0.612681 0 0 0 
0.413545 -0.0143363 -0.612911 0 0 0 
0.412619 -0.0141867 -0.61165 0 0 0 
0.414192 -0.014441 -0.61142 0 0 0 
0.413713 -0.0143638 -0.610347 0 0 0 
0.414741 -0.0145298 -0.609888 0 0 0 
0.412863 -0.0142265 -0.608251 0 0 0 
0.414235 -0.0144485 -0.607931 0 0 0 
0.413909 -0.0143959 -0.606925 0 0 0 
0.413534 -0.0143354 -0.605903 0 0 0 
0.41351 -0.0143314 -0.605021 0 0 0 
0.414836 -0.0145459 -0.604673 0 0 0 
0.41386 -0.0143883 -0.603416 0 0 0 
0.415288 -0.0146193 -0.603105 0 0 0 
0.415817 -0.0147049 -0.602437 0 0 0 
0.415491 -0.0146522 -0.601439 0 0 0 
0.415216 -0.0146079 -0.600461 0 0 0 
0.415645 -0.0146774 -0.599755 0 0 0 
0.41507 -0.0145844 -0.598667 0 0 0 
0.416353 -0.0147922 -0.598284 0 0 0 
0.416784 -0.0148619 -0.597577 0 0 0 
0.416207 -0.0147687 -0.596491 0 0 0 
0.418005 -0.0150595 -0.596291 0 0 0 
0.417729 -0.015015 -0.595318 0 0 0 
0.418366 -0.0151182 -0.594683 0 0 0 
0.41865 -0.015164 -0.593916 0 0 0 
0.418222 -0.0150949 -0.59289 0 0 0 
0.41876 -0.0151819 -0.592216 0 0 0 
0.419349 -0.0152775 -0.591559 0 0 0 
0.419584 -0.0153154 -0.590774 0 0 0 
0.419411 -0.0152874 -0.589844 0 0 0 
0.419339 -0.0152761 -0.58895 0 0 0 
0.41937 -0.0152812 -0.588095 0 0 0 
0.420423 -0.0154515 -0.587596 0 0 0 
0.419637 -0.0153246 -0.586455 0 0 0 
0.421359 -0.0156029 -0.586185 0 0 0 
0.421545 -0.0156331 -0.58538 0 0 0 
0.421012 -0.0155472 -0.584331 0 0 0 
0.422177 -0.0157354 -0.58386 0 0 0 
0.421952 -0.0156993 -0.582916 0 0 0 
0.42281 -0.0158383 -0.582338 0 0 0 
0.422123 -0.0157271 -0.581242 0 0 0 
0.421541 -0.015633 -0.580182 0 0 0 
0.422501 -0.0157884 -0.579635 0 0 0 
0.424088 -0.0160451 -0.57929 0 0 0 
0.422932 -0.0158584 -0.578047 0 0 0 
0.423847 -0.0160064 -0.577478 0 0 0 
0.42378 -0.0159956 -0.576591 0 0 0 
0.424803 -0.0161611 -0.576053 0 0 0 
0.425517 -0.0162766 -0.575414 0 0 0 
0.425868 -0.0163333 -0.574658 0 0 0 
0.426062 -0.0163648 -0.573852 0 0 0 
0.426728 -0.0164727 -0.573194 0 0 0 
0.426033 -0.0163605 -0.572111 0 0 0 
0.42529 -0.0162404 -0.571018 0 0 0 
0.425797 -0.0163227 -0.570311 0 0 0 
0.426359 -0.0164136 -0.569618 0 0 0 
0.426923 -0.0165048 -0.568924 0 0 0 
0.427173 -0.0165453 -0.568135 0 0 0 
0.428529 -0.0167647 -0.567675 0 0 0 
0.429311 -0.0168911 -0.567039 0 0 0 
0.429458 -0.0169149 -0.566216 0 0 0 
0.430189 -0.0170334 -0.565562 0 0 0 
0.428696 -0.016792 -0.564262 0 0 0 
0.429691 -0.0169528 -0.563685 0 0 0 
0.429946 -0.0169943 -0.562893 0 0 0 
0.430627 -0.0171045 -0.562221 0 0 0 
0.432755 -0.0174487 -0.561955 0 0 0 
0.431194 -0.0171964 -0.56065 0 0 0 
0.431666 -0.0172728 -0.559915 0 0 0 
0.431925 -0.0173148 -0.55912 0 0 0 
0.431011 -0.017167 -0.558004 0 0 0 
0.432284 -0.0173732 -0.557488 0 0 0 
0.43319 -0.0175195 -0.556867 0 0 0 
0.432861 -0.0174665 -0.555912 0 0 0 
0.435228 -0.0178492 -0.555677 0 0 0 
0.433225 -0.0175255 -0.554279 0 0 0 
0.433434 -0.0175596 -0.553469 0 0 0 
0.43413 -0.017672 -0.552786 0 0 0 
0.433909 -0.0176366 -0.551865 0 0 0 
0.434715 -0.0177668 -0.551206 0 0 0 
0.435415 -0.0178801 -0.550519 0 0 0 
0.436063 -0.017985 -0.549817 0 0 0 
0.435843 -0.0179494 -0.548896 0 0 0 
0.434812 -0.017783 -0.547773 0 0 0 
0.436164 -0.0180016 -0.547244 0 0 0 
0.436489 -0.0180543 -0.546458 0 0 0 
0.436543 -0.0180631 -0.545606 0 0 0 
0.436814 -0.018107 -0.544807 0 0 0 
0.437196 -0.0181689 -0.544034 0 0 0 
0.438564 -0.0183902 -0.543493 0 0 0 
0.437034 -0.0181429 -0.542266 0 0 0 
0.437745 -0.018258 -0.541569 0 0 0 
0.438568 -0.0183911 -0.540895 0 0 0 
0.438845 -0.018436 -0.540093 0 0 0 
0.438518 -0.0183833 -0.539154 0 0 0 
0.438194 -0.0183308 -0.538217 0 0 0 
0.438198 -0.0183316 -0.537355 0 0 0 
0.437656 -0.0182442 -0.536372 0 0 0 
0.438153 -0.0183246 -0.535621 0 0 0 
0.438158 -0.0183257 -0.534761 0 0 0 
0.438767 -0.0184241 -0.534031 0 0 0 
0.439102 -0.0184784 -0.533241 0 0 0 
0.439439 -0.0185329 -0.532451 0 0 0 
0.438789 -0.0184279 -0.531453 0 0 0 
0.440005 -0.0186247 -0.530846 0 0 0 
0.43919 -0.0184929 -0.529816 0 0 0 
0.438925 -0.0184502 -0.528903 0 0 0 
0.439869 -0.0186028 -0.528234 0 0 0 
0.439769 -0.0185868 -0.527354 0 0 0 
0.439725 -0.0185799 -0.526486 0 0 0 
0.440177 -0.0186529 -0.525716 0 0 0 
0.440189 -0.018655 -0.524859 0 0 0 
0.439761 -0.0185861 -0.523919 0 0 0 
0.439884 -0.0186061 -0.523085 0 0 0 
0.440118 -0.0186441 -0.522272 0 0 0 
0.439694 -0.0185754 -0.521335 0 0 0 
0.439599 -0.0185603 -0.520462 0 0 0 
0.439231 -0.0185008 -0.519539 0 0 0 
0.439631 -0.0185657 -0.518757 0 0 0 
0.43921 -0.0184976 -0.517828 0 0 0 
0.439501 -0.0185448 -0.517026 0 0 0 
0.439519 -0.0185478 -0.516176 0 0 0 
0.439155 -0.018489 -0.515259 0 0 0 
0.438791 -0.0184304 -0.514345 0 0 0 
0.439139 -0.0184867 -0.513554 0 0 0 
0.438342 -0.0183578 -0.512569 0 0 0 
0.43858 -0.0183965 -0.51176 0 0 0 
0.438275 -0.0183473 -0.51086 0 0 0 
0.438025 -0.018307 -0.509972 0 0 0 
0.437776 -0.0182669 -0.509085 0 0 0 
0.437963 -0.0182971 -0.508268 0 0 0 
0.437445 -0.0182134 -0.507341 0 0 0 
0.436712 -0.0180951 -0.506383 0 0 0 
0.436899 -0.0181255 -0.505568 0 0 0 
0.436709 -0.0180948 -0.504697 0 0 0 
0.436789 -0.0181079 -0.503866 0 0 0 
0.436224 -0.0180165 -0.502941 0 0 0 
0.436737 -0.0180995 -0.502174 0 0 0 
0.435419 -0.0178867 -0.501145 0 0 0 
0.435126 -0.0178395 -0.500265 0 0 0 
0.434408 -0.0177233 -0.499328 0 0 0 
0.434438 -0.0177283 -0.498496 0 0 0 
0.434308 -0.0177074 -0.497643 0 0 0 
0.433913 -0.0176436 -0.496755 0 0 0 
0.433732 -0.0176145 -0.495897 0 0 0 
0.433977 -0.0176542 -0.495095 0 0 0 
0.433426 -0.0175651 -0.494192 0 0 0 
0.431661 -0.0172799 -0.493138 0 0 0 
0.431326 -0.0172259 -0.492268 0 0 0 
0.430837 -0.0171468 -0.491381 0 0 0 
0.430557 -0.0171016 -0.490521 0 0 0 
0.43054 -0.0170991 -0.489694 0 0 0 
0.429584 -0.0169445 -0.488758 0 0 0 
0.428944 -0.0168412 -0.487861 0 0 0 
0.429085 -0.0168641 -0.487056 0 0 0 
0.428656 -0.0167948 -0.486187 0 0 0 
0.427969 -0.0166839 -0.485292 0 0 0 
0.427492 -0.0166067 -0.484422 0 0 0 
0.426758 -0.0164883 -0.483527 0 0 0 
0.427468 -0.0166031 -0.482784 0 0 0 
0.426274 -0.0164102 -0.481846 0 0 0 
0.425855 -0.0163424 -0.48099 0 0 0 
0.425641 -0.0163078 -0.480155 0 0 0 
0.425938 -0.0163561 -0.47937 0 0 0 
0.425317 -0.0162557 -0.478499 0 0 0 
0.425105 -0.0162215 -0.477668 0 0 0 
0.424945 -0.0161957 -0.476842 0 0 0 
0.425397 -0.016269 -0.47607 0 0 0 
0.424983 -0.0162021 -0.475223 0 0 0 
0.425692 -0.0163169 -0.474472 0 0 0 
0.425329 -0.0162583 -0.473631 0 0 0 
0.426348 -0.0164231 -0.472902 0 0 0 
0.425525 -0.0162903 -0.472025 0 0 0 
0.42588 -0.0163476 -0.471241 0 0 0 
0.426697 -0.0164798 -0.470491 0 0 0 
0.425926 -0.0163553 -0.469622 0 0 0 
0.426642 -0.0164711 -0.468862 0 0 0 
0.426282 -0.016413 -0.468025 0 0 0 
0.426948 -0.0165209 -0.467258 0 0 0 
0.426281 -0.0164132 -0.466402 0 0 0 
0.426487 -0.0164466 -0.465604 0 0 0 
0.425874 -0.0163475 -0.464755 0 0 0 
0.427363 -0.0165884 -0.464034 0 0 0 
0.426852 -0.0165058 -0.463192 0 0 0 
0.42742 -0.0165978 -0.462412 0 0 0 
0.426961 -0.0165237 -0.461575 0 0 0 
0.427686 -0.0166409 -0.460801 0 0 0 
0.427587 -0.0166252 -0.459983 0 0 0 
0.427335 -0.0165845 -0.459159 0 0 0 
0.428218 -0.0167273 -0.458388 0 0 0 
0.42776 -0.0166533 -0.457554 0 0 0 
0.427407 -0.0165963 -0.456727 0 0 0 
0.427466 -0.016606 -0.455917 0 0 0 
0.427371 -0.0165907 -0.455102 0 0 0 
0.42738 -0.0165923 -0.454291 0 0 0 
0.428111 -0.0167106 -0.453505 0 0 0 
0.42869 -0.0168042 -0.452712 0 0 0 
0.428959 -0.0168479 -0.451907 0 0 0 
0.428867 -0.0168331 -0.45109 0 0 0 
0.429086 -0.0168687 -0.450282 0 0 0 
0.429254 -0.0168959 -0.449473 0 0 0 
0.429216 -0.0168898 -0.448657 0 0 0 
0.429022 -0.0168586 -0.447839 0 0 0 
0.42914 -0.0168778 -0.447027 0 0 0 
0.429155 -0.0168803 -0.446214 0 0 0 
0.429379 -0.0169165 -0.445403 0 0 0 
0.429447 -0.0169276 -0.44459 0 0 0 
0.429932 -0.017006 -0.443782 0 0 0 
0.429637 -0.0169585 -0.442963 0 0 0 
0.43101 -0.0171807 -0.44216 0 0 0 
0.431343 -0.0172346 -0.441345 0 0 0 
0.431049 -0.0171871 -0.440526 0 0 0 
0.430912 -0.017165 -0.439708 0 0 0 
0.431456 -0.017253 -0.438892 0 0 0 
0.43111 -0.0171974 -0.438074 0 0 0 
0.431499 -0.0172602 -0.437255 0 0 0 
0.431416 -0.017247 -0.436437 0 0 0 
0.431492 -0.0172593 -0.435619 0 0 0 
0.431515 -0.0172632 -0.4348 0 0 0 
0.432169 -0.0173692 -0.433976 0 0 0 
0.431984 -0.0173393 -0.433158 0 0 0 
0.431642 -0.0172841 -0.432344 0 0 0 
0.432036 -0.0173479 -0.431519 0 0 0 
0.432431 -0.0174119 -0.430693 0 0 0 
0.432458 -0.0174164 -0.429872 0 0 0 
0.432645 -0.0174466 -0.429048 0 0 0 
0.432515 -0.0174258 -0.42823 0 0 0 
0.432545 -0.0174307 -0.427408 0 0 0 
0.432575 -0.0174356 -0.426587 0 0 0 
0.434033 -0.0176714 -0.425724 0 0 0 
0.433694 -0.0176167 -0.424911 0 0 0 
0.433885 -0.0176476 -0.424082 0 0 0 
0.433706 -0.0176188 -0.423264 0 0 0 
0.433951 -0.0176585 -0.422432 0 0 0 
0.432821 -0.0174759 -0.421651 0 0 0 
0.432908 -0.0174902 -0.420826 0 0 0 
0.433366 -0.0175643 -0.419985 0 0 0 
0.433137 -0.0175275 -0.419172 0 0 0 
0.433121 -0.0175248 -0.41835 0 0 0 
0.432156 -0.0173689 -0.417573 0 0 0 
0.432404 -0.0174092 -0.416739 0 0 0 
0.432179 -0.0173728 -0.415929 0 0 0 
0.432428 -0.0174132 -0.415095 0 0 0 
0.432046 -0.0173515 -0.414293 0 0 0 
0.431613 -0.0172816 -0.413497 0 0 0 
0.431496 -0.0172628 -0.412683 0 0 0 
0.431327 -0.0172356 -0.411872 0 0 0 
0.431526 -0.0172678 -0.411039 0 0 0 
0.431096 -0.0171984 -0.410246 0 0 0 
0.431138 -0.0172054 -0.409422 0 0 0 
0.429252 -0.0169004 -0.40873 0 0 0 
0.430964 -0.0171774 -0.407793 0 0 0 
0.428458 -0.0167721 -0.407152 0 0 0 
0.427882 -0.0166791 -0.406379 0 0 0 
0.427772 -0.0166614 -0.405572 0 0 0 
0.426839 -0.0165106 -0.404829 0 0 0 
0.427605 -0.0166347 -0.403954 0 0 0 
0.429048 -0.0168681 -0.403021 0 0 0 
0.42775 -0.0166583 -0.402311 0 0 0 
0.428004 -0.0166995 -0.401473 0 0 0 
0.428104 -0.0167157 -0.400648 0 0 0 
0.427585 -0.0166319 -0.399877 0 0 0 
0.427583 -0.0166316 -0.39906 0 0 0 
0.427426 -0.0166064 -0.398258 0 0 0 
0.427941 -0.0166899 -0.397393 0 0 0 
0.428097 -0.0167149 -0.39656 0 0 0 
0.428563 -0.0167904 -0.395696 0 0 0 
0.429083 -0.0168746 -0.394825 0 0 0 
0.430701 -0.0171365 -0.393839 0 0 0 
0.428308 -0.0167495 -0.393263 0 0 0 
0.43013 -0.0170444 -0.392251 0 0 0 
0.428158 -0.0167254 -0.39164 0 0 0 
0.428369 -0.0167597 -0.390797 0 0 0 
0.429672 -0.0169706 -0.389831 0 0 0 
0.428793 -0.0168285 -0.389107 0 0 0 
0.430677 -0.0171332 -0.388068 0 0 0 
0.430683 -0.0171342 -0.387241 0 0 0 
0.43069 -0.0171355 -0.386414 0 0 0 
0.430435 -0.0170945 -0.385618 0 0 0 
0.430705 -0.0171382 -0.384759 0 0 0 
0.431029 -0.0171906 -0.383891 0 0 0 
0.430513 -0.0171074 -0.383128 0 0 0 
0.430943 -0.0171769 -0.382246 0 0 0 
0.432059 -0.0173575 -0.381271 0 0 0 
0.431017 -0.0171891 -0.380578 0 0 0 
0.432928 -0.0174983 -0.379492 0 0 0 
0.431989 -0.0173464 -0.378787 0 0 0 
0.431633 -0.0172889 -0.378004 0 0 0 
0.432756 -0.0174707 -0.377015 0 0 0 
0.431871 -0.0173278 -0.376307 0 0 0 
0.432255 -0.01739 -0.375419 0 0 0 
0.432377 -0.0174097 -0.374567 0 0 0 
0.433029 -0.0175153 -0.373637 0 0 0 
0.432675 -0.0174581 -0.372853 0 0 0 
0.434502 -0.0177536 -0.371741 0 0 0 
0.4334 -0.0175755 -0.37107 0 0 0 
0.434485 -0.0177512 -0.370064 0 0 0 
0.434558 -0.0177631 -0.369212 0 0 0 
0.434257 -0.0177145 -0.368419 0 0 0 
0.434224 -0.0177093 -0.367584 0 0 0 
0.435209 -0.0178688 -0.366582 0 0 0 
0.435393 -0.0178984 -0.365709 0 0 0 
0.435415 -0.0179021 -0.364861 0 0 0 
0.435224 -0.0178713 -0.364049 0 0 0 
0.437244 -0.0181981 -0.36286 0 0 0 
0.436565 -0.0180884 -0.362128 0 0 0 
0.436428 -0.0180664 -0.361304 0 0 0 
0.436778 -0.0181231 -0.360394 0 0 0 
0.438708 -0.0184352 -0.3592 0 0 0 
0.438571 -0.0184133 -0.358371 0 0 0 
0.438927 -0.018471 -0.357453 0 0 0 
0.438519 -0.018405 -0.356673 0 0 0 
0.438657 -0.0184276 -0.355793 0 0 0 
0.438797 -0.0184502 -0.354912 0 0 0 
0.438555 -0.018411 -0.354102 0 0 0 
0.439297 -0.0185312 -0.353104 0 0 0 
0.439 -0.0184833 -0.352303 0 0 0 
0.439306 -0.018533 -0.351385 0 0 0 
0.439779 -0.0186094 -0.350433 0 0 0 
0.440859 -0.0187845 -0.349358 0 0 0 
0.439682 -0.018594 -0.348732 0 0 0 
0.439497 -0.0185643 -0.347908 0 0 0 
0.439368 -0.0185434 -0.347074 0 0 0 
0.43902 -0.0184872 -0.346285 0 0 0 
0.439771 -0.0186087 -0.345266 0 0 0 
0.439533 -0.0185704 -0.344453 0 0 0 
0.440231 -0.0186835 -0.343441 0 0 0 
0.439499 -0.0185652 -0.342733 0 0 0 
0.439483 -0.0185626 -0.341873 0 0 0 
0.439412 -0.0185513 -0.341023 0 0 0 
0.439563 -0.0185757 -0.340125 0 0 0 
0.439107 -0.0185023 -0.33936 0 0 0 
0.438381 -0.0183849 -0.338658 0 0 0 
0.438861 -0.0184625 -0.337684 0 0 0 
0.439013 -0.0184873 -0.336783 0 0 0 
0.438507 -0.0184054 -0.336033 0 0 0 
0.438714 -0.0184391 -0.335117 0 0 0 
0.438922 -0.018473 -0.334201 0 0 0 
0.438582 -0.0184181 -0.333413 0 0 0 
0.438792 -0.0184521 -0.332494 0 0 0 
0.437249 -0.0182026 -0.331995 0 0 0 
0.437185 -0.0181923 -0.331144 0 0 0 
0.43734 -0.0182175 -0.330238 0 0 0 
0.436949 -0.0181544 -0.329466 0 0 0 
0.436451 -0.018074 -0.328721 0 0 0 
0.436498 -0.0180817 -0.327841 0 0 0 
0.43611 -0.0180191 -0.32707 0 0 0 
0.43529 -0.0178864 -0.32641 0 0 0 
0.434959 -0.017833 -0.325628 0 0 0 
0.433873 -0.0176576 -0.325039 0 0 0 
0.433706 -0.0176307 -0.324217 0 0 0 
0.433003 -0.017517 -0.323535 0 0 0 
0.433374 -0.0175771 -0.322572 0 0 0 
0.43294 -0.0175071 -0.32182 0 0 0 
0.432454 -0.0174286 -0.321084 0 0 0 
0.432237 -0.0173936 -0.320277 0 0 0 
0.432663 -0.0174625 -0.319295 0 0 0 
0.432446 -0.0174276 -0.318486 0 0 0 
0.432177 -0.0173841 -0.317692 0 0 0 
0.432711 -0.0174707 -0.316676 0 0 0 
0.432496 -0.017436 -0.315865 0 0 0 
0.43212 -0.0173753 -0.315101 0 0 0 
0.432388 -0.0174188 -0.314155 0 0 0 
0.432604 -0.0174537 -0.313222 0 0 0 
0.432015 -0.0173586 -0.312519 0 0 0 
0.432392 -0.0174197 -0.311539 0 0 0 
0.43234 -0.0174113 -0.310681 0 0 0 
0.432881 -0.0174989 -0.309648 0 0 0 
0.432238 -0.0173951 -0.308963 0 0 0 
0.432887 -0.0175001 -0.307895 0 0 0 
0.432246 -0.0173965 -0.30721 0 0 0 
0.433004 -0.0175192 -0.306105 0 0 0 
0.432685 -0.0174678 -0.305324 0 0 0 
0.432367 -0.0174165 -0.304542 0 0 0 
0.432266 -0.0174001 -0.303695 0 0 0 
0.432595 -0.0174535 -0.302713 0 0 0 
0.432332 -0.0174111 -0.301915 0 0 0 
0.432879 -0.0174996 -0.300863 0 0 0 
0.43294 -0.0175096 -0.299961 0 0 0 
0.432409 -0.0174238 -0.299247 0 0 0 
0.433228 -0.0175564 -0.298103 0 0 0 
0.433237 -0.0175579 -0.297214 0 0 0 
0.433952 -0.0176736 -0.296097 0 0 0 
0.433636 -0.0176227 -0.295312 0 0 0 
0.43332 -0.0175719 -0.294526 0 0 0 
0.43306 -0.0175299 -0.293723 0 0 0 
0.433018 -0.0175231 -0.292849 0 0 0 
0.434116 -0.0177008 -0.291594 0 0 0 
0.433585 -0.0176149 -0.290881 0 0 0 
0.433543 -0.0176083 -0.290002 0 0 0 
0.433447 -0.017593 -0.289142 0 0 0 
0.434005 -0.0176833 -0.288058 0 0 0 
0.433529 -0.0176064 -0.287327 0 0 0 
0.43387 -0.0176617 -0.286314 0 0 0 
0.433994 -0.0176818 -0.285375 0 0 0 
0.434829 -0.0178171 -0.284186 0 0 0 
0.434791 -0.0178109 -0.2833 0 0 0 
0.434698 -0.017796 -0.282432 0 0 0 
0.434168 -0.0177104 -0.28172 0 0 0 
0.435006 -0.0178461 -0.280519 0 0 0 
0.43497 -0.0178402 -0.279629 0 0 0 
0.435979 -0.0180035 -0.27836 0 0 0 
0.434952 -0.0178376 -0.277826 0 0 0 
0.435191 -0.0178764 -0.276834 0 0 0 
0.434881 -0.0178263 -0.276041 0 0 0 
0.435782 -0.0179721 -0.274801 0 0 0 
0.436576 -0.0181008 -0.273596 0 0 0 
0.436985 -0.0181671 -0.272531 0 0 0 
0.436731 -0.0181259 -0.271713 0 0 0 
0.436587 -0.0181028 -0.270854 0 0 0 
0.437053 -0.0181783 -0.269762 0 0 0 
0.438639 -0.0184349 -0.26824 0 0 0 
0.43872 -0.018448 -0.267288 0 0 0 
0.438296 -0.0183797 -0.26653 0 0 0 
0.438601 -0.0184291 -0.265491 0 0 0 
0.438402 -0.0183971 -0.264645 0 0 0 
0.439326 -0.0185468 -0.263359 0 0 0 
0.439691 -0.0186058 -0.262289 0 0 0 
0.439832 -0.0186286 -0.261305 0 0 0 
0.439183 -0.0185238 -0.260636 0 0 0 
0.44 -0.0186562 -0.25938 0 0 0 
0.440652 -0.0187617 -0.258186 0 0 0 
0.441306 -0.0188676 -0.256988 0 0 0 
0.441223 -0.0188541 -0.256087 0 0 0 
0.441424 -0.0188868 -0.255069 0 0 0 
0.441511 -0.0189011 -0.254095 0 0 0 
0.441486 -0.0188971 -0.253167 0 0 0 
0.442203 -0.0190132 -0.25193 0 0 0 
0.441208 -0.0188523 -0.251404 0 0 0 
0.442784 -0.0191075 -0.249802 0 0 0 
0.442934 -0.0191316 -0.248795 0 0 0 
0.44268 -0.0190909 -0.247955 0 0 0 
0.442428 -0.0190501 -0.247117 0 0 0 
0.442807 -0.0191115 -0.246009 0 0 0 
0.443361 -0.0192012 -0.244822 0 0 0 
0.443224 -0.0191792 -0.243931 0 0 0 
0.442339 -0.0190363 -0.243364 0 0 0 
0.442778 -0.0191074 -0.242222 0 0 0 
0.442758 -0.0191042 -0.241279 0 0 0 
0.442795 -0.0191104 -0.24031 0 0 0 
0.442603 -0.0190793 -0.23944 0 0 0 
0.443333 -0.0191976 -0.238161 0 0 0 
0.441702 -0.0189339 -0.237933 0 0 0 
0.442258 -0.0190239 -0.236729 0 0 0 
0.442239 -0.019021 -0.235781 0 0 0 
0.442452 -0.0190555 -0.234727 0 0 0 
0.442377 -0.0190435 -0.233803 0 0 0 
0.405305 -0.00966927 -0.636566 0 0 0 
0.409896 -0.0103746 -0.637871 0 0 0 
0.411208 -0.0105761 -0.637598 0 0 0 
0.412225 -0.0107325 -0.637181 0 0 0 
0.409743 -0.0103513 -0.635111 0 0 0 
0.409113 -0.0102549 -0.633923 0 0 0 
0.412019 -0.0107013 -0.634388 0 0 0 
0.409394 -0.0102981 -0.632273 0 0 0 
0.405877 -0.0097581 -0.629756 0 0 0 
0.409477 -0.0103112 -0.630532 0 0 0 
0.406498 -0.00985366 -0.628278 0 0 0 
0.408427 -0.01015 -0.628276 0 0 0 
0.408346 -0.0101378 -0.627356 0 0 0 
0.412686 -0.0108045 -0.628435 0 0 0 
0.41011 -0.0104091 -0.626384 0 0 0 
0.408993 -0.0102375 -0.624999 0 0 0 
0.411091 -0.0105599 -0.625052 0 0 0 
0.410811 -0.0105171 -0.624043 0 0 0 
0.411228 -0.0105812 -0.623343 0 0 0 
0.407354 -0.00998639 -0.620756 0 0 0 
0.410473 -0.0104655 -0.621245 0 0 0 
0.410989 -0.0105448 -0.620589 0 0 0 
0.412603 -0.0107929 -0.620407 0 0 0 
0.41108 -0.010559 -0.618866 0 0 0 
0.409963 -0.0103875 -0.617508 0 0 0 
0.410527 -0.0104744 -0.616872 0 0 0 
0.411839 -0.0106759 -0.616553 0 0 0 
0.411215 -0.0105801 -0.615411 0 0 0 
0.411435 -0.0106141 -0.614626 0 0 0 
0.411804 -0.0106711 -0.613905 0 0 0 
0.41478 -0.0111281 -0.614269 0 0 0 
0.413796 -0.0109772 -0.612979 0 0 0 
0.413969 -0.0110039 -0.612172 0 0 0 
0.413191 -0.0108845 -0.610975 0 0 0 
0.413014 -0.0108575 -0.610027 0 0 0 
0.413038 -0.0108612 -0.609162 0 0 0 
0.413912 -0.0109956 -0.60864 0 0 0 
0.415342 -0.0112155 -0.608342 0 0 0 
0.41391 -0.0109955 -0.606892 0 0 0 
0.415341 -0.0112154 -0.606588 0 0 0 
0.41396 -0.0110034 -0.605166 0 0 0 
0.415239 -0.0112001 -0.604797 0 0 0 
0.415516 -0.0112427 -0.604033 0 0 0 
0.415895 -0.0113009 -0.603307 0 0 0 
0.41592 -0.011305 -0.602443 0 0 0 
0.415091 -0.0111778 -0.601251 0 0 0 
0.41552 -0.0112438 -0.600545 0 0 0 
0.418382 -0.0116836 -0.600767 0 0 0 
0.417697 -0.0115784 -0.599632 0 0 0 
0.417318 -0.0115203 -0.598615 0 0 0 
0.418005 -0.011626 -0.598002 0 0 0 
0.417678 -0.0115757 -0.597007 0 0 0 
0.417148 -0.0114946 -0.59594 0 0 0 
0.417632 -0.011569 -0.59525 0 0 0 
0.420468 -0.0120047 -0.595422 0 0 0 
0.420034 -0.0119383 -0.594389 0 0 0 
0.419092 -0.0117937 -0.593174 0 0 0 
0.421018 -0.0120894 -0.592999 0 0 0 
0.420123 -0.0119522 -0.591805 0 0 0 
0.42005 -0.0119411 -0.590909 0 0 0 
0.421055 -0.0120957 -0.590396 0 0 0 
0.42083 -0.0120611 -0.589445 0 0 0 
0.421735 -0.0122003 -0.588893 0 0 0 
0.421149 -0.0121103 -0.587818 0 0 0 
0.421334 -0.012139 -0.587013 0 0 0 
0.422501 -0.0123183 -0.586547 0 0 0 
0.421193 -0.0121175 -0.585228 0 0 0 
0.422049 -0.0122491 -0.584653 0 0 0 
0.422805 -0.0123653 -0.584041 0 0 0 
0.421755 -0.0122042 -0.582819 0 0 0 
0.422871 -0.0123758 -0.582327 0 0 0 
0.422957 -0.0123892 -0.581489 0 0 0 
0.423769 -0.0125139 -0.58089 0 0 0 
0.423699 -0.0125033 -0.579999 0 0 0 
0.424566 -0.0126366 -0.579416 0 0 0 
0.425227 -0.0127383 -0.578763 0 0 0 
0.425159 -0.0127278 -0.577871 0 0 0 
0.426661 -0.0129586 -0.577486 0 0 0 
0.425648 -0.0128033 -0.576293 0 0 0 
0.426208 -0.0128894 -0.575604 0 0 0 
0.42588 -0.012839 -0.574632 0 0 0 
0.42644 -0.0129253 -0.573941 0 0 0 
0.426374 -0.0129151 -0.573053 0 0 0 
0.426778 -0.0129775 -0.572312 0 0 0 
0.428714 -0.0132751 -0.57204 0 0 0 
0.428489 -0.0132405 -0.571103 0 0 0 
0.42837 -0.0132223 -0.570198 0 0 0 
0.428093 -0.0131799 -0.569247 0 0 0 
0.429934 -0.0134628 -0.568932 0 0 0 
0.430773 -0.0135919 -0.568312 0 0 0 
0.429538 -0.0134021 -0.567077 0 0 0 
0.430216 -0.0135066 -0.566409 0 0 0 
0.431111 -0.0136441 -0.565802 0 0 0 
0.430248 -0.0135115 -0.564683 0 0 0 
0.430556 -0.013559 -0.563905 0 0 0 
0.431399 -0.0136888 -0.563279 0 0 0 
0.4323 -0.0138272 -0.562667 0 0 0 
0.432237 -0.0138175 -0.56178 0 0 0 
0.432603 -0.013874 -0.561015 0 0 0 
0.43367 -0.0140381 -0.560443 0 0 0 
0.434364 -0.0141447 -0.559765 0 0 0 
0.432631 -0.0138787 -0.558421 0 0 0 
0.432677 -0.0138859 -0.557567 0 0 0 
0.433531 -0.0140171 -0.556931 0 0 0 
0.433255 -0.0139749 -0.555991 0 0 0 
0.434922 -0.0142311 -0.555568 0 0 0 
0.435295 -0.0142885 -0.554799 0 0 0 
0.434965 -0.0142379 -0.553844 0 0 0 
0.43496 -0.0142372 -0.552975 0 0 0 
0.435986 -0.014395 -0.552373 0 0 0 
0.435602 -0.0143361 -0.551408 0 0 0 
0.436468 -0.0144692 -0.55076 0 0 0 
0.436302 -0.0144437 -0.549851 0 0 0 
0.436462 -0.0144685 -0.549024 0 0 0 
0.436732 -0.0145101 -0.548225 0 0 0 
0.437003 -0.0145518 -0.547425 0 0 0 
0.437056 -0.0145601 -0.546572 0 0 0 
0.437437 -0.0146188 -0.545799 0 0 0 
0.437546 -0.0146356 -0.544958 0 0 0 
0.43771 -0.014661 -0.544131 0 0 0 
0.438258 -0.0147452 -0.543395 0 0 0 
0.437547 -0.0146361 -0.542363 0 0 0 
0.438589 -0.0147964 -0.541741 0 0 0 
0.439361 -0.014915 -0.541054 0 0 0 
0.439583 -0.0149493 -0.540238 0 0 0 
0.438816 -0.0148316 -0.539198 0 0 0 
0.439534 -0.014942 -0.538495 0 0 0 
0.439208 -0.014892 -0.537557 0 0 0 
0.439597 -0.014952 -0.536779 0 0 0 
