0.450151,-0.0216478,0.00879415,174
0.450547,-0.0217171,0.00962621,176
0.450257,-0.0216696,0.0104424,178
0.450178,-0.0216582,0.0112634,178
0.450524,-0.0217188,0.0120965,188
0.450288,-0.0216806,0.0129129,182
0.450741,-0.0217595,0.0137512,178
0.450189,-0.0216675,0.0145564,179
0.45059,-0.0217375,0.0153944,180
0.449458,-0.0215472,0.0161752,181
0.448963,-0.021465,0.0169774,181
0.449522,-0.0215618,0.0178224,185
0.450719,-0.021767,0.0186978,181
0.450541,-0.0217386,0.0195145,187
0.449148,-0.021504,0.0202726,184
0.449289,-0.0215297,0.0211018,185
0.450487,-0.0217351,0.0219863,189
0.448623,-0.0214204,0.0227116,190
0.448607,-0.0214195,0.0235324,192
0.448329,-0.0213742,0.0243382,196
0.448367,-0.0213825,0.0251619,199
0.447985,-0.0213195,0.0259602,200
0.447553,-0.0212479,0.0267541,195
0.44754,-0.0212476,0.0275737,199
0.446692,-0.0211055,0.0283377,190
0.446993,-0.0211585,0.0291775,190
0.445422,-0.0208934,0.0298868,194
0.444532,-0.0207441,0.0306396,191
0.444419,-0.0207268,0.0314468,189
0.443946,-0.0206482,0.0322264,186
0.443731,-0.0206136,0.0330246,178
0.44239,-0.0203876,0.0337322,181
0.443715,-0.0206146,0.0346528,182
0.443965,-0.020659,0.0354888,189
0.44329,-0.0205461,0.0362469,182
0.443387,-0.0205644,0.0370701,181
0.44369,-0.0206178,0.0379122,182
0.443839,-0.020645,0.0387417,180
0.443887,-0.0206549,0.0395626,181
0.443729,-0.0206299,0.0403643,185
0.443622,-0.0206138,0.0411707,181
0.443877,-0.020659,0.0420126,183
0.443567,-0.020608,0.0427989,180
0.443925,-0.0206709,0.0436528,185
0.444286,-0.020734,0.0445085,178
0.444079,-0.0207008,0.0453056,181
0.444028,-0.020694,0.0461189,179
0.444339,-0.0207486,0.0469722,180
0.44434,-0.0207508,0.0477924,182
0.444446,-0.0207706,0.0486246,180
0.445745,-0.0209933,0.0495957,179
0.446686,-0.0211553,0.05053,184
0.445025,-0.0208747,0.051157,184
0.445497,-0.0209568,0.052037,180
0.445139,-0.0208978,0.0528167,176
0.444885,-0.0208566,0.0536085,172
0.444995,-0.0208771,0.0544459,180
0.445365,-0.020942,0.0553176,179
0.446728,-0.0211756,0.056321,184
0.446527,-0.0211434,0.0571222,179
0.447007,-0.0212268,0.0580146,184
0.447121,-0.0212482,0.0588593,183
0.447446,-0.0213053,0.059734,184
0.447667,-0.0213448,0.0605956,179
0.447731,-0.0213575,0.0614361,182
0.447953,-0.0213973,0.0623001,184
0.44844,-0.021482,0.0632039,178
0.448611,-0.0215131,0.0640633,179
0.448203,-0.0214456,0.0648367,178
0.447954,-0.0214051,0.0656331,176
0.449449,-0.0216613,0.0666972,180
0.448723,-0.0215398,0.0674216,183
0.449004,-0.0215894,0.0683022,184
0.450189,-0.021793,0.0693287,179
0.449516,-0.0216803,0.0700599,185
0.450598,-0.0218664,0.071076,182
0.449765,-0.0217266,0.0717798,182
0.451118,-0.0219587,0.0728465,178
0.451085,-0.0219549,0.0736843,181
0.451052,-0.0219513,0.0745225,182
0.451609,-0.0220481,0.0754631,182
0.452007,-0.0221178,0.0763784,181
0.452192,-0.022151,0.0772578,178
0.453403,-0.022359,0.078322,180
0.452886,-0.0222731,0.0790791,178
0.45329,-0.0223437,0.0800027,179
0.4544,-0.0225347,0.0810588,179
0.453666,-0.0224117,0.0817757,179
0.454508,-0.0225569,0.0827871,172
0.454972,-0.0226378,0.0837302,173
0.454837,-0.0226167,0.0845605,174
0.456618,-0.022922,0.085763,170
0.455059,-0.0226585,0.0863174,172
0.455253,-0.0226935,0.0872138,173
0.455174,-0.0226821,0.0880568,170
0.455151,-0.0226801,0.0889111,173
0.455238,-0.0226968,0.0897883,168
0.45527,-0.0227043,0.0906552,175
0.454975,-0.022656,0.0914547,171
0.455118,-0.0226823,0.0923454,171
0.454933,-0.0226529,0.0931678,175
0.455516,-0.022754,0.0941539,172
0.454511,-0.022585,0.0948008,171
0.454766,-0.0226302,0.095718,170
0.454857,-0.0226477,0.096601,173
0.454839,-0.0226467,0.0974607,176
0.454712,-0.0226271,0.0982966,176
0.455024,-0.0226821,0.0992313,171
0.454625,-0.0226161,0.100006,180
0.455047,-0.02269,0.100968,183
0.454977,-0.0226801,0.101819,176
0.454525,-0.0226051,0.102581,174
0.454347,-0.0225767,0.103406,176
0.453787,-0.0224834,0.104141,177
0.453611,-0.0224554,0.104965,178
0.453489,-0.0224366,0.105803,177
0.453477,-0.0224366,0.106667,172
0.453302,-0.0224088,0.107492,171
0.453128,-0.0223811,0.108317,177
0.452302,-0.0222424,0.10898,178
0.452184,-0.0222242,0.109817,185
0.451687,-0.0221415,0.110559,177
0.451731,-0.0221512,0.111438,180
0.450535,-0.0219493,0.111999,176
0.450096,-0.0218765,0.112752,176
0.44939,-0.0217583,0.113434,171
0.449382,-0.021759,0.114297,171
0.449483,-0.021778,0.115189,167
0.449422,-0.0217697,0.11604,172
0.449202,-0.0217341,0.116848,168
0.449089,-0.0217168,0.117684,168
0.448976,-0.0216997,0.118522,163
0.448972,-0.0217008,0.119388,168
0.448432,-0.0216109,0.120108,161
0.448749,-0.0216669,0.121065,168
0.448211,-0.0215772,0.121783,165
0.448315,-0.0215969,0.122682,164
0.448901,-0.0216988,0.123719,163
0.44847,-0.0216274,0.124467,164
0.448094,-0.0215653,0.125231,159
0.448307,-0.0216036,0.126164,161
0.448521,-0.021642,0.127099,167
0.448413,-0.0216257,0.127941,161
0.448628,-0.0216643,0.128879,156
0.448361,-0.0216207,0.129675,158
0.449006,-0.0217328,0.130744,157
0.447935,-0.0215522,0.131298,159
0.448849,-0.02171,0.132452,157
0.448583,-0.0216667,0.133249,153
0.448747,-0.0216967,0.134179,152
0.448966,-0.021736,0.135127,154
0.449024,-0.0217479,0.136026,154
0.448975,-0.0217415,0.136892,163
0.448872,-0.021726,0.137742,157
0.449795,-0.0218854,0.138918,151
0.450018,-0.0219254,0.139875,154
0.449971,-0.0219193,0.140747,156
0.450195,-0.0219595,0.141706,150
0.449174,-0.0217875,0.142262,156
0.449885,-0.0219108,0.143382,153
0.449893,-0.0219143,0.144275,158
0.449523,-0.0218531,0.145042,156
0.449424,-0.0218383,0.145898,152
0.449758,-0.0218974,0.146902,156
0.44901,-0.0217719,0.147541,157
0.45005,-0.0219513,0.148786,153
0.450007,-0.0219459,0.149665,154
0.450454,-0.0220242,0.150714,156
0.450085,-0.0219633,0.151483,154
0.451024,-0.0221255,0.152707,150
0.450764,-0.0220832,0.153515,149
0.450777,-0.0220876,0.154419,145
0.450627,-0.0220641,0.155266,149
0.451134,-0.0221525,0.156347,145
0.451313,-0.0221851,0.157314,147
0.451054,-0.0221431,0.158125,152
0.451015,-0.0221384,0.159014,146
0.451415,-0.0222087,0.160065,143
0.451651,-0.0222511,0.161058,145
0.451998,-0.0223124,0.162094,140
0.452402,-0.0223833,0.163153,142
0.45231,-0.0223697,0.164029,144
0.452273,-0.0223655,0.164927,145
0.454455,-0.02274,0.166662,135
0.454086,-0.022679,0.167439,139
0.452884,-0.0224761,0.167899,134
0.453293,-0.0225479,0.168972,131
0.453926,-0.022658,0.170133,127
0.454338,-0.0227304,0.171212,132
0.454025,-0.0226792,0.172012,125
0.455054,-0.0228568,0.173337,132
0.455414,-0.0229204,0.174403,125
0.455944,-0.0230129,0.175539,130
0.455518,-0.0229425,0.176298,122
0.454758,-0.0228148,0.176922,120
0.455963,-0.0230225,0.178334,119
0.456496,-0.0231158,0.17948,121
0.457202,-0.0232384,0.1807,115
0.456098,-0.023052,0.181184,112
0.457825,-0.023349,0.182827,107
0.456945,-0.0232009,0.183402,115
0.457427,-0.0232854,0.184539,113
0.457456,-0.0232925,0.185491,113
0.458055,-0.0233969,0.186682,113
0.458371,-0.0234529,0.187757,118
0.458402,-0.0234603,0.188714,114
0.459292,-0.0236145,0.190037,117
0.459899,-0.0237204,0.191244,112
0.458496,-0.023483,0.191592,126
0.459389,-0.0236376,0.192925,115
0.459538,-0.0236651,0.19394,114
0.459054,-0.0235847,0.194681,116
0.458686,-0.023524,0.195472,120
0.459064,-0.0235909,0.19659,118
0.459042,-0.0235892,0.197534,110
0.458559,-0.023509,0.198275,107
0.457907,-0.0233997,0.198938,111
0.458286,-0.0234667,0.200062,110
0.458092,-0.0234358,0.200931,113
0.457899,-0.023405,0.2018,134
0.458108,-0.0234428,0.202852,107
0.457801,-0.0233926,0.203671,112
0.45847,-0.0235091,0.204937,110
0.431854,-0.0146409,-0.204352,9
0.428827,-0.014157,-0.201992,19
0.425253,-0.013585,-0.199384,10
0.430311,-0.0143994,-0.200896,14
0.423608,-0.0133249,-0.196821,10
0.428223,-0.0140681,-0.198108,11
0.424371,-0.0134515,-0.195405,18
0.427002,-0.0138762,-0.195746,14
0.423274,-0.0132794,-0.193122,16
0.427278,-0.0139246,-0.194091,14
0.423207,-0.0132727,-0.191326,13
0.425772,-0.0136867,-0.19162,15
0.423678,-0.0133523,-0.189779,13
0.422866,-0.0132239,-0.18853,14
0.424492,-0.0134871,-0.188387,21
0.429363,-0.0142717,-0.189698,14
0.427036,-0.0139,-0.187766,15
0.425081,-0.0135878,-0.18601,16
0.425098,-0.0135926,-0.185139,15
0.426839,-0.0138743,-0.185029,17
0.426757,-0.0138632,-0.184112,17
0.426972,-0.0138997,-0.183326,19
0.429476,-0.0143041,-0.183536,19
0.429994,-0.0143894,-0.182876,17
0.430514,-0.0144748,-0.182216,12
0.426256,-0.0137927,-0.179505,12
0.429298,-0.0142835,-0.179929,18
0.428967,-0.0142324,-0.178908,18
0.426265,-0.0138001,-0.176887,19
0.428807,-0.0142106,-0.177083,18
0.42828,-0.0141279,-0.175986,22
0.428548,-0.014173,-0.175222,21
0.427924,-0.0140747,-0.174089,23
0.430583,-0.0145042,-0.174313,23
0.429654,-0.0143568,-0.173054,23
0.431226,-0.0146115,-0.172821,25
0.430745,-0.0145362,-0.171749,26
0.431771,-0.014703,-0.171288,22
0.429889,-0.0144026,-0.169655,28
0.431261,-0.0146251,-0.169332,27
0.430932,-0.0145743,-0.168327,27
0.430555,-0.0145156,-0.167305,29
0.430528,-0.0145132,-0.166423,24
0.431853,-0.0147283,-0.166072,32
0.430874,-0.0145729,-0.164818,33
0.432302,-0.0148044,-0.164503,33
0.432829,-0.0148912,-0.163834,37
0.4325,-0.0148403,-0.162837,37
0.432223,-0.0147977,-0.16186,38
0.43265,-0.0148684,-0.161153,36
0.432072,-0.0147774,-0.160066,34
0.433355,-0.0149858,-0.15968,33
0.433784,-0.0150568,-0.158972,38
0.433204,-0.0149655,-0.157887,39
0.435002,-0.0152566,-0.157684,37
0.434723,-0.0152138,-0.156711,32
0.435359,-0.0153181,-0.156075,39
0.435641,-0.0153653,-0.155307,38
0.43521,-0.015298,-0.154282,33
0.435746,-0.0153862,-0.153607,38
0.436334,-0.0154829,-0.152949,38
0.436567,-0.0155222,-0.152163,37
0.436391,-0.0154959,-0.151233,52
0.436317,-0.0154861,-0.15034,46
0.436346,-0.0154927,-0.149484,44
0.437398,-0.0156639,-0.148983,42
0.436609,-0.015539,-0.147844,48
0.43833,-0.0158178,-0.14757,46
0.438514,-0.0158494,-0.146765,49
0.437979,-0.0157654,-0.145717,50
0.439142,-0.0159544,-0.145243,44
0.438915,-0.0159199,-0.1443,48
0.439772,-0.0160599,-0.14372,56
0.439082,-0.0159507,-0.142625,49
0.438497,-0.0158585,-0.141567,47
0.439456,-0.0160148,-0.141018,45
0.441042,-0.0162721,-0.140669,49
0.439883,-0.0160876,-0.139429,47
0.440797,-0.0162366,-0.138858,54
0.440727,-0.0162274,-0.137971,54
0.441749,-0.0163938,-0.137431,51
0.442461,-0.0165104,-0.13679,47
0.44281,-0.0165685,-0.136033,48
0.443002,-0.0166014,-0.135227,52
0.443667,-0.0167104,-0.134567,56
0.442969,-0.0166001,-0.133486,56
0.442223,-0.016482,-0.132394,59
0.442729,-0.0165655,-0.131686,62
0.443289,-0.0166576,-0.130992,63
0.443851,-0.01675,-0.130297,62
0.444099,-0.0167919,-0.129507,62
0.445454,-0.0170121,-0.129044,58
0.446234,-0.0171396,-0.128407,55
0.446379,-0.0171649,-0.127583,54
0.447109,-0.0172845,-0.126928,63
0.445612,-0.0170454,-0.125631,67
0.446606,-0.0172073,-0.125052,66
0.446859,-0.0172501,-0.124259,62
0.447538,-0.0173615,-0.123586,63
0.449666,-0.0177062,-0.123315,60
0.448102,-0.0174562,-0.122013,63
0.448572,-0.0175339,-0.121277,59
0.448829,-0.0175773,-0.120482,62
0.447912,-0.0174315,-0.119368,57
0.449184,-0.0176385,-0.118849,66
0.450088,-0.0177859,-0.118226,64
0.449757,-0.0177346,-0.117272,62
0.452123,-0.0181177,-0.117032,70
0.450117,-0.0177965,-0.115638,72
0.450324,-0.017832,-0.114828,73
0.451018,-0.0179456,-0.114143,75
0.450795,-0.0179118,-0.113222,82
0.451599,-0.0180432,-0.112562,84
0.452297,-0.0181577,-0.111873,82
0.452943,-0.0182638,-0.11117,85
0.452721,-0.0182299,-0.110249,85
0.451687,-0.0180654,-0.109129,79
0.453038,-0.018285,-0.108597,78
0.453361,-0.018339,-0.10781,80
0.453413,-0.0183493,-0.106958,81
0.453682,-0.0183947,-0.106158,88
0.454062,-0.0184579,-0.105384,90
0.455429,-0.0186801,-0.10484,94
0.453896,-0.018435,-0.103617,89
0.454605,-0.0185513,-0.102918,98
0.455426,-0.0186856,-0.102242,97
0.455701,-0.0187319,-0.10144,103
0.455372,-0.0186809,-0.100501,97
0.455045,-0.0186301,-0.0995647,100
0.455047,-0.0186324,-0.0987027,98
0.454503,-0.0185467,-0.0977218,96
0.454998,-0.0186284,-0.0969688,97
0.455001,-0.018631,-0.0961088,99
0.455608,-0.0187307,-0.0953778,99
0.455941,-0.0187864,-0.0945874,100
0.456276,-0.0188423,-0.0937964,93
0.455623,-0.0187391,-0.0927998,105
0.456838,-0.0189369,-0.0921899,109
0.45602,-0.018807,-0.0911621,112
0.455753,-0.0187659,-0.0902491,106
0.456695,-0.0189196,-0.0895788,109
0.456593,-0.0189052,-0.0886991,114
0.456547,-0.0188998,-0.0878312,117
0.456997,-0.0189742,-0.08706,112
0.457007,-0.0189778,-0.0862032,114
0.456577,-0.0189105,-0.0852633,114
0.456698,-0.018932,-0.084429,113
0.45693,-0.0189714,-0.0836154,115
0.456503,-0.0189044,-0.0826799,116
0.456406,-0.0188908,-0.0818067,114
0.456036,-0.018833,-0.080885,113
0.456434,-0.0188992,-0.0801023,119
0.45601,-0.0188328,-0.0791734,124
0.456299,-0.0188814,-0.078371,119
0.456315,-0.0188859,-0.0775208,122
0.455949,-0.0188287,-0.0766055,120
0.455583,-0.0187717,-0.0756923,124
0.455929,-0.0188294,-0.0748997,120
0.455129,-0.0187023,-0.0739169,126
0.455365,-0.0187424,-0.0731069,126
0.455058,-0.0186948,-0.0722085,120
0.454806,-0.0186561,-0.0713206,125
0.454555,-0.0186175,-0.0704342,124
0.45474,-0.0186492,-0.0696168,125
0.454219,-0.0185671,-0.0686908,126
0.453484,-0.0184505,-0.0677346,128
0.453669,-0.0184823,-0.0669195,128
0.453477,-0.0184532,-0.0660481,133
0.453555,-0.0184677,-0.0652174,132
0.452987,-0.018378,-0.0642936,134
0.453498,-0.0184623,-0.0635257,130
0.452178,-0.0182514,-0.0624994,133
0.451883,-0.0182057,-0.0616203,142
0.451162,-0.0180912,-0.0606844,135
0.45119,-0.0180976,-0.0598525,134
0.451058,-0.0180783,-0.0589996,132
0.450661,-0.018016,-0.0581128,136
0.450478,-0.0179884,-0.0572554,132
0.450721,-0.0180295,-0.0564531,135
0.450167,-0.017942,-0.0555505,135
0.4484,-0.0176587,-0.0545009,141
0.448063,-0.0176063,-0.0536318,139
0.447571,-0.0175287,-0.0527456,143
0.447289,-0.0174851,-0.0518864,140
0.44727,-0.017484,-0.0510589,143
0.446312,-0.0173311,-0.0501249,144
0.44567,-0.0172294,-0.0492302,138
0.445809,-0.0172537,-0.0484241,141
0.445377,-0.0171859,-0.047556,138
0.444688,-0.0170766,-0.0466625,142
0.444209,-0.017001,-0.0457937,148
0.443473,-0.0168841,-0.0449008,139
0.444181,-0.0170002,-0.0441559,138
0.442985,-0.016809,-0.0432208,145
0.442563,-0.0167427,-0.0423654,143
0.442347,-0.0167096,-0.0415313,146
0.442642,-0.0167593,-0.0407459,149
0.442019,-0.0166604,-0.0398758,142
0.441805,-0.0166277,-0.0390449,148
0.441643,-0.0166034,-0.0382195,143
0.442093,-0.016678,-0.0374472,143
0.441677,-0.0166126,-0.036601,139
0.442384,-0.0167287,-0.0358484,145
0.442019,-0.0166716,-0.0350077,142
0.443036,-0.0168377,-0.0342763,141
0.442211,-0.0167064,-0.0334012,142
0.442564,-0.0167651,-0.0326167,149
0.443379,-0.0168986,-0.0318644,153
0.442606,-0.0167757,-0.0309975,153
0.44332,-0.0168928,-0.0302355,152
0.442958,-0.0168362,-0.0293994,152
0.443622,-0.0169454,-0.0286312,153
0.442953,-0.0168392,-0.0277768,156
0.443157,-0.016874,-0.0269783,155
0.442542,-0.0167765,-0.0261308,155
0.444029,-0.0170186,-0.0254061,158
0.443516,-0.0169375,-0.0245652,164
0.444082,-0.0170309,-0.0237841,158
0.443621,-0.0169582,-0.0229479,158
0.444344,-0.0170768,-0.0221725,158
0.444243,-0.0170625,-0.0213551,162
0.443989,-0.0170233,-0.0205311,156
0.44487,-0.0171674,-0.0197582,163
0.44441,-0.0170949,-0.0189256,163
0.444055,-0.0170394,-0.0180989,162
0.444112,-0.0170505,-0.0172896,166
0.444015,-0.0170367,-0.0164745,168
0.444022,-0.0170397,-0.0156635,166
0.444751,-0.0171594,-0.0148762,169
0.445328,-0.0172544,-0.0140816,167
0.445595,-0.0172995,-0.0132758,173
0.445501,-0.0172861,-0.0124593,168
0.445718,-0.0173231,-0.0116511,173
0.445884,-0.0173518,-0.0108409,172
0.445844,-0.0173471,-0.0100257,172
0.445648,-0.0173173,-0.00920768,168
0.445764,-0.017338,-0.00839596,172
0.445777,-0.0173419,-0.0075822,167
0.445998,-0.0173795,-0.00677136,167
0.446064,-0.0173921,-0.00595783,169
0.446547,-0.0174719,-0.00514839,170
0.44625,-0.0174258,-0.00433054,168
0.447621,-0.0176494,-0.00352486,170
0.447952,-0.0177048,-0.00270912,175
0.447656,-0.0176587,-0.00189034,178
0.447517,-0.0176381,-0.00107282,175
0.448059,-0.0177275,-0.000255232,175
0.447711,-0.0176733,0.000561953,173
0.448098,-0.0177376,0.00138124,176
0.448013,-0.0177258,0.00219894,175
0.448087,-0.0177396,0.00301766,178
0.448108,-0.0177449,0.00383616,175
0.44876,-0.0178523,0.00466242,176
0.448573,-0.0178239,0.0054794,176
0.448229,-0.0177701,0.00629324,172
0.448621,-0.0178354,0.00711889,181
0.449014,-0.0179008,0.00794609,174
0.449039,-0.0179068,0.00876691,182
0.449224,-0.0179384,0.0095916,182
0.449092,-0.0179191,0.0104091,178
0.44912,-0.0179254,0.0112304,179
0.449148,-0.0179318,0.012052,176
0.450603,-0.0181691,0.0129178,175
0.450262,-0.0181158,0.0137303,179
0.450451,-0.0181482,0.01456,184
0.45027,-0.0181208,0.015377,179
0.450513,-0.018162,0.0162097,178
0.449381,-0.0179808,0.0169881,181
0.449466,-0.0179965,0.0178135,186
0.449922,-0.0180721,0.0186558,190
0.449691,-0.0180367,0.0194683,187
0.449673,-0.0180355,0.0202903,185
0.448706,-0.017881,0.0210652,184
0.448952,-0.0179227,0.0218991,185
0.448725,-0.0178878,0.0227088,191
0.448972,-0.0179296,0.023544,190
0.448588,-0.0178694,0.0243443,191
0.448153,-0.0178009,0.0251402,192
0.448034,-0.0177835,0.0259538,193
0.447863,-0.0177577,0.026764,192
0.44806,-0.0177914,0.0275974,195
0.447628,-0.0177234,0.0283899,192
0.447668,-0.0177319,0.0292133,188
0.44578,-0.0174281,0.0299014,185
0.44749,-0.0177067,0.0308423,188
0.444982,-0.0173026,0.0314774,185
0.444404,-0.017211,0.0322499,185
0.444292,-0.0171947,0.0330567,175
0.443357,-0.0170452,0.0337976,179
0.444121,-0.0171708,0.0346739,179
0.445562,-0.0174059,0.0356097,181
0.444262,-0.0171973,0.0363172,184
0.444514,-0.01724,0.0371555,182
0.444612,-0.0172577,0.0379812,186
0.444091,-0.0171752,0.0387511,181
0.444087,-0.0171764,0.0395674,182
0.443928,-0.0171526,0.0403692,177
0.444441,-0.0172376,0.0412356,176
0.444594,-0.0172641,0.0420686,180
0.445058,-0.0173411,0.0429338,175
0.445576,-0.0174268,0.0438065,181
0.447192,-0.0176904,0.0447959,181
0.444797,-0.0173045,0.0453659,179
0.446617,-0.0176011,0.0463826,173
0.444643,-0.0172833,0.0469893,178
0.444852,-0.017319,0.0478329,174
0.446153,-0.0175316,0.0488018,180
0.445272,-0.0173908,0.0495236,179
0.447153,-0.0176973,0.0505669,175
0.447157,-0.0176998,0.0513935,182
0.447162,-0.0177025,0.0522206,178
0.446905,-0.0176629,0.0530158,178
0.447173,-0.0177082,0.053876,177
0.447495,-0.0177621,0.0547442,179
0.446977,-0.0176802,0.0555059,178
0.447405,-0.0177513,0.0563895,178
0.448518,-0.0179336,0.0573662,176
0.447475,-0.0177664,0.058057,178
0.449383,-0.0180775,0.0591472,177
0.448442,-0.0179269,0.0598506,176
0.448084,-0.0178708,0.0606326,179
0.449205,-0.0180543,0.0616238,177
0.448318,-0.0179126,0.0623305,174
0.4487,-0.0179764,0.0632193,175
0.44882,-0.0179976,0.0640711,178
0.449469,-0.0181048,0.0650032,180
0.449113,-0.018049,0.0657855,180
0.450937,-0.0183465,0.0669018,179
0.449834,-0.0181696,0.0675701,180
0.450916,-0.018347,0.0685789,173
0.450987,-0.0183604,0.0694308,180
0.450684,-0.0183132,0.0702232,183
0.450649,-0.0183095,0.0710585,178
0.451632,-0.0184707,0.0720622,180
0.451813,-0.0185019,0.0729361,178
0.451833,-0.0185071,0.073784,175
0.45164,-0.0184777,0.0745958,175
0.453657,-0.0188066,0.0757894,177
0.452976,-0.0186982,0.0765197,176
0.452837,-0.0186776,0.0773436,178
0.453185,-0.0187359,0.0782543,182
0.455112,-0.0190501,0.0794518,178
0.454973,-0.0190297,0.0802804,186
0.455327,-0.019089,0.0811996,180
0.454917,-0.0190244,0.0819784,179
0.455053,-0.0190485,0.082859,175
0.45519,-0.0190727,0.0837406,179
0.454946,-0.0190349,0.08455,182
0.455686,-0.0191569,0.0855499,175
0.455387,-0.0191104,0.0863496,181
0.455691,-0.0191617,0.087268,171
0.456161,-0.0192398,0.0882211,173
0.457239,-0.0194167,0.0892993,178
0.45606,-0.0192274,0.0899224,172
0.455873,-0.0191991,0.0907454,174
0.455742,-0.0191797,0.0915798,173
0.455392,-0.0191249,0.0923683,169
0.45614,-0.0192482,0.0933882,173
0.4559,-0.0192113,0.0942008,169
0.456596,-0.0193262,0.0952144,170
0.455862,-0.0192091,0.0959206,169
0.455844,-0.0192081,0.0967813,176
0.455771,-0.0191983,0.0976305,178
0.455919,-0.0192242,0.0985292,176
0.455462,-0.0191522,0.099293,174
0.454734,-0.019036,0.0999938,175
0.455211,-0.0191154,0.100968,175
0.455361,-0.0191417,0.10187,173
0.454853,-0.0190612,0.102619,173
0.455058,-0.0190965,0.103535,176
0.455264,-0.019132,0.104452,174
0.454922,-0.0190785,0.105239,175
0.455129,-0.0191141,0.106158,178
0.453585,-0.0188655,0.106654,179
0.453519,-0.0188567,0.107505,172
0.453672,-0.0188835,0.108411,175
0.453279,-0.0188218,0.109182,170
0.452779,-0.0187427,0.109926,178
0.452824,-0.0187519,0.110806,177
0.452434,-0.0186907,0.111576,181
0.451612,-0.0185592,0.112234,182
0.451279,-0.0185072,0.113016,177
0.450192,-0.0183328,0.113602,173
0.450023,-0.0183074,0.114424,177
0.449318,-0.0181949,0.115104,173
0.449687,-0.0182567,0.116068,171
0.449251,-0.018188,0.116819,168
0.448763,-0.0181108,0.117554,163
0.448544,-0.0180772,0.118361,166
0.448967,-0.0181479,0.119344,168
0.448748,-0.0181144,0.120152,161
0.448477,-0.0180723,0.120946,162
0.449009,-0.0181607,0.121963,162
0.448792,-0.0181274,0.122773,164
0.448414,-0.0180681,0.123536,161
0.44868,-0.0181132,0.124483,163
0.448893,-0.0181498,0.125416,159
0.448302,-0.0180559,0.126118,155
0.448677,-0.0181187,0.127099,152
0.448623,-0.0181119,0.127957,158
0.449161,-0.0182013,0.128991,159
0.448517,-0.0180987,0.129675,159
0.449163,-0.0182056,0.130744,158
0.44852,-0.0181032,0.131428,157
0.449275,-0.0182278,0.132534,162
0.448955,-0.0181778,0.133315,157
0.448635,-0.0181279,0.134096,154
0.448531,-0.018113,0.134943,153
0.448858,-0.0181681,0.135925,151
0.448593,-0.0181271,0.136723,151
0.449137,-0.0182175,0.137776,154
0.449196,-0.0182291,0.138678,156
0.448663,-0.0181445,0.139391,159
0.449479,-0.0182791,0.140537,152
0.449486,-0.0182822,0.141426,153
0.450198,-0.0183999,0.142544,157
0.44988,-0.0183503,0.143329,153
0.449563,-0.0183009,0.144114,151
0.449301,-0.0182604,0.144916,152
0.449256,-0.0182551,0.14579,150
0.450351,-0.018435,0.147048,148
0.449818,-0.0183504,0.14776,146
0.449774,-0.0183453,0.148638,151
0.449676,-0.0183315,0.149498,150
0.450231,-0.0184237,0.150583,154
0.449754,-0.0183481,0.151313,149
0.450092,-0.0184052,0.152327,146
0.450214,-0.018427,0.153266,151
0.451046,-0.0185643,0.154457,148
0.451005,-0.0185597,0.155343,152
0.45091,-0.0185463,0.156211,147
0.450379,-0.018462,0.156922,148
0.451214,-0.0185998,0.158125,142
0.451175,-0.0185955,0.159014,139
0.452181,-0.018761,0.160286,144
0.451153,-0.0185961,0.160817,140
0.451389,-0.0186366,0.16181,129
0.451077,-0.0185879,0.162602,133
0.451975,-0.0187359,0.163844,134
0.452766,-0.0188667,0.165051,137
0.453173,-0.0189349,0.166117,132
0.452916,-0.0188951,0.166934,134
0.45277,-0.0188735,0.167793,136
0.453234,-0.018951,0.168886,133
0.454816,-0.0192102,0.170412,125
0.454894,-0.019225,0.171364,128
0.454469,-0.019158,0.172121,125
0.454771,-0.0192093,0.173161,125
0.45457,-0.0191788,0.174006,112
0.455491,-0.0193307,0.175294,119
0.455853,-0.0193916,0.176365,122
0.455991,-0.0194161,0.177349,119
0.455341,-0.0193125,0.178017,110
0.456155,-0.0194471,0.179275,108
0.456804,-0.0195547,0.18047,107
0.457455,-0.0196627,0.181669,109
0.457369,-0.0196508,0.18257,106
0.457568,-0.0196853,0.183589,110
0.457653,-0.0197013,0.184563,106
0.457625,-0.019699,0.185491,109
0.458339,-0.0198172,0.186729,109
0.457343,-0.0196573,0.187253,112
0.458915,-0.0199153,0.188859,108
0.459062,-0.0199412,0.189866,110
0.458806,-0.0199019,0.190705,115
0.458552,-0.0198626,0.191543,108
0.458928,-0.019926,0.192652,106
0.459479,-0.0200178,0.19384,113
0.45934,-0.0199973,0.194731,113
0.458454,-0.0198554,0.195296,121
0.45889,-0.0199285,0.196439,109
0.458867,-0.019927,0.197382,105
0.458902,-0.0199349,0.198351,102
0.458708,-0.0199054,0.19922,111
0.459435,-0.0200259,0.200501,103
0.457803,-0.0197626,0.200725,112
0.458356,-0.0198547,0.20193,135
0.458335,-0.0198535,0.202878,113
0.458545,-0.0198899,0.203933,121
0.458468,-0.0198795,0.204857,112
0.43216,-0.0112799,-0.204451,12
0.432221,-0.0112913,-0.203571,8
0.422402,-0.00979553,-0.19798,13
0.426996,-0.0104985,-0.199275,13
0.428308,-0.0107005,-0.198999,12
0.429324,-0.0108576,-0.19858,12
0.426836,-0.0104801,-0.196516,12
0.426204,-0.0103858,-0.195329,15
0.429111,-0.0108313,-0.195788,21
0.42648,-0.0104319,-0.193678,14
0.422957,-0.00989636,-0.191169,14
0.426559,-0.010448,-0.191937,14
0.423574,-0.00999452,-0.18969,17
0.425503,-0.0102908,-0.189684,13
0.42542,-0.0102803,-0.188764,16
0.429763,-0.010945,-0.189833,15
0.427182,-0.0105532,-0.187788,19
0.426061,-0.0103841,-0.186405,15
0.428159,-0.0107064,-0.186454,20
0.427877,-0.0106654,-0.185445,15
0.428292,-0.0107307,-0.184744,14
0.424412,-0.0101405,-0.182166,10
0.427532,-0.0106187,-0.182648,21
0.428046,-0.0106992,-0.181991,20
0.42966,-0.0109476,-0.181805,19
0.428133,-0.0107164,-0.180268,18
0.427012,-0.0105473,-0.178912,17
0.427575,-0.0106353,-0.178275,22
0.428886,-0.0108374,-0.177953,21
0.428259,-0.0107436,-0.176812,17
0.428477,-0.010779,-0.176027,28
0.428845,-0.0108372,-0.175305,22
0.431821,-0.0112936,-0.175662,23
0.430834,-0.0111449,-0.174375,27
0.431005,-0.0111731,-0.173567,22
0.430224,-0.0110558,-0.172372,26
0.430045,-0.0110305,-0.171424,24
0.430067,-0.0110357,-0.170559,29
0.430939,-0.011171,-0.170036,30
0.432369,-0.0113914,-0.169734,25
0.430933,-0.011174,-0.168287,28
0.432363,-0.0113944,-0.16798,29
0.430979,-0.0111849,-0.166561,30
0.432257,-0.0113822,-0.16619,36
0.432532,-0.0114262,-0.165425,33
0.432909,-0.0114857,-0.164698,28
0.432932,-0.0114913,-0.163834,30
0.4321,-0.0113662,-0.162644,30
0.432527,-0.0114334,-0.161937,31
0.43539,-0.0118728,-0.162153,31
0.434702,-0.0117696,-0.161019,32
0.43432,-0.0117133,-0.160003,34
0.435006,-0.0118201,-0.159388,35
0.434676,-0.0117716,-0.158394,35
0.434144,-0.0116923,-0.157328,34
0.434626,-0.011768,-0.156637,37
0.437462,-0.0122033,-0.156803,35
0.437026,-0.0121387,-0.155771,40
0.436081,-0.0119963,-0.154558,42
0.438006,-0.0122923,-0.154379,44
0.437108,-0.0121572,-0.153187,41
0.437033,-0.0121477,-0.152291,40
0.438037,-0.0123032,-0.151776,45
0.437809,-0.0122702,-0.150825,45
0.438713,-0.0124104,-0.150271,50
0.438124,-0.0123223,-0.149197,41
0.438307,-0.0123524,-0.148392,51
0.439473,-0.0125325,-0.147923,44
0.438162,-0.0123341,-0.146607,45
0.439016,-0.0124667,-0.146031,46
0.439771,-0.012584,-0.145417,46
0.438718,-0.012425,-0.144197,41
0.439833,-0.0125975,-0.143703,47
0.439917,-0.0126123,-0.142864,51
0.440727,-0.0127381,-0.142264,50
0.440655,-0.0127291,-0.141373,45
0.44152,-0.0128634,-0.140788,48
0.44218,-0.0129662,-0.140133,49
0.442109,-0.0129573,-0.139242,51
0.44361,-0.0131888,-0.138853,52
0.442595,-0.0130356,-0.137663,49
0.443153,-0.0131229,-0.136972,51
0.442822,-0.0130742,-0.136001,52
0.443381,-0.0131617,-0.135309,46
0.443312,-0.0131531,-0.134421,58
0.443715,-0.0132168,-0.133679,58
0.44565,-0.0135148,-0.133403,58
0.445423,-0.0134819,-0.132466,56
0.445301,-0.0134653,-0.131561,59
0.445022,-0.0134246,-0.130611,56
0.446862,-0.013708,-0.130292,59
0.4477,-0.0138382,-0.12967,59
0.446461,-0.0136506,-0.128438,58
0.447138,-0.0137562,-0.127768,59
0.448031,-0.0138948,-0.127159,64
0.447165,-0.0137642,-0.126042,57
0.447472,-0.0138131,-0.125264,62
0.448313,-0.0139439,-0.124636,64
0.449212,-0.0140834,-0.124022,68
0.449147,-0.0140753,-0.123135,63
0.449511,-0.0141331,-0.122369,67
0.450577,-0.0142982,-0.121795,62
0.451269,-0.014406,-0.121115,59
0.449533,-0.0141424,-0.119775,57
0.449577,-0.0141511,-0.118921,61
0.450429,-0.0142834,-0.118283,65
0.450151,-0.0142429,-0.117344,66
0.451817,-0.0144998,-0.116917,67
0.452188,-0.0145586,-0.116147,72
0.451855,-0.0145096,-0.115193,70
0.451848,-0.0145105,-0.114324,81
0.452873,-0.0146693,-0.11372,79
0.452486,-0.0146121,-0.112755,79
0.453351,-0.0147464,-0.112106,80
0.453182,-0.0147225,-0.111197,83
0.45334,-0.0147487,-0.11037,85
0.453608,-0.0147917,-0.10957,79
0.453877,-0.0148348,-0.108769,81
0.453928,-0.0148446,-0.107916,86
0.454307,-0.0149047,-0.107142,78
0.454414,-0.014923,-0.106301,92
0.454576,-0.0149498,-0.105474,92
0.455122,-0.0150353,-0.104737,87
0.454409,-0.0149281,-0.103706,91
0.455449,-0.0150894,-0.103082,91
0.456219,-0.0152092,-0.102393,96
0.456439,-0.015245,-0.101577,101
0.45567,-0.0151291,-0.100538,97
0.456386,-0.0152408,-0.0998337,102
0.456058,-0.0151924,-0.0988965,94
0.456445,-0.0152538,-0.0981177,97
0.456173,-0.015214,-0.0971948,91
0.456562,-0.0152756,-0.0964156,93
0.457228,-0.0153795,-0.0956943,93
0.457066,-0.0153568,-0.0947965,100
0.456796,-0.0153173,-0.0938769,96
0.457022,-0.0153539,-0.0930618,107
0.457193,-0.0153821,-0.0922352,111
0.457753,-0.0154698,-0.0914871,114
0.45776,-0.0154728,-0.0906262,106
0.458155,-0.0155354,-0.0898432,112
0.45772,-0.0154708,-0.0888952,119
0.457895,-0.0154995,-0.0880686,114
0.457242,-0.0154013,-0.0870814,117
0.457804,-0.0154894,-0.0863302,115
0.459591,-0.0157652,-0.0858097,109
0.458268,-0.0155645,-0.0846987,117
0.458336,-0.0155768,-0.0838516,121
0.45785,-0.0155043,-0.082903,112
0.457201,-0.0154068,-0.0819269,115
0.458208,-0.0155631,-0.0812523,123
0.45789,-0.0155164,-0.080338,124
0.45785,-0.0155121,-0.0794742,128
0.457865,-0.0155164,-0.0786207,122
0.45755,-0.01547,-0.0777106,122
0.458672,-0.0156439,-0.0770473,127
0.457198,-0.01542,-0.0759422,123
0.457987,-0.0155429,-0.0752207,124
0.457619,-0.0154885,-0.0743057,128
0.456868,-0.0153753,-0.07333,123
0.456777,-0.0153634,-0.0724641,131
0.456852,-0.0153768,-0.0716252,129
0.456818,-0.0153735,-0.0707693,128
0.456565,-0.0153367,-0.0698799,129
0.455712,-0.0152078,-0.0688996,132
0.455734,-0.0152132,-0.0680558,129
0.45603,-0.0152605,-0.0672532,132
0.455836,-0.0152326,-0.0663773,130
0.455805,-0.0152299,-0.0655265,137
0.455339,-0.0151604,-0.0646134,133
0.455419,-0.0151746,-0.0637801,134
0.454142,-0.0149806,-0.0627565,134
0.453952,-0.0149534,-0.0618884,138
0.453331,-0.0148601,-0.0609627,136
0.452981,-0.0148085,-0.0600761,137
0.453603,-0.0149057,-0.05932,137
0.45347,-0.0148873,-0.0584632,134
0.45237,-0.0147204,-0.0574826,135
0.45165,-0.0146119,-0.0565548,138
0.451253,-0.014553,-0.0556704,132
0.451017,-0.0145188,-0.0548077,136
0.449985,-0.0143624,-0.0538496,135
0.449753,-0.0143286,-0.0529911,140
0.449415,-0.0142787,-0.0521215,130
0.448867,-0.0141966,-0.0512291,139
0.448796,-0.0141876,-0.0503932,139
0.448199,-0.0140978,-0.0494991,145
0.447971,-0.0140648,-0.0486482,143
0.447325,-0.0139676,-0.0477531,143
0.447781,-0.0140394,-0.0469777,143
0.446614,-0.0138623,-0.0460318,148
0.446547,-0.0138539,-0.045203,146
0.446272,-0.0138136,-0.0443539,145
0.444908,-0.0136062,-0.0433987,138
0.444689,-0.0135744,-0.0425594,142
0.444212,-0.0135031,-0.0416969,146
0.443428,-0.0133847,-0.0408079,143
0.44316,-0.0133455,-0.039969,141
0.443407,-0.0133853,-0.0391772,144
0.443192,-0.0133542,-0.0383444,140
0.443492,-0.013402,-0.0375565,143
0.443895,-0.0134657,-0.0367764,145
0.44363,-0.0134269,-0.0359404,145
0.443623,-0.0134277,-0.0351262,140
0.443308,-0.0133812,-0.0342882,140
0.443714,-0.0134453,-0.0335063,139
0.444326,-0.0135412,-0.0327385,142
0.444012,-0.0134948,-0.0319016,140
0.443854,-0.0134723,-0.0310769,141
0.443696,-0.0134499,-0.0302531,145
0.444053,-0.0135066,-0.0294644,150
0.444928,-0.0136428,-0.0287079,153
0.444306,-0.0135492,-0.0278543,154
0.44446,-0.0135746,-0.0270504,152
0.444253,-0.0135447,-0.0262249,150
0.444304,-0.0135545,-0.025415,153
0.444562,-0.013596,-0.0246165,156
0.445287,-0.0137091,-0.023842,150
0.445393,-0.0137271,-0.0230331,156
0.444722,-0.0136261,-0.0221853,152
0.444673,-0.0136204,-0.0213699,153
0.444987,-0.0136704,-0.0205714,151
0.445924,-0.0138161,-0.0197993,157
0.445876,-0.0138107,-0.0189823,163
0.445881,-0.0138134,-0.0181677,161
0.445369,-0.0137365,-0.0173333,159
0.446153,-0.0138588,-0.0165483,162
0.44616,-0.0138618,-0.0157335,157
0.446168,-0.0138648,-0.0149187,162
0.446644,-0.0139398,-0.0141185,161
0.448065,-0.0141598,-0.0133441,169
0.447237,-0.0140345,-0.0125032,165
0.446777,-0.0139657,-0.0116748,167
0.446371,-0.0139052,-0.0108495,164
0.446278,-0.0138928,-0.0100325,164
0.447123,-0.0140246,-0.00923435,158
0.446927,-0.0139963,-0.00841453,165
0.447149,-0.0140322,-0.00760215,163
0.446485,-0.0139321,-0.0067765,164
0.44702,-0.0140162,-0.00596802,163
0.44761,-0.0141086,-0.00515812,169
0.44773,-0.014129,-0.00434205,164
0.447589,-0.0141092,-0.00352383,170
0.448025,-0.014178,-0.00270887,169
0.448305,-0.0142228,-0.00189184,170
0.448375,-0.0142355,-0.00107355,167
0.448604,-0.0142725,-0.000254863,172
0.448781,-0.0143016,0.00056455,172
0.448748,-0.0142985,0.00138367,171
0.448401,-0.0142469,0.00220064,173
0.449001,-0.014341,0.00302426,172
0.448812,-0.0143138,0.00384208,172
0.449203,-0.0143758,0.00466624,177
0.449279,-0.0143893,0.0054875,173
0.449936,-0.0144922,0.00631831,173
0.450331,-0.0145548,0.00714697,170
0.450409,-0.0145687,0.00797095,170
0.450647,-0.0146071,0.00879871,177
0.449879,-0.0144909,0.00960393,176
0.450754,-0.0146272,0.0104478,174
0.45041,-0.0145763,0.011262,174
0.450014,-0.0145173,0.0120734,168
0.450785,-0.0146377,0.0129195,179
0.450019,-0.0145219,0.0137182,175
0.449785,-0.0144877,0.0145326,175
0.449551,-0.0144537,0.0153461,171
0.449582,-0.0144604,0.0161691,179
0.449456,-0.0144428,0.0169859,177
0.449066,-0.0143847,0.0177913,183
0.450262,-0.0145705,0.0186651,183
0.450667,-0.0146346,0.0195072,187
0.450861,-0.0146663,0.0203409,186
0.451269,-0.0147309,0.021186,185
0.450985,-0.0146892,0.0219972,184
0.450915,-0.0146803,0.0228189,189
0.45005,-0.0145492,0.0235966,182
0.44977,-0.014508,0.0244045,185
0.449332,-0.0144426,0.0252023,186
0.450589,-0.0146377,0.0261016,187
0.450522,-0.0146293,0.0269229,189
0.450138,-0.0145721,0.0277235,190
0.448594,-0.0143365,0.0284458,184
0.447532,-0.0141751,0.0291954,186
0.447783,-0.0142155,0.0300334,180
0.447562,-0.0141835,0.0308385,184
0.447552,-0.0141838,0.0316586,180
0.446967,-0.0140957,0.0324352,187
0.446645,-0.0140481,0.0332302,183
0.445077,-0.0138087,0.033925,178
0.445432,-0.0138653,0.0347709,179
0.445166,-0.0138261,0.0355665,181
0.445367,-0.0138589,0.0364011,180
0.446819,-0.0140842,0.0373458,184
0.445875,-0.0139408,0.0380828,180
0.444988,-0.0138062,0.0388217,181
0.445139,-0.0138314,0.0396538,175
0.446697,-0.0140729,0.0406199,179
0.445444,-0.013882,0.0413207,172
0.44565,-0.0139155,0.0421606,175
0.4457,-0.0139251,0.0429859,174
0.446846,-0.0141033,0.0439238,175
0.446219,-0.0140087,0.0446816,180
0.446741,-0.0140909,0.0455591,178
0.44622,-0.0140126,0.0463262,182
0.447057,-0.0141433,0.0472409,177
0.44664,-0.0140811,0.048019,178
0.446329,-0.0140351,0.0488077,179
0.447536,-0.0142227,0.0497709,178
0.447225,-0.0141768,0.0505607,181
0.447335,-0.0141954,0.0513998,175
0.447812,-0.0142708,0.0522842,178
0.44766,-0.0142493,0.0530933,178
0.447194,-0.0141794,0.0538628,176
0.447305,-0.0141985,0.0547042,174
0.447312,-0.0142015,0.055533,173
0.448004,-0.0143098,0.0564514,176
0.448223,-0.0143454,0.0573102,180
0.44876,-0.01443,0.0582129,183
0.44877,-0.0144334,0.0590461,181
0.449204,-0.0145021,0.0599384,177
0.448791,-0.0144405,0.060714,181
0.449386,-0.0145339,0.0616314,181
0.449186,-0.0145051,0.0624371,185
0.450155,-0.0146562,0.0634129,179
0.450382,-0.014693,0.0642831,182
0.450823,-0.0147628,0.0651866,180
0.450571,-0.0147259,0.0659871,175
0.450533,-0.014722,0.0668198,179
0.450709,-0.0147511,0.0676861,173
0.451047,-0.014805,0.0685789,175
0.451278,-0.0148425,0.0694564,178
0.452209,-0.0149878,0.0704479,177
0.451637,-0.0149016,0.0711983,186
0.452193,-0.0149893,0.0721332,175
0.452537,-0.0150441,0.0730349,170
0.452557,-0.0150492,0.073884,174
0.452848,-0.0150959,0.0747797,175
0.454225,-0.0153099,0.0758644,179
0.454302,-0.0153238,0.076728,181
0.454925,-0.0154216,0.0776886,179
0.455168,-0.015461,0.0785842,177
0.45492,-0.0154247,0.0793927,177
0.455492,-0.0155147,0.0803501,178
0.455354,-0.0154954,0.0811795,174
0.456422,-0.015662,0.0822333,181
0.456175,-0.0156259,0.0830444,182
0.457305,-0.0158019,0.0841164,179
0.456177,-0.0156301,0.0847602,173
0.456151,-0.0156281,0.0856137,179
0.456401,-0.0156686,0.0865215,177
0.456322,-0.0156583,0.0873657,168
0.456683,-0.015716,0.088298,178
0.457046,-0.0157739,0.0892325,170
0.456858,-0.0157468,0.0900568,176
0.456726,-0.0157284,0.0908924,171
0.457312,-0.0158207,0.0918769,173
0.456683,-0.0157258,0.09261,179
0.457658,-0.015878,0.0936798,180
0.458304,-0.0159796,0.0946839,180
0.456623,-0.0157225,0.0951907,179
0.45666,-0.0157301,0.096064,183
0.457693,-0.0158914,0.0971562,177
0.458398,-0.016002,0.0981805,176
0.45716,-0.0158131,0.0987752,177
0.456646,-0.0157359,0.0995283,171
0.457516,-0.0158719,0.100594,180
0.456615,-0.015735,0.101258,178
0.455938,-0.0156326,0.101971,172
0.456199,-0.0156749,0.102901,174
0.455689,-0.0155983,0.103651,173
0.455951,-0.0156407,0.104582,174
0.455608,-0.0155897,0.10537,176
0.455596,-0.0155898,0.106237,176
0.455309,-0.0155476,0.107039,174
0.455408,-0.0155648,0.107934,175
0.455783,-0.0156246,0.108897,176
0.454233,-0.0153877,0.109386,179
0.453731,-0.0153122,0.110131,177
0.453121,-0.0152201,0.110847,178
0.453057,-0.0152123,0.1117,180
0.452613,-0.0151458,0.112457,176
0.45217,-0.0150794,0.113212,175
0.452216,-0.0150886,0.114094,176
0.451179,-0.0149306,0.114692,169
0.450793,-0.0148731,0.115459,168
0.451274,-0.0149492,0.116456,166
0.450781,-0.0148752,0.117194,171
0.449858,-0.0147348,0.117815,174
0.449638,-0.0147028,0.118624,173
0.44958,-0.0146958,0.119477,167
0.449522,-0.0146888,0.12033,167
0.448391,-0.0145164,0.120886,162
0.448655,-0.0145591,0.121828,160
0.449028,-0.0146186,0.122803,165
0.449187,-0.0146451,0.123719,162
0.449238,-0.0146551,0.124605,165
0.448861,-0.0145988,0.12537,152
0.448269,-0.0145096,0.126071,158
0.449074,-0.0146357,0.127178,155
0.448376,-0.01453,0.127847,164
0.448967,-0.0146232,0.128895,157
0.44886,-0.0146087,0.129739,163
0.44827,-0.0145197,0.130438,153
0.448111,-0.0144971,0.131266,157
0.448543,-0.0145657,0.132273,153
0.448438,-0.0145515,0.133118,155
0.448817,-0.0146121,0.134113,153
0.448391,-0.0145482,0.13486,156
0.448987,-0.0146423,0.135925,154
0.448668,-0.0145951,0.136706,156
0.448619,-0.0145895,0.137572,154
0.449434,-0.0147173,0.138712,156
0.449927,-0.0147955,0.139754,153
0.449609,-0.0147483,0.140537,153
0.449887,-0.0147933,0.141513,150
0.449677,-0.014763,0.142332,149
0.449089,-0.0146743,0.143028,152
0.449693,-0.0147695,0.144114,156
0.449106,-0.0146809,0.144808,153
0.449223,-0.014701,0.145736,153
0.449179,-0.0146961,0.14661,148
0.450166,-0.0148506,0.147834,151
0.449633,-0.0147703,0.148546,150
0.449589,-0.0147656,0.149424,146
0.450635,-0.0149292,0.150677,143
0.450811,-0.0149584,0.151634,151
0.450168,-0.0148612,0.152308,148
0.450399,-0.0148989,0.153285,150
0.450522,-0.0149199,0.154227,143
0.450809,-0.0149663,0.155227,150
0.450331,-0.0148946,0.155958,144
0.451112,-0.0150172,0.157137,146
0.451072,-0.0150131,0.158026,147
0.451802,-0.0151279,0.159193,146
0.451983,-0.015158,0.160165,150
0.451725,-0.0151201,0.160978,141
0.451577,-0.0150993,0.16183,141
0.451099,-0.0150277,0.162561,141
0.451998,-0.0151685,0.163803,137
0.452292,-0.0152161,0.164823,143
0.452754,-0.0152895,0.165909,142
0.452552,-0.0152604,0.166746,138
0.454798,-0.0156094,0.168514,131
0.454651,-0.0155889,0.169377,132
0.45339,-0.0153961,0.169812,130
0.453578,-0.0154273,0.170803,126
0.454773,-0.015614,0.172186,121
0.453734,-0.0154556,0.172703,123
0.454931,-0.0156427,0.174094,121
0.455348,-0.0157092,0.175183,121
0.455485,-0.0157325,0.176164,117
0.456751,-0.0159303,0.177597,120
0.456381,-0.0158752,0.178379,127
0.456803,-0.0159426,0.17948,126
0.455868,-0.0158003,0.180034,116
0.456574,-0.0159114,0.181253,116
0.456884,-0.0159615,0.182315,111
0.457139,-0.0160031,0.183355,112
0.457395,-0.0160448,0.184398,116
0.458165,-0.0161659,0.185657,113
0.457909,-0.0161286,0.186491,122
0.458511,-0.0162237,0.187685,117
0.458943,-0.0162926,0.18881,113
0.459032,-0.0163085,0.189793,121
0.459466,-0.0163778,0.190925,116
0.459211,-0.0163405,0.191764,118
0.459762,-0.0164279,0.19295,112
0.458931,-0.0163017,0.193542,103
0.458505,-0.0162379,0.194306,110
0.459805,-0.0164411,0.195824,115
0.458401,-0.0162261,0.196162,117
0.458722,-0.016278,0.197255,115
0.459333,-0.0163746,0.198479,111
0.458908,-0.016311,0.199245,116
0.459289,-0.0163723,0.200372,113
0.459095,-0.0163444,0.201242,116
0.458786,-0.0162987,0.20206,137
0.459284,-0.0163781,0.203245,107
0.45938,-0.016395,0.204248,113
0.457977,-0.0161802,0.204568,112
0.429642,-0.00751064,-0.203204,10
0.431326,-0.00775616,-0.203107,9
0.432819,-0.00797388,-0.202911,9
0.428969,-0.00741964,-0.200177,12
0.425885,-0.00697598,-0.197822,12
0.430204,-0.00760218,-0.19896,15
0.427353,-0.00719225,-0.196726,9
0.423416,-0.00662512,-0.193999,12
0.427181,-0.00717142,-0.19486,17
0.424672,-0.00681069,-0.192811,13
0.426415,-0.00706468,-0.192727,11
0.427274,-0.00719091,-0.192232,14
0.427787,-0.0072671,-0.191577,13
0.426708,-0.00711314,-0.1902,19
0.427121,-0.00717482,-0.1895,15
0.429082,-0.00746046,-0.189495,16
0.428897,-0.00743576,-0.188523,16
0.428613,-0.00739669,-0.187509,18
0.426146,-0.00704197,-0.185531,18
0.427401,-0.00722544,-0.185204,16
0.428963,-0.00745329,-0.185007,14
0.427237,-0.00720577,-0.183369,20
0.427702,-0.00727494,-0.182691,20
0.428018,-0.00732267,-0.181948,18
0.429333,-0.00751484,-0.181633,19
0.430806,-0.00772998,-0.181382,15
0.428571,-0.00740865,-0.179546,22
0.432054,-0.00791452,-0.180144,22
0.430007,-0.00762048,-0.178396,15
0.431082,-0.00777786,-0.177966,18
0.428947,-0.00747107,-0.176194,26
0.430116,-0.00764218,-0.175803,25
0.431493,-0.00784334,-0.175495,24
0.431563,-0.00785552,-0.174644,24
0.431987,-0.00791885,-0.173939,23
0.430498,-0.00770549,-0.172453,22
0.430519,-0.00771054,-0.171586,27
0.433568,-0.00815369,-0.171941,20
0.431416,-0.00784422,-0.170198,24
0.435243,-0.00839997,-0.17085,28
0.433531,-0.00815428,-0.169289,27
0.433858,-0.00820356,-0.16854,24
0.432765,-0.00804742,-0.167233,27
0.432889,-0.00806735,-0.166407,25
0.433317,-0.00813126,-0.1657,29
0.43461,-0.0083204,-0.165326,34
0.432404,-0.00800313,-0.163601,35
0.434504,-0.00830909,-0.163535,28
0.434223,-0.00827041,-0.162553,35
0.4344,-0.008298,-0.161748,31
0.434882,-0.00836984,-0.161057,34
0.435724,-0.0084936,-0.160499,39
0.434678,-0.00834426,-0.159236,38
0.435468,-0.00846055,-0.158658,36
0.435902,-0.00852542,-0.157947,37
0.436594,-0.00862751,-0.157329,42
0.436415,-0.00860364,-0.156391,40
0.437262,-0.00872831,-0.155827,35
0.437701,-0.00879377,-0.155113,35
0.437779,-0.00880714,-0.154269,38
0.438116,-0.00885787,-0.153517,40
0.438144,-0.00886388,-0.152655,44
0.437914,-0.00883264,-0.151703,42
0.437891,-0.0088313,-0.150825,43
0.438332,-0.00889713,-0.15011,45
0.439239,-0.00903048,-0.149554,47
0.439943,-0.00913429,-0.148926,46
0.43904,-0.00900557,-0.147746,42
0.439795,-0.00911685,-0.147135,45
0.440188,-0.00917584,-0.146398,49
0.440531,-0.00922742,-0.145644,47
0.440146,-0.00917373,-0.144646,48
0.441374,-0.00935358,-0.144186,48
0.441145,-0.0093224,-0.143241,42
0.441647,-0.00939701,-0.142537,48
0.440794,-0.00927542,-0.14139,53
0.442444,-0.00951646,-0.141059,51
0.441745,-0.00941722,-0.139965,50
0.442825,-0.00957562,-0.139443,54
0.443857,-0.00972717,-0.138904,55
0.444261,-0.00978756,-0.138161,52
0.444612,-0.00984043,-0.137402,49
0.444699,-0.00985513,-0.136559,51
0.444313,-0.00980105,-0.13557,50
0.446042,-0.0100536,-0.135235,51
0.443438,-0.00967823,-0.133567,50
0.44479,-0.00987621,-0.133113,50
0.44525,-0.00994481,-0.132386,54
0.445764,-0.0100213,-0.131673,59
0.445114,-0.00992901,-0.130611,58
0.44653,-0.0101362,-0.130165,57
0.446303,-0.0101053,-0.129231,57
0.44778,-0.0103214,-0.128796,59
0.44814,-0.0103756,-0.128032,57
0.447806,-0.0103291,-0.127067,65
0.448381,-0.0104144,-0.126364,63
0.448958,-0.0105,-0.12566,69
0.448945,-0.0105002,-0.124788,69
0.449524,-0.010586,-0.124082,70
0.450212,-0.0106878,-0.123405,67
0.449985,-0.0106569,-0.122473,67
0.451596,-0.0108924,-0.122048,65
0.450611,-0.0107515,-0.120908,66
0.450817,-0.0107833,-0.120096,60
0.450591,-0.0107526,-0.119167,64
0.452315,-0.0110046,-0.118761,62
0.451492,-0.0108872,-0.117673,66
0.453278,-0.0111482,-0.117275,68
0.453871,-0.0112361,-0.11656,68
0.452716,-0.0110707,-0.11539,72
0.453472,-0.0111823,-0.114716,75
0.45292,-0.0111041,-0.113706,77
0.45324,-0.0111526,-0.11292,77
0.453452,-0.0111854,-0.112106,76
0.45372,-0.0112261,-0.111306,80
0.453442,-0.0111878,-0.11037,79
0.454202,-0.0113,-0.109691,88
0.45513,-0.0114366,-0.10905,87
0.455897,-0.0115498,-0.108367,89
0.455453,-0.0114874,-0.107391,86
0.456166,-0.0115928,-0.106693,88
0.455888,-0.0115545,-0.105759,90
0.456327,-0.0116201,-0.104995,85
0.45616,-0.0115979,-0.104088,90
0.456822,-0.0116959,-0.103374,97
0.45743,-0.0117861,-0.102645,91
0.457375,-0.0117801,-0.101764,95
0.45732,-0.0117741,-0.100885,102
0.456934,-0.01172,-0.0999319,105
0.457101,-0.0117463,-0.0991032,94
0.457048,-0.0117406,-0.0982262,101
0.457327,-0.0117831,-0.0974219,97
0.457885,-0.0118659,-0.0966767,99
0.457888,-0.0118684,-0.0958121,97
0.457948,-0.0118791,-0.0949599,103
0.458175,-0.0119139,-0.0941427,96
0.457903,-0.0118764,-0.0932221,103
0.458186,-0.0119195,-0.0924167,104
0.458415,-0.0119547,-0.0915997,107
0.4587,-0.011998,-0.0907936,99
0.459766,-0.0121548,-0.0901426,101
0.459551,-0.0121255,-0.0892351,100
0.458947,-0.0120398,-0.0882529,109
0.459402,-0.0121077,-0.0874784,109
0.4593,-0.012095,-0.086596,110
0.459645,-0.012147,-0.0857992,108
0.459823,-0.0121749,-0.0849702,109
0.459612,-0.0121461,-0.0840685,112
0.459624,-0.0121498,-0.0832093,118
0.45908,-0.0120728,-0.0822493,114
0.459316,-0.012109,-0.0814322,122
0.459664,-0.0121615,-0.0806346,122
0.45979,-0.0121818,-0.079797,127
0.459749,-0.0121779,-0.0789303,129
0.459598,-0.0121578,-0.0780451,126
0.45878,-0.0120411,-0.0770473,123
0.459297,-0.0121181,-0.076278,119
0.459426,-0.0121388,-0.0754425,126
0.459778,-0.0121918,-0.0746436,132
0.45913,-0.0120996,-0.0736809,129
0.458705,-0.0120399,-0.0727571,135
0.459391,-0.0121415,-0.0720119,134
0.457695,-0.0118972,-0.0708904,133
0.459266,-0.0121273,-0.0702826,125
0.458733,-0.0120518,-0.0693467,132
0.458479,-0.0120168,-0.0684554,126
0.458392,-0.0120061,-0.0675904,135
0.458415,-0.0120114,-0.0667425,136
0.457612,-0.0118967,-0.0657743,142
0.456922,-0.0117984,-0.0648259,137
0.455961,-0.0116607,-0.0638421,138
0.455988,-0.0116665,-0.0630004,133
0.455577,-0.0116088,-0.0620986,136
0.455387,-0.011583,-0.0612287,137
0.454979,-0.0115258,-0.0603307,136
0.455226,-0.0115635,-0.0595211,137
0.454223,-0.0114197,-0.0585479,138
0.453765,-0.0113551,-0.057649,138
0.45358,-0.01133,-0.0567866,136
0.453233,-0.0112815,-0.055905,129
0.453049,-0.0112567,-0.0550451,136
0.453243,-0.0112868,-0.0542319,132
0.452146,-0.0111293,-0.0532646,139
0.45159,-0.0110504,-0.052365,139
0.45125,-0.0110029,-0.0514927,138
0.450964,-0.0109632,-0.0506282,136
0.450946,-0.0109625,-0.0497949,142
0.450342,-0.0108767,-0.0488977,136
0.449688,-0.0107835,-0.0479977,136
0.449672,-0.010783,-0.0471679,143
0.448546,-0.0106213,-0.046223,138
0.448532,-0.010621,-0.045396,139
0.447886,-0.010529,-0.0445062,140
0.447715,-0.010506,-0.0436657,142
0.447282,-0.010445,-0.0428008,146
0.446799,-0.0103766,-0.041933,143
0.446422,-0.0103237,-0.0410771,140
0.445474,-0.0101877,-0.040171,140
0.444738,-0.0100825,-0.0392875,141
0.444469,-0.0100454,-0.0384477,137
0.444719,-0.0100835,-0.0376533,144
0.445281,-0.0101671,-0.0368842,150
0.444858,-0.0101075,-0.036033,151
0.444592,-0.0100707,-0.035196,144
0.444534,-0.0100641,-0.0343764,148
0.444683,-0.0100876,-0.0335729,154
0.444626,-0.0100811,-0.0327538,152
0.444828,-0.0101124,-0.0319537,154
0.444824,-0.0101136,-0.0311386,150
0.445494,-0.0102129,-0.0303697,153
0.444972,-0.0101389,-0.0295193,155
0.445229,-0.0101781,-0.0287213,152
0.445642,-0.0102401,-0.0279323,157
0.445277,-0.0101889,-0.0270945,156
0.445899,-0.0102813,-0.0263165,161
0.446159,-0.0103209,-0.0255156,157
0.44564,-0.0102472,-0.0246708,160
0.446005,-0.0103021,-0.0238753,155
0.44585,-0.0102815,-0.0230518,153
0.445748,-0.0102686,-0.0222316,157
0.446427,-0.0103693,-0.0214492,157
0.445962,-0.0103034,-0.0206119,159
0.447479,-0.010526,-0.0198636,160
0.446961,-0.0104525,-0.019024,163
0.44728,-0.0105007,-0.0182202,165
0.44645,-0.0103819,-0.0173712,158
0.446196,-0.0103468,-0.0165464,164
0.447038,-0.0104711,-0.0157606,158
0.447097,-0.0104816,-0.0149461,163
0.44721,-0.0104999,-0.0141331,157
0.447742,-0.0105792,-0.0133319,163
0.447595,-0.0105596,-0.0125103,161
0.448076,-0.0106316,-0.0117053,161
0.44793,-0.0106121,-0.0108838,162
0.448046,-0.0106309,-0.0100685,167
0.448531,-0.0107033,-0.00926016,165
0.448543,-0.010707,-0.00844161,168
0.448819,-0.010749,-0.00762726,169
0.448465,-0.0106993,-0.00680303,173
0.449006,-0.0107799,-0.00599108,169
0.449232,-0.0108147,-0.00517388,172
0.449036,-0.0107881,-0.00435229,170
0.44958,-0.0108692,-0.00353633,172
0.448964,-0.0107813,-0.00271285,167
0.449298,-0.0108318,-0.0018944,170
0.449897,-0.0109209,-0.00107497,170
0.449546,-0.0108717,-0.000254124,172
0.449354,-0.0108456,0.000565853,171
0.449691,-0.0108965,0.00138757,171
