0.390257,-0.163538,-0.0396897,160
0.390617,-0.163748,-0.0389515,167
0.391101,-0.16403,-0.0382249,165
0.391422,-0.164218,-0.0374799,166
0.391046,-0.164003,-0.0366643,171
0.391903,-0.164501,-0.0359706,167
0.391897,-0.164499,-0.0351912,177
0.391932,-0.164522,-0.0344159,175
0.392175,-0.164664,-0.0336595,175
0.392335,-0.164759,-0.0328949,174
0.392537,-0.164878,-0.0321334,177
0.392906,-0.165094,-0.0313853,176
0.393649,-0.165526,-0.0306667,173
0.393729,-0.165574,-0.0298918,173
0.393477,-0.165431,-0.0290908,178
0.393807,-0.165624,-0.0283353,175
0.394014,-0.165745,-0.0275694,173
0.393971,-0.165723,-0.0267848,172
0.393887,-0.165676,-0.0259977,170
0.394303,-0.165919,-0.0252449,176
0.394637,-0.166114,-0.024485,170
0.395685,-0.166723,-0.0237689,174
0.395015,-0.166337,-0.0229436,171
0.39594,-0.166875,-0.0222152,167
0.39611,-0.166975,-0.0214402,171
0.39666,-0.167296,-0.0206853,175
0.396578,-0.167251,-0.019895,173
0.396962,-0.167475,-0.0191286,174
0.396923,-0.167455,-0.0183403,178
0.397563,-0.167827,-0.0175834,179
0.397993,-0.168078,-0.0168147,183
0.397615,-0.167862,-0.0160106,176
0.39796,-0.168064,-0.0152367,177
0.398905,-0.168613,-0.014484,178
0.398868,-0.168594,-0.0136926,180
0.399432,-0.168922,-0.0129213,184
0.399697,-0.169077,-0.0121384,180
0.399704,-0.169084,-0.011347,181
0.400229,-0.16939,-0.0105695,176
0.401621,-0.170198,-0.00981117,186
0.401327,-0.17003,-0.00900898,183
0.401727,-0.170264,-0.00822222,187
0.401347,-0.170046,-0.00741956,182
0.402357,-0.170633,-0.00664093,185
0.40202,-0.17044,-0.00583922,182
0.403516,-0.171309,-0.00506063,182
0.403397,-0.171242,-0.00426002,176
0.403629,-0.171378,-0.00346258,179
0.404038,-0.171617,-0.00266511,180
0.404536,-0.171908,-0.0018662,182
0.404374,-0.171816,-0.0010644,181
0.40461,-0.171954,-0.000262889,184
0.405111,-0.172247,0.000540473,183
0.405614,-0.17254,0.001346,184
0.406564,-0.173093,0.00215702,191
0.406447,-0.173027,0.00296193,189
0.407224,-0.173479,0.00377681,186
0.407063,-0.173388,0.00458209,191
0.407978,-0.17392,0.0054039,190
0.409169,-0.174612,0.00623465,187
0.408828,-0.174417,0.00703954,182
0.409345,-0.174719,0.00786223,183
0.409683,-0.174917,0.00868281,186
0.409524,-0.174826,0.00949162,178
0.409863,-0.175025,0.0103142,182
0.410067,-0.175146,0.0111341,181
0.410182,-0.175214,0.011952,182
0.4113,-0.175864,0.0128058,182
0.411644,-0.176066,0.0136356,182
0.411807,-0.176162,0.0144598,187
0.412108,-0.176339,0.0152905,185
0.412548,-0.176596,0.0161287,190
0.412575,-0.176614,0.0169499,183
0.412972,-0.176845,0.0177891,185
0.413277,-0.177024,0.0186256,185
0.41479,-0.177903,0.0195267,188
0.41496,-0.178004,0.0203612,189
0.414664,-0.177834,0.0211702,188
0.414881,-0.177962,0.0220082,191
0.414726,-0.177874,0.0228246,191
0.414664,-0.177841,0.0236464,192
0.414976,-0.178024,0.0244924,189
0.415196,-0.178153,0.0253337,189
0.416636,-0.17899,0.0262609,186
0.415684,-0.178441,0.0270232,189
0.416423,-0.178871,0.0279062,184
0.415427,-0.178296,0.0286608,188
0.416306,-0.178808,0.0295578,190
0.417049,-0.17924,0.0304478,187
0.416145,-0.178719,0.0312055,185
0.416936,-0.179179,0.0321028,181
0.415799,-0.178522,0.0328365,181
0.416636,-0.17901,0.033741,186
0.416958,-0.179199,0.0346024,183
0.416574,-0.178978,0.0353996,181
0.415769,-0.178514,0.0361553,182
0.416656,-0.17903,0.0370726,184
0.415289,-0.17824,0.0377695,188
0.415518,-0.178375,0.0386231,189
0.41528,-0.178239,0.0394293,190
0.415229,-0.178212,0.0402547,193
0.415507,-0.178375,0.0411156,190
0.41527,-0.178239,0.0419212,194
0.414987,-0.178078,0.0427209,189
0.414798,-0.177971,0.0435304,197
0.413726,-0.177351,0.0442361,189
0.413958,-0.177488,0.0450926,193
0.414703,-0.177922,0.0460125,199
0.412614,-0.176713,0.0465866,197
0.412476,-0.176635,0.0473967,202
0.412339,-0.176558,0.0482065,196
0.41234,-0.176561,0.0490341,197
0.41179,-0.176244,0.0497891,194
0.411792,-0.176248,0.0506162,193
0.411796,-0.176252,0.0514436,192
0.411156,-0.175883,0.0521825,190
0.409835,-0.17512,0.0528231,185
0.409612,-0.174993,0.053615,191
0.409753,-0.175077,0.0544591,188
0.409485,-0.174924,0.0552439,187
0.410175,-0.175325,0.0561707,190
0.410638,-0.175596,0.0570667,184
0.410097,-0.175284,0.0578107,184
0.409785,-0.175106,0.0585884,189
0.409975,-0.175218,0.0594445,182
0.411174,-0.175915,0.060463,188
0.411137,-0.175896,0.0612868,189
0.411606,-0.17617,0.0621939,190
0.411249,-0.175965,0.0629657,193
0.411858,-0.17632,0.0638994,186
0.411225,-0.175955,0.0646238,178
0.411374,-0.176044,0.0654814,183
0.411571,-0.17616,0.0663482,183
0.411629,-0.176197,0.0671918,181
0.411274,-0.175993,0.0679617,180
0.411518,-0.176137,0.0688394,182
0.412086,-0.176468,0.0697781,181
0.412286,-0.176586,0.0706513,181
0.412116,-0.17649,0.0714561,182
0.412549,-0.176743,0.0723753,183
0.41238,-0.176647,0.0731809,184
0.412443,-0.176686,0.0740314,184
0.412739,-0.17686,0.0749285,181
0.413595,-0.177358,0.0759389,183
0.413894,-0.177533,0.0768413,174
0.4141,-0.177655,0.0777266,181
0.414307,-0.177778,0.0786135,186
0.414844,-0.178091,0.0795702,187
0.414489,-0.177888,0.0803424,187
0.414933,-0.178147,0.0812831,180
0.41505,-0.178217,0.0821559,181
0.414837,-0.178096,0.0829584,182
0.415095,-0.178248,0.0838636,183
0.415732,-0.178619,0.0848541,181
0.415993,-0.178773,0.0857639,185
0.416113,-0.178844,0.0866435,179
0.417136,-0.17944,0.0877299,182
0.417353,-0.179568,0.088636,181
0.417857,-0.179863,0.0896102,179
0.417502,-0.179659,0.0903857,177
0.417865,-0.179872,0.0913299,175
0.418133,-0.180029,0.0922537,180
0.418402,-0.180187,0.0931794,177
0.418576,-0.180291,0.0940837,180
0.418606,-0.18031,0.094954,175
0.418877,-0.18047,0.0958848,178
0.419005,-0.180546,0.0967813,176
0.419182,-0.180651,0.0976913,178
0.419263,-0.1807,0.0985783,180
0.419634,-0.180918,0.0995407,172
0.419861,-0.181052,0.100468,177
0.420138,-0.181215,0.10141,174
0.420561,-0.181463,0.102392,179
0.419966,-0.181119,0.103106,181
0.420147,-0.181227,0.104026,177
0.420475,-0.181419,0.104987,171
0.420269,-0.181302,0.105805,178
0.419869,-0.181073,0.106569,181
0.420247,-0.181294,0.107547,177
0.4198,-0.181037,0.108298,175
0.420958,-0.181711,0.109498,177
0.419683,-0.180974,0.110015,183
0.41982,-0.181055,0.110929,180
0.420006,-0.181166,0.111859,183
0.419125,-0.180657,0.112481,180
0.419069,-0.180627,0.113341,184
0.418868,-0.180512,0.114159,183
0.418862,-0.180511,0.115034,182
0.418035,-0.180033,0.115664,181
0.417499,-0.179725,0.116379,182
0.417638,-0.179808,0.117296,182
0.417104,-0.179501,0.11801,177
0.41686,-0.179361,0.11881,182
0.41652,-0.179166,0.119581,177
0.41599,-0.178861,0.120292,176
0.415843,-0.178778,0.121121,178
0.41584,-0.178778,0.121996,175
0.415265,-0.178447,0.122688,175
0.415691,-0.178697,0.123701,172
0.415689,-0.178698,0.124578,170
0.415544,-0.178616,0.125409,166
0.414923,-0.178258,0.126084,166
0.414922,-0.17826,0.126961,164
0.41516,-0.1784,0.127919,172
0.415828,-0.17879,0.129022,168
0.415685,-0.178709,0.129856,162
0.415877,-0.178823,0.130803,168
0.415114,-0.178383,0.131426,165
0.415688,-0.178718,0.132506,160
0.414974,-0.178306,0.133142,161
0.414833,-0.178227,0.133977,161
0.415313,-0.178507,0.135029,163
0.41503,-0.178345,0.135814,161
0.414985,-0.178322,0.136684,161
0.414941,-0.178299,0.137555,167
0.414421,-0.177999,0.138254,163
0.414093,-0.177811,0.139022,162
0.414526,-0.178065,0.140066,164
0.414579,-0.178098,0.140974,160
0.414061,-0.177799,0.141671,164
0.413259,-0.177337,0.142262,165
0.413455,-0.177453,0.143223,163
0.413035,-0.177211,0.143953,166
0.4129,-0.177135,0.14479,164
0.412717,-0.177031,0.14561,164
0.412441,-0.176873,0.146393,162
0.412354,-0.176825,0.147249,162
0.412032,-0.176641,0.148013,163
0.41204,-0.176648,0.148907,170
0.41106,-0.176081,0.149412,170
0.410599,-0.175816,0.15012,172
0.410374,-0.175688,0.150919,158
0.410009,-0.175478,0.151662,167
0.409691,-0.175296,0.152424,160
0.408862,-0.174817,0.152978,166
0.408779,-0.174771,0.153832,161
0.407954,-0.174295,0.154383,150
0.407917,-0.174276,0.155256,154
0.407974,-0.174311,0.156167,155
0.408078,-0.174374,0.157099,146
0.408274,-0.17449,0.158071,143
0.408007,-0.174338,0.15885,139
0.408298,-0.174509,0.159865,135
0.408078,-0.174383,0.160664,142
0.40809,-0.174393,0.161563,146
0.408289,-0.17451,0.162542,143
0.408163,-0.174439,0.163383,139
0.408875,-0.174855,0.164588,129
0.40903,-0.174947,0.165554,134
0.409606,-0.175284,0.166706,126
0.409903,-0.175459,0.167739,134
0.409777,-0.175388,0.168587,133
0.409981,-0.175509,0.169582,134
0.410516,-0.175822,0.170726,130
0.410816,-0.175998,0.171769,132
0.411307,-0.176286,0.1729,123
0.41142,-0.176353,0.173862,124
0.411675,-0.176504,0.174891,121
0.412027,-0.176711,0.175967,113
0.413098,-0.177335,0.177377,121
0.41307,-0.177321,0.178283,112
0.413618,-0.177642,0.179459,115
0.413639,-0.177656,0.18039,117
0.414094,-0.177922,0.181527,117
0.414309,-0.17805,0.182553,114
0.414863,-0.178374,0.183744,110
0.416542,-0.179351,0.185477,109
0.415444,-0.178716,0.18588,108
0.415467,-0.178732,0.186823,115
0.415637,-0.178833,0.187838,109
0.416248,-0.17919,0.18907,101
0.416518,-0.179349,0.190139,106
0.41728,-0.179794,0.191453,109
0.417208,-0.179755,0.192357,107
0.417777,-0.180087,0.193582,111
0.417163,-0.179733,0.194218,109
0.418128,-0.180296,0.195646,112
0.417662,-0.180028,0.196356,106
0.418433,-0.180478,0.197694,109
0.418164,-0.180325,0.198506,109
0.418988,-0.180806,0.199878,115
0.418422,-0.180479,0.200537,135
0.418253,-0.180384,0.201402,109
0.418035,-0.18026,0.20224,112
0.418215,-0.180366,0.203287,108
0.383966,-0.163239,-0.197219,13
0.385936,-0.1644,-0.197424,12
0.382999,-0.162675,-0.194938,16
0.382191,-0.162201,-0.193626,14
0.382984,-0.162671,-0.193186,12
0.383368,-0.162899,-0.192522,10
0.387931,-0.165586,-0.194102,17
0.3853,-0.16404,-0.191815,15
0.384649,-0.163659,-0.190594,19
0.38207,-0.162144,-0.188357,17
0.384221,-0.163412,-0.188628,20
0.384898,-0.163813,-0.188114,21
0.383632,-0.16307,-0.186584,18
0.385509,-0.164177,-0.186694,20
0.384528,-0.163602,-0.185318,23
0.38558,-0.164223,-0.184994,18
0.383652,-0.163091,-0.183138,18
0.385943,-0.164441,-0.183445,22
0.384839,-0.163794,-0.182017,18
0.386642,-0.164857,-0.182066,17
0.384252,-0.163453,-0.179997,13
0.385675,-0.164292,-0.179849,19
0.38669,-0.164892,-0.179493,24
0.387879,-0.165594,-0.179218,20
0.385891,-0.164426,-0.17737,25
0.387577,-0.165421,-0.177338,23
0.387971,-0.165655,-0.176666,23
0.387988,-0.165667,-0.175811,20
0.388468,-0.165952,-0.175179,24
0.387019,-0.165102,-0.173618,20
0.389431,-0.166523,-0.173914,26
0.387641,-0.165472,-0.172196,24
0.388455,-0.165954,-0.171723,25
0.386718,-0.164934,-0.170043,27
0.387655,-0.165487,-0.169627,29
0.389733,-0.166713,-0.169742,26
0.387861,-0.165613,-0.16801,32
0.387546,-0.16543,-0.167008,28
0.388444,-0.165961,-0.166567,34
0.388758,-0.166147,-0.165855,29
0.389746,-0.166731,-0.165449,32
0.390062,-0.16692,-0.164735,36
0.389323,-0.166487,-0.163545,37
0.389807,-0.166774,-0.162907,32
0.390082,-0.166938,-0.162174,29
0.389555,-0.16663,-0.161085,30
0.391437,-0.16774,-0.161064,34
0.391672,-0.167881,-0.16031,34
0.391693,-0.167895,-0.159463,38
0.39163,-0.167861,-0.158579,39
0.391993,-0.168076,-0.157881,39
0.392185,-0.168192,-0.157109,40
0.392464,-0.168358,-0.156373,39
0.391933,-0.168048,-0.155293,44
0.393194,-0.168792,-0.154973,40
0.394636,-0.169643,-0.154725,34
0.393198,-0.168799,-0.153266,42
0.394295,-0.169447,-0.152868,40
0.394922,-0.169819,-0.152273,38
0.393999,-0.169277,-0.151037,42
0.393209,-0.168815,-0.14986,45
0.394263,-0.169437,-0.149438,50
0.394503,-0.169581,-0.148683,48
0.394959,-0.169852,-0.148014,46
0.39663,-0.170838,-0.14783,41
0.396482,-0.170753,-0.146915,45
0.396117,-0.17054,-0.145916,47
0.397013,-0.17107,-0.145415,41
0.397344,-0.171267,-0.14469,48
0.39864,-0.172033,-0.144339,54
0.398623,-0.172025,-0.143475,48
0.398738,-0.172095,-0.142663,48
0.399073,-0.172294,-0.141935,52
0.398442,-0.171925,-0.14084,54
0.398646,-0.172047,-0.140063,50
0.398937,-0.172221,-0.139319,57
0.399054,-0.172292,-0.138509,55
0.399964,-0.17283,-0.137992,57
0.399772,-0.172719,-0.137068,50
0.400597,-0.173207,-0.136516,53
0.401336,-0.173645,-0.13593,55
0.402525,-0.174347,-0.135503,54
0.40153,-0.173763,-0.134289,53
0.402452,-0.174308,-0.133762,61
0.402528,-0.174355,-0.132933,62
0.403096,-0.174692,-0.132277,57
0.403711,-0.175056,-0.131636,57
0.403428,-0.174892,-0.130681,58
0.40382,-0.175125,-0.12996,62
0.403089,-0.174697,-0.128854,60
0.403615,-0.175009,-0.128179,64
0.403469,-0.174925,-0.127276,62
0.404042,-0.175265,-0.126615,59
0.40439,-0.175472,-0.125877,59
0.404245,-0.175389,-0.124975,63
0.403382,-0.174883,-0.123838,69
0.40409,-0.175302,-0.123219,72
0.403945,-0.175219,-0.12232,72
0.403981,-0.175242,-0.121481,76
0.404917,-0.175796,-0.120931,69
0.404278,-0.175422,-0.119876,69
0.405216,-0.175976,-0.119322,69
0.403769,-0.175127,-0.118018,75
0.403941,-0.17523,-0.117225,69
0.404024,-0.175281,-0.116403,76
0.40366,-0.175069,-0.115445,81
0.403386,-0.174909,-0.114517,77
0.403737,-0.175119,-0.113779,79
0.403866,-0.175197,-0.112974,81
0.403281,-0.174855,-0.111956,80
0.402965,-0.174671,-0.11102,81
0.402828,-0.174592,-0.11014,79
0.403002,-0.174697,-0.109351,82
0.402599,-0.174462,-0.108395,88
0.402597,-0.174463,-0.107556,97
0.402995,-0.174699,-0.106831,97
0.402371,-0.174334,-0.105818,97
0.402636,-0.174492,-0.105056,93
0.403213,-0.174834,-0.10438,95
0.403034,-0.174731,-0.103494,99
0.402413,-0.174367,-0.102489,100
0.402591,-0.174474,-0.101703,98
0.402636,-0.174503,-0.100881,100
0.403169,-0.174819,-0.10019,104
0.402727,-0.174561,-0.0992389,106
0.402862,-0.174643,-0.0984417,101
0.402598,-0.17449,-0.0975411,99
0.402159,-0.174233,-0.0965969,104
0.402427,-0.174393,-0.0958356,108
0.403051,-0.174763,-0.0951635,103
0.402568,-0.17448,-0.0942117,105
0.402086,-0.174199,-0.0932631,106
0.402533,-0.174464,-0.0925455,104
0.402053,-0.174183,-0.0916003,106
0.402411,-0.174397,-0.0908605,108
0.402109,-0.174221,-0.0899612,108
0.402072,-0.174201,-0.0891267,112
0.401815,-0.174052,-0.0882411,110
0.401734,-0.174007,-0.0873983,114
0.401874,-0.174091,-0.0866072,118
0.401751,-0.17402,-0.0857557,121
0.401847,-0.17408,-0.084955,120
0.401637,-0.173958,-0.0840856,120
0.401427,-0.173836,-0.0832176,122
0.401175,-0.17369,-0.0823416,126
0.401141,-0.173672,-0.0815149,128
0.400803,-0.173475,-0.080623,127
0.40003,-0.173022,-0.0796405,123
0.399912,-0.172954,-0.0787999,125
0.399533,-0.172733,-0.077906,125
0.39907,-0.172463,-0.0769965,123
0.398178,-0.171939,-0.0760019,122
0.39802,-0.171848,-0.07516,123
0.398206,-0.17196,-0.0743881,125
0.397063,-0.171288,-0.0733529,128
0.396226,-0.170797,-0.0723828,130
0.395902,-0.170608,-0.0715161,127
0.395367,-0.170295,-0.0706109,133
0.394961,-0.170058,-0.0697327,134
0.394767,-0.169946,-0.0688963,136
0.39508,-0.170132,-0.0681547,137
0.394803,-0.169971,-0.0673044,147
0.394737,-0.169934,-0.0664938,141
0.394125,-0.169576,-0.0655866,147
0.393641,-0.169292,-0.0647049,148
0.392908,-0.168863,-0.0637826,142
0.392595,-0.16868,-0.0629357,141
0.391951,-0.168303,-0.0620345,143
0.391723,-0.168171,-0.061206,146
0.390795,-0.167625,-0.0602633,142
0.390652,-0.167543,-0.0594528,146
0.390181,-0.167268,-0.0585906,144
0.389384,-0.1668,-0.0576792,145
0.388918,-0.166528,-0.0568231,152
0.389349,-0.166784,-0.0561076,160
0.388965,-0.16656,-0.0552668,156
0.388908,-0.166528,-0.0544768,160
0.388892,-0.166521,-0.0536935,158
0.388186,-0.166106,-0.0528102,152
0.387847,-0.165908,-0.0519828,156
0.3884,-0.166236,-0.0512829,156
0.388264,-0.166158,-0.0504853,158
0.388128,-0.166081,-0.0496886,153
0.388399,-0.166242,-0.0489474,160
0.388833,-0.1665,-0.0482269,159
0.389594,-0.166951,-0.0475475,160
0.388523,-0.166322,-0.0466304,159
0.388796,-0.166484,-0.0458872,160
0.389029,-0.166624,-0.0451383,162
0.388611,-0.166379,-0.0443095,162
0.389007,-0.166615,-0.0435799,160
0.389078,-0.166659,-0.0428108,158
0.388987,-0.166607,-0.0420229,162
0.388815,-0.166508,-0.0412265,165
0.389336,-0.166817,-0.0405077,161
0.390308,-0.167392,-0.0398359,167
0.389645,-0.167003,-0.0389862,167
0.389801,-0.167097,-0.0382249,166
0.390121,-0.167288,-0.0374799,167
0.390728,-0.167648,-0.0367625,171
0.390681,-0.167622,-0.0359786,173
0.391045,-0.167838,-0.0352344,173
0.39071,-0.167643,-0.0344236,169
0.390828,-0.167715,-0.0336557,166
0.391235,-0.167957,-0.0329132,166
0.391477,-0.168102,-0.0321549,166
0.391844,-0.16832,-0.0314063,169
0.392544,-0.168735,-0.0306838,172
0.392541,-0.168735,-0.0299018,174
0.392828,-0.168907,-0.0291428,172
0.393034,-0.16903,-0.0283764,173
0.392949,-0.168982,-0.0275878,169
0.393322,-0.169203,-0.0268327,166
0.39357,-0.169352,-0.0260674,168
0.394405,-0.169846,-0.0253408,169
0.394531,-0.169922,-0.0245643,171
0.393987,-0.169604,-0.023745,171
0.395161,-0.170298,-0.0230334,175
0.395078,-0.170252,-0.0222425,175
0.395164,-0.170304,-0.0214617,173
0.39546,-0.170481,-0.0206922,178
0.395716,-0.170634,-0.0199194,175
0.396437,-0.171061,-0.0191691,179
0.396737,-0.17124,-0.0183954,177
0.39636,-0.171019,-0.0175893,179
0.396872,-0.171324,-0.016824,177
0.397472,-0.171679,-0.0160603,180
0.397733,-0.171835,-0.0152807,180
0.397866,-0.171916,-0.0144952,179
0.397702,-0.171822,-0.0136986,181
0.397879,-0.171928,-0.0129142,181
0.398442,-0.172262,-0.0121411,184
0.398535,-0.172319,-0.011352,183
0.398715,-0.172427,-0.0105649,185
0.399453,-0.172864,-0.0097909,184
0.400367,-0.173406,-0.00901776,187
0.400637,-0.173567,-0.00822753,191
0.40069,-0.1736,-0.00743223,188
0.400744,-0.173634,-0.00663673,183
0.401537,-0.174104,-0.00585138,184
0.402683,-0.174782,-0.00506686,186
0.402564,-0.174714,-0.00426512,186
0.402489,-0.174672,-0.00346424,184
0.402896,-0.174914,-0.0026663,178
0.40313,-0.175054,-0.00186605,181
0.403803,-0.175453,-0.0010653,173
0.404612,-0.175932,-0.000261517,178
0.404716,-0.175996,0.000543532,181
0.405087,-0.176216,0.00135046,180
0.405325,-0.176359,0.00215801,187
0.405609,-0.176528,0.00296704,190
0.405804,-0.176646,0.00377629,184
0.406134,-0.176843,0.00458828,193
0.406599,-0.177119,0.0054039,190
0.407785,-0.17782,0.00623465,185
0.407805,-0.177834,0.00704685,184
0.40778,-0.177822,0.00785819,183
0.407891,-0.17789,0.00867282,186
0.408589,-0.178304,0.00950371,183
0.408883,-0.178479,0.010326,185
0.410131,-0.179218,0.0111792,186
0.409609,-0.178911,0.0119791,187
0.41027,-0.179304,0.0128187,183
0.410934,-0.179697,0.0136613,194
0.411051,-0.179768,0.0144852,191
0.410619,-0.179516,0.0152867,185
0.411011,-0.179749,0.0161227,185
0.411176,-0.179848,0.0169499,187
0.411616,-0.18011,0.0177913,186
0.412426,-0.180591,0.0186534,187
0.411764,-0.180202,0.0194417,186
0.411977,-0.18033,0.0202751,185
0.413208,-0.181058,0.0211675,189
0.413007,-0.180942,0.0219808,188
0.413269,-0.181099,0.0228217,188
0.413487,-0.181229,0.0236611,191
0.413333,-0.181141,0.0244772,190
0.413551,-0.181272,0.025318,189
0.413538,-0.181266,0.0261437,189
0.413712,-0.181371,0.026983,188
0.413793,-0.18142,0.0278163,186
0.413735,-0.181388,0.0286395,186
0.414142,-0.181631,0.0294992,182
0.413713,-0.18138,0.0302934,185
0.413703,-0.181377,0.0311207,186
0.414673,-0.181951,0.0320312,186
0.413964,-0.181535,0.0328,184
0.413631,-0.18134,0.0335994,188
0.413855,-0.181475,0.0344486,181
0.413988,-0.181555,0.0352904,187
0.413749,-0.181416,0.0360973,185
0.41351,-0.181278,0.0369035,185
0.414063,-0.181606,0.0377881,185
0.413221,-0.181111,0.0385328,186
0.413495,-0.181275,0.0393905,187
0.412749,-0.180837,0.040141,186
0.413023,-0.181001,0.0409994,185
0.413206,-0.181111,0.041849,191
0.412972,-0.180975,0.0426526,195
0.413202,-0.181113,0.043509,193
0.411536,-0.180133,0.0441441,197
0.412042,-0.180433,0.0450318,194
0.411673,-0.180218,0.0458155,192
0.410479,-0.179515,0.0464957,190
0.410434,-0.179491,0.0473158,192
0.410161,-0.179332,0.0481067,195
0.410071,-0.179281,0.0489206,191
0.409981,-0.17923,0.0497345,194
0.409938,-0.179207,0.0505546,189
0.409987,-0.179238,0.0513873,187
0.408897,-0.178597,0.0520622,187
0.408266,-0.178226,0.0527975,186
0.40827,-0.178231,0.0536215,181
0.408638,-0.17845,0.0544987,179
0.408598,-0.178429,0.0553176,187
0.408331,-0.178274,0.0561027,178
0.408247,-0.178226,0.0569147,182
0.40939,-0.178903,0.057916,183
0.408942,-0.178641,0.0586737,183
0.408859,-0.178594,0.0594877,183
0.409232,-0.178816,0.060375,188
0.409104,-0.178743,0.0611826,184
0.40989,-0.179208,0.062141,186
0.410129,-0.179352,0.0630116,181
0.410231,-0.179414,0.0638605,185
0.409967,-0.179261,0.0646474,180
0.410391,-0.179513,0.0655532,188
0.410404,-0.179523,0.0663886,185
0.409958,-0.179262,0.0671428,181
0.410292,-0.179461,0.0680362,184
0.410168,-0.17939,0.0688477,183
0.411056,-0.179917,0.0698462,183
0.411348,-0.180091,0.0707375,181
0.411872,-0.180402,0.0716745,185
0.411518,-0.180196,0.072446,183
0.411303,-0.180071,0.0732434,184
0.411968,-0.180466,0.0742126,181
0.411384,-0.180123,0.0749377,183
0.413166,-0.181178,0.0761347,185
0.413325,-0.181274,0.0770112,181
0.412878,-0.181012,0.0777648,184
0.413178,-0.181191,0.0786714,186
0.413292,-0.181261,0.0795409,185
0.413219,-0.18122,0.080372,184
0.413802,-0.181567,0.0813431,181
0.414153,-0.181776,0.0822672,178
0.414317,-0.181875,0.0831526,181
0.414481,-0.181974,0.0840393,182
0.416254,-0.183023,0.085285,180
0.414859,-0.182201,0.0858274,182
0.415546,-0.182609,0.0868363,177
0.415429,-0.182543,0.0876649,178
0.416643,-0.183261,0.0888009,181
0.416813,-0.183364,0.0896992,180
0.416888,-0.183411,0.0905764,180
0.417155,-0.18357,0.0915001,179
0.417423,-0.183731,0.0924258,177
0.417835,-0.183977,0.0933882,178
0.417721,-0.183912,0.0942242,175
0.417944,-0.184045,0.0951433,174
0.417831,-0.183981,0.0959803,173
0.417862,-0.184002,0.0968537,177
0.418183,-0.184193,0.097801,172
0.419277,-0.184842,0.0989481,176
0.418152,-0.18418,0.0995283,174
0.419054,-0.184715,0.100631,170
0.418653,-0.18448,0.101397,170
0.418785,-0.18456,0.102303,174
0.418193,-0.184213,0.103016,174
0.418759,-0.184549,0.104039,178
0.41865,-0.184488,0.104882,174
0.418494,-0.184397,0.105713,177
0.418145,-0.184194,0.106489,177
0.417893,-0.184047,0.107292,181
0.417642,-0.183901,0.108095,179
0.417584,-0.183869,0.108952,183
0.417478,-0.183809,0.109795,181
0.417181,-0.183636,0.110584,176
0.41674,-0.183378,0.11133,179
0.415967,-0.182923,0.111978,179
0.415768,-0.182808,0.112792,177
0.415713,-0.182778,0.113648,176
0.415419,-0.182607,0.114434,173
0.415175,-0.182465,0.115233,168
0.415168,-0.182463,0.116104,179
0.414877,-0.182294,0.116889,177
0.414824,-0.182264,0.117746,180
0.414866,-0.182292,0.118634,173
0.414482,-0.182067,0.119388,172
0.413719,-0.181619,0.120024,173
0.413857,-0.181703,0.120941,172
0.413428,-0.181451,0.121679,172
0.413472,-0.18148,0.122567,168
0.413374,-0.181424,0.123411,171
0.413089,-0.181258,0.124193,167
0.414318,-0.181986,0.125471,169
0.413132,-0.181288,0.125959,173
0.414126,-0.181877,0.127166,161
0.414125,-0.181879,0.128046,168
0.414601,-0.182163,0.129086,166
0.414554,-0.182137,0.129953,171
0.413984,-0.181803,0.130641,161
0.413937,-0.181778,0.131507,163
0.413559,-0.181556,0.132259,162
0.414369,-0.182037,0.133424,165
0.413943,-0.181788,0.13416,158
0.414041,-0.181848,0.135079,156
0.414044,-0.181852,0.135966,170
0.414048,-0.181857,0.136854,162
0.413909,-0.181777,0.137692,163
0.414008,-0.181838,0.138616,165
0.414968,-0.182408,0.139854,170
0.413685,-0.181652,0.140275,168
0.414262,-0.181995,0.141378,163
0.41513,-0.18251,0.142591,166
0.413893,-0.181782,0.143023,162
0.413471,-0.181535,0.143757,161
0.413716,-0.181682,0.144742,161
0.4132,-0.181379,0.145438,157
0.412258,-0.180825,0.145971,160
0.413073,-0.181309,0.147176,163
0.411801,-0.18056,0.147577,152
0.411526,-0.1804,0.148362,158
0.411393,-0.180323,0.149202,157
0.411119,-0.180164,0.149986,155
0.410799,-0.179977,0.150752,156
0.410526,-0.179818,0.151535,154
0.409926,-0.179466,0.152187,154
0.410217,-0.17964,0.153197,147
0.409805,-0.179399,0.153923,152
0.409488,-0.179214,0.154687,148
0.409218,-0.179057,0.155469,148
0.408995,-0.178927,0.156271,153
0.409006,-0.178936,0.157169,149
0.409111,-0.179001,0.158108,139
0.408889,-0.178872,0.15891,142
0.409839,-0.179435,0.160207,142
0.409101,-0.179002,0.160793,136
0.408834,-0.178846,0.161577,135
0.40838,-0.17858,0.16228,138
0.408673,-0.178756,0.163305,138
0.408874,-0.178877,0.164292,135
0.409686,-0.179359,0.165547,134
0.408903,-0.178899,0.166107,134
0.409528,-0.179271,0.167285,126
0.409732,-0.179394,0.16828,127
0.409795,-0.179433,0.169215,125
0.409717,-0.17939,0.170087,132
0.410064,-0.179597,0.171151,140
0.410412,-0.179805,0.172218,136
0.410903,-0.180098,0.173353,133
0.411921,-0.180702,0.174732,127
0.412466,-0.181026,0.175899,122
0.412773,-0.18121,0.17696,119
0.411931,-0.180715,0.177488,113
0.412429,-0.181012,0.17864,116
0.41293,-0.18131,0.179796,112
0.412662,-0.181154,0.180594,106
0.413647,-0.181738,0.181984,118
0.413959,-0.181925,0.183059,127
0.413933,-0.181912,0.183975,121
0.414004,-0.181957,0.184939,118
0.414366,-0.182174,0.186045,127
0.414439,-0.182219,0.187012,126
0.414366,-0.182178,0.187909,119
0.415462,-0.182828,0.189382,111
0.41578,-0.183019,0.190477,102
0.415317,-0.182748,0.191186,114
0.416028,-0.183171,0.192479,107
0.416055,-0.183189,0.193434,115
0.415592,-0.182917,0.194144,121
0.415521,-0.182878,0.19505,123
0.415597,-0.182926,0.196032,119
0.416116,-0.183235,0.197241,119
0.415457,-0.182848,0.19785,111
0.4148,-0.182462,0.198457,112
0.414731,-0.182423,0.199366,130
0.415004,-0.182587,0.200455,111
0.415671,-0.182984,0.201751,109
0.416884,-0.183704,0.203339,104
0.380418,-0.1649,-0.19597,7
0.380716,-0.16508,-0.195263,15
0.381792,-0.165727,-0.194983,12
0.380538,-0.164979,-0.193425,13
0.382023,-0.16587,-0.193364,12
0.382036,-0.16588,-0.1925,16
0.382131,-0.165939,-0.191681,16
0.382638,-0.166245,-0.191083,17
0.382487,-0.166157,-0.190132,15
0.382255,-0.16602,-0.18914,15
0.38231,-0.166056,-0.188301,18
0.384552,-0.167401,-0.188617,16
0.381481,-0.165563,-0.186133,17
0.383753,-0.166927,-0.186457,16
0.38282,-0.166371,-0.185104,19
0.383123,-0.166554,-0.184396,17
0.382974,-0.166467,-0.183455,19
0.38518,-0.167791,-0.183722,19
0.3842,-0.167206,-0.182354,23
0.38331,-0.166675,-0.181037,22
0.38506,-0.167726,-0.18106,22
0.384869,-0.167614,-0.180099,21
0.38377,-0.166958,-0.178685,19
0.384075,-0.167143,-0.177977,23
0.38401,-0.167106,-0.177084,33
0.384069,-0.167143,-0.176253,24
0.385367,-0.167924,-0.176032,21
0.384433,-0.167366,-0.174715,18
0.385361,-0.167924,-0.174308,25
0.386627,-0.168685,-0.174061,23
0.385853,-0.168224,-0.172827,25
0.387206,-0.169036,-0.172616,24
0.386431,-0.168574,-0.171385,23
0.387158,-0.169013,-0.170872,25
0.387931,-0.169478,-0.170377,27
0.388412,-0.169768,-0.169742,27
0.386965,-0.168903,-0.168204,29
0.387653,-0.169318,-0.167667,26
0.388427,-0.169784,-0.167168,34
0.388825,-0.170025,-0.166492,34
0.388047,-0.169561,-0.165277,31
0.388193,-0.169651,-0.164487,27
0.389391,-0.170371,-0.164174,33
0.389496,-0.170436,-0.163363,28
0.39049,-0.171034,-0.162951,33
0.38899,-0.170137,-0.161422,36
0.389981,-0.170734,-0.161007,41
0.390129,-0.170825,-0.160216,32
0.390532,-0.171068,-0.159537,33
0.390046,-0.170779,-0.158468,35
0.390873,-0.171277,-0.157973,35
0.391703,-0.171777,-0.157476,35
0.392665,-0.172356,-0.157033,38
0.392004,-0.171962,-0.155892,39
0.393225,-0.172696,-0.155555,32
0.391922,-0.171917,-0.154146,42
0.393357,-0.172779,-0.153895,43
0.392395,-0.172205,-0.152636,38
0.392847,-0.172478,-0.151969,44
0.394116,-0.173241,-0.15164,37
0.393624,-0.172948,-0.150581,39
0.393735,-0.173017,-0.149771,38
0.394751,-0.173628,-0.14933,42
0.394258,-0.173335,-0.148275,45
0.39519,-0.173896,-0.147795,51
0.39617,-0.174486,-0.147331,49
0.395371,-0.174009,-0.146157,45
0.395917,-0.174339,-0.145518,43
0.397207,-0.175114,-0.145169,51
0.397802,-0.175473,-0.144544,45
0.397741,-0.175439,-0.143662,49
0.397243,-0.175142,-0.142613,48
0.397708,-0.175423,-0.141935,50
0.398525,-0.175915,-0.141391,49
0.398377,-0.175829,-0.140478,48
0.397966,-0.175585,-0.139467,46
0.398961,-0.176184,-0.138985,49
0.399696,-0.176626,-0.138402,48
0.401234,-0.17755,-0.138113,52
0.400818,-0.177303,-0.137101,53
0.400936,-0.177376,-0.136286,57
0.40226,-0.178172,-0.135908,57
0.40104,-0.177443,-0.134608,52
0.401338,-0.177624,-0.133858,57
0.401324,-0.177618,-0.132996,59
0.402024,-0.17804,-0.132388,58
0.402547,-0.178356,-0.131715,56
0.402444,-0.178297,-0.130821,54
0.403374,-0.178856,-0.130287,59
0.402017,-0.178045,-0.128961,56
0.403438,-0.178899,-0.128593,58
0.403471,-0.178921,-0.127747,55
0.40373,-0.179078,-0.126978,60
0.403134,-0.178724,-0.125922,60
0.403617,-0.179016,-0.125229,62
0.403472,-0.178931,-0.124326,63
0.403282,-0.178819,-0.12341,70
0.40278,-0.17852,-0.122393,69
0.40286,-0.178571,-0.121568,66
0.403703,-0.179078,-0.120988,67
0.403695,-0.179075,-0.120134,69
0.403283,-0.178831,-0.119152,70
0.40323,-0.178801,-0.118285,71
0.403178,-0.178772,-0.11742,70
0.402412,-0.178315,-0.116334,71
0.402896,-0.178608,-0.115637,70
0.403158,-0.178767,-0.114871,74
0.403287,-0.178846,-0.114063,82
0.402523,-0.17839,-0.112987,78
0.402607,-0.178443,-0.112168,73
0.402335,-0.178283,-0.111244,85
0.402065,-0.178123,-0.110322,94
0.402372,-0.178309,-0.109571,89
0.402191,-0.178203,-0.108677,82
0.402322,-0.178283,-0.107874,87
0.401876,-0.178018,-0.106907,89
0.40183,-0.177993,-0.106055,94
0.40174,-0.177941,-0.105192,102
0.401827,-0.177995,-0.10438,102
0.401782,-0.177971,-0.10353,100
0.401738,-0.177946,-0.102682,93
0.403025,-0.178721,-0.102197,100
0.402936,-0.17867,-0.101335,101
0.401872,-0.178034,-0.100213,100
0.401785,-0.177983,-0.099356,100
0.402097,-0.178173,-0.0986045,108
0.402453,-0.178389,-0.0978639,115
0.402013,-0.178127,-0.0969161,114
0.401839,-0.178025,-0.0960391,113
0.401843,-0.178029,-0.0952084,113
0.401802,-0.178007,-0.0943672,108
0.401586,-0.177879,-0.0934827,106
0.4019,-0.17807,-0.0927308,110
0.401596,-0.17789,-0.0918267,112
0.401822,-0.178028,-0.0910531,111
0.401828,-0.178033,-0.090226,111
0.401791,-0.178013,-0.0893889,117
0.401533,-0.177861,-0.0885005,116
0.401276,-0.177709,-0.0876139,121
0.401196,-0.177663,-0.0867699,126
0.40116,-0.177644,-0.0859368,130
0.401257,-0.177704,-0.0851345,128
0.40074,-0.177396,-0.0841939,128
0.400574,-0.177298,-0.0833346,125
0.40054,-0.17728,-0.0825055,128
0.400638,-0.177341,-0.0817058,130
0.400387,-0.177193,-0.0808305,131
0.400486,-0.177254,-0.0800317,130
0.400848,-0.177473,-0.0792887,129
0.400291,-0.177142,-0.0783519,123
0.399912,-0.176916,-0.0774547,127
0.399707,-0.176796,-0.0765955,127
0.399416,-0.176623,-0.0757202,130
0.398391,-0.176011,-0.074699,130
0.39763,-0.175556,-0.0737352,128
0.398464,-0.176059,-0.0730884,130
0.397704,-0.175605,-0.0721288,128
0.397205,-0.175307,-0.071223,135
0.397093,-0.175242,-0.0703932,132
0.396639,-0.174972,-0.0695003,139
0.396229,-0.174728,-0.0686179,137
0.395992,-0.174588,-0.0677691,140
0.394611,-0.173762,-0.0667148,146
0.394208,-0.173522,-0.0658418,140
0.394058,-0.173434,-0.0650157,136
0.393573,-0.173146,-0.0641322,142
0.392672,-0.172607,-0.0631793,145
0.392067,-0.172246,-0.0622812,145
0.391631,-0.171986,-0.0614144,145
0.391196,-0.171728,-0.06055,147
0.390887,-0.171544,-0.0597084,146
0.390208,-0.171139,-0.0588089,143
0.389614,-0.170785,-0.0579262,147
0.389023,-0.170432,-0.0570467,147
0.388924,-0.170375,-0.0562464,155
0.388336,-0.170024,-0.0553722,153
0.388075,-0.16987,-0.0545501,158
0.387978,-0.169813,-0.0537536,155
0.387719,-0.16966,-0.0529342,160
0.387704,-0.169653,-0.0521514,153
0.38777,-0.169695,-0.0513804,156
0.387959,-0.16981,-0.0506265,158
0.38762,-0.169609,-0.0497996,160
0.388053,-0.169871,-0.0490788,162
0.388243,-0.169987,-0.048324,158
0.38819,-0.169957,-0.0475368,161
0.387893,-0.169781,-0.0467189,158
0.388125,-0.169922,-0.0459693,157
0.388561,-0.170186,-0.0452443,163
0.388387,-0.170083,-0.0444432,159
0.388539,-0.170177,-0.0436822,155
0.38914,-0.170539,-0.0429736,164
0.389171,-0.17056,-0.0421968,164
0.38953,-0.170777,-0.0414572,166
0.389112,-0.170529,-0.0406299,164
0.389716,-0.170893,-0.0399162,164
0.389504,-0.170768,-0.0391126,168
0.389864,-0.170986,-0.0383703,159
0.390226,-0.171205,-0.0376268,164
0.390014,-0.17108,-0.0368242,170
0.3912,-0.171794,-0.0361602,169
0.390288,-0.171249,-0.0352896,163
0.390693,-0.171494,-0.0345469,164
0.39077,-0.171542,-0.0337724,160
0.391178,-0.171789,-0.0330274,165
0.39072,-0.171516,-0.0322052,166
0.391252,-0.171837,-0.0314696,163
0.392117,-0.172359,-0.0307595,165
0.391534,-0.172011,-0.0299286,166
0.391738,-0.172135,-0.0291624,171
0.392523,-0.172609,-0.02844,167
0.392189,-0.172411,-0.027631,172
0.393061,-0.172936,-0.0269108,177
0.392976,-0.172887,-0.0261199,176
0.393184,-0.173014,-0.0253493,174
0.393685,-0.173317,-0.0245973,170
0.393936,-0.173469,-0.0238274,176
0.394021,-0.173522,-0.0230462,172
0.394106,-0.173575,-0.0222649,179
0.393772,-0.173377,-0.0214593,175
0.394445,-0.173783,-0.0207107,173
0.395162,-0.174216,-0.0199617,175
0.395292,-0.174296,-0.0191798,178
0.395126,-0.174199,-0.0183831,178
0.396314,-0.174913,-0.0176501,181
0.396233,-0.174867,-0.0168559,175
0.39662,-0.175101,-0.0160818,184
0.396498,-0.17503,-0.0152858,174
0.396674,-0.175138,-0.0145016,181
0.396637,-0.175118,-0.0137092,181
0.397197,-0.175456,-0.012937,180
0.39746,-0.175616,-0.0121531,179
0.39798,-0.175931,-0.0113757,178
0.398632,-0.176324,-0.0105996,184
0.39864,-0.176331,-0.00980476,182
0.399252,-0.1767,-0.00902363,185
0.399477,-0.176837,-0.00823196,186
0.399703,-0.176975,-0.00743937,189
0.400059,-0.177191,-0.00664795,183
0.401112,-0.177825,-0.00586483,181
0.400429,-0.177417,-0.00505649,183
0.401266,-0.177922,-0.00426597,183
0.401192,-0.17788,-0.0034649,185
0.401554,-0.178099,-0.00266654,182
0.402004,-0.178372,-0.00186692,183
0.403115,-0.179041,-0.00106611,180
0.403835,-0.179475,-0.000260893,184
0.403983,-0.179566,0.000545628,184
0.404309,-0.179764,0.00135375,181
0.404193,-0.179696,0.00215999,185
0.405097,-0.180241,0.00297559,187
0.40614,-0.18087,0.00379677,186
0.406516,-0.181098,0.00461317,190
0.406401,-0.181031,0.00542331,190
0.406734,-0.181233,0.0062412,191
0.406306,-0.180978,0.00704502,186
0.40664,-0.181181,0.00786426,187
0.406258,-0.180953,0.00866728,185
0.406772,-0.181264,0.00949283,182
0.406704,-0.181226,0.0103038,183
0.407086,-0.181457,0.0111285,185
0.407289,-0.181581,0.011949,185
0.407493,-0.181706,0.0127705,186
0.408828,-0.18251,0.0136356,185
0.408762,-0.182472,0.0144507,190
0.409197,-0.182735,0.0152867,193
0.409314,-0.182808,0.0161106,184
0.409477,-0.182908,0.0169372,183
0.409732,-0.183063,0.0177692,184
0.409988,-0.183219,0.0186024,191
0.410291,-0.183403,0.0194393,188
0.410823,-0.183725,0.0202903,185
0.411359,-0.184049,0.0211438,186
0.411113,-0.183904,0.0219535,187
0.411558,-0.184173,0.0228047,188
0.411543,-0.184166,0.0236288,194
0.411253,-0.183994,0.0244347,190
0.410963,-0.183822,0.0252397,187
0.411917,-0.184398,0.0261308,192
0.41103,-0.183867,0.0268929,185
0.411847,-0.184359,0.0277784,190
0.411789,-0.184327,0.0286006,189
0.411778,-0.184323,0.0294263,190
0.411768,-0.184319,0.0302523,191
0.411712,-0.184287,0.0310746,191
0.411564,-0.184201,0.031889,191
0.411924,-0.184419,0.0327474,188
0.411639,-0.18425,0.0335497,187
0.412001,-0.18447,0.0344104,190
0.411348,-0.184079,0.0351774,187
0.411525,-0.184188,0.0360218,188
0.411427,-0.184131,0.03684,187
0.411652,-0.184269,0.0376905,194
0.411417,-0.184129,0.0384949,193
0.411643,-0.184267,0.0393469,194
0.411593,-0.18424,0.0401706,195
0.411082,-0.183935,0.040944,195
0.411033,-0.183908,0.0417669,193
0.410847,-0.183798,0.0425742,197
0.410753,-0.183744,0.0433916,190
0.409241,-0.182838,0.0440417,189
0.409103,-0.182757,0.0448505,192
0.408784,-0.182567,0.0456368,188
0.408602,-0.18246,0.0464391,189
0.408466,-0.182381,0.0472467,187
0.408194,-0.18222,0.0480365,191
0.407336,-0.181706,0.0487485,186
0.406751,-0.181357,0.0494936,189
0.406934,-0.181469,0.0503402,185
0.406666,-0.18131,0.051126,189
0.40631,-0.181098,0.0518985,187
0.406044,-0.180941,0.0526827,180
0.406407,-0.181161,0.0535566,180
0.406547,-0.181247,0.0543998,185
0.407138,-0.181605,0.0553109,186
0.408869,-0.182647,0.0563964,182
0.40706,-0.181562,0.0569492,175
0.407022,-0.181541,0.0577687,176
0.40798,-0.182119,0.058745,181
0.408579,-0.182481,0.0596686,183
0.408087,-0.182188,0.060419,186
0.408505,-0.182442,0.0613166,184
0.408196,-0.182258,0.0620957,183
0.409301,-0.182924,0.0631115,182
0.409037,-0.182768,0.0638994,186
0.408957,-0.182722,0.0647183,185
0.409015,-0.182758,0.0655611,188
0.409255,-0.182905,0.0664371,181
0.408674,-0.182558,0.0671673,184
0.409419,-0.183008,0.0681357,184
0.409799,-0.183239,0.069041,182
0.40963,-0.183139,0.0698462,184
0.410473,-0.183648,0.0708413,188
0.410258,-0.183521,0.0716394,189
0.410182,-0.183477,0.0724637,186
0.411121,-0.184044,0.0734857,181
0.410722,-0.183807,0.0742489,185
0.41074,-0.18382,0.0750936,182
0.411824,-0.184473,0.0761533,186
0.412168,-0.184682,0.0770679,189
0.41256,-0.18492,0.0779944,185
0.412254,-0.184738,0.0787777,188
0.412228,-0.184725,0.0796191,184
0.412575,-0.184936,0.0805401,188
0.412784,-0.185063,0.0814333,178
0.412853,-0.185107,0.0822976,184
0.413672,-0.185602,0.0833271,179
0.413367,-0.185421,0.0841119,181
0.414049,-0.185833,0.0851163,180
0.41464,-0.18619,0.0861037,180
0.415328,-0.186606,0.0871164,182
0.415211,-0.186538,0.0879476,178
0.415618,-0.186785,0.0889001,179
0.415978,-0.187003,0.0898441,180
0.416053,-0.187051,0.0907229,178
0.416224,-0.187156,0.0916254,177
0.416492,-0.187319,0.0925524,176
0.417383,-0.187857,0.093633,174
0.417461,-0.187906,0.0945184,174
0.417252,-0.187783,0.0953333,175
0.417619,-0.188006,0.0962921,177
0.416787,-0.187508,0.0969503,179
0.417683,-0.188049,0.0980455,180
0.418198,-0.188361,0.0990472,176
0.416645,-0.187429,0.0995159,181
0.416966,-0.187624,0.100468,179
0.417673,-0.188052,0.101524,179
0.416602,-0.187411,0.102111,181
0.417984,-0.188243,0.103352,180
0.417875,-0.18818,0.104196,181
0.416468,-0.187337,0.104686,181
0.416169,-0.18716,0.105475,183
0.41611,-0.187126,0.10633,181
0.415908,-0.187007,0.107145,181
0.415754,-0.186917,0.107974,179
0.415553,-0.186798,0.108789,180
0.415544,-0.186795,0.109658,181
0.415201,-0.186591,0.110432,182
0.414716,-0.186302,0.111164,179
0.414945,-0.186442,0.112103,176
0.4147,-0.186297,0.112904,180
0.413837,-0.185781,0.113521,179
0.413452,-0.185551,0.114278,182
0.413114,-0.18535,0.115047,181
0.412777,-0.18515,0.115817,178
0.412677,-0.185092,0.116657,176
0.411778,-0.184554,0.117252,174
0.411819,-0.184581,0.118135,175
0.411955,-0.184665,0.119049,174
0.410873,-0.184016,0.11958,172
0.41129,-0.184269,0.120583,168
0.411286,-0.184269,0.121453,165
0.411142,-0.184185,0.12228,171
0.411326,-0.184298,0.123212,166
0.411183,-0.184214,0.12404,168
0.411275,-0.184272,0.124944,160
0.411602,-0.184471,0.125928,160
0.411272,-0.184275,0.126694,163
0.411788,-0.184587,0.127744,165
0.412542,-0.185043,0.128878,162
0.411835,-0.18462,0.129518,161
0.411694,-0.184538,0.13035,154
0.412828,-0.185222,0.131622,156
0.411696,-0.184544,0.132112,157
0.411886,-0.18466,0.13306,157
0.411888,-0.184664,0.133944,157
0.41208,-0.184781,0.134895,153
0.412177,-0.184842,0.135814,154
0.412986,-0.185331,0.136991,156
0.412042,-0.184766,0.137538,161
0.412852,-0.185255,0.138719,156
0.412667,-0.185146,0.139541,158
0.413052,-0.18538,0.140572,161
0.413868,-0.185873,0.141766,163
0.41421,-0.186081,0.142787,163
0.414216,-0.186087,0.143685,161
0.414128,-0.186037,0.144548,164
0.413561,-0.185698,0.14523,165
0.413952,-0.185935,0.146275,163
0.413816,-0.185856,0.147121,163
0.414112,-0.186037,0.148134,161
0.413547,-0.185699,0.148814,160
0.413556,-0.185707,0.149716,154
0.413757,-0.18583,0.150696,159
0.413002,-0.185379,0.151298,154
0.412584,-0.185129,0.152031,153
0.412071,-0.184823,0.152726,153
0.411702,-0.184603,0.153476,149
0.411618,-0.184555,0.154342,151
0.411534,-0.184507,0.155208,150
0.410694,-0.184004,0.155764,150
0.410752,-0.184042,0.156688,148
0.411096,-0.184251,0.157731,149
0.410304,-0.183777,0.158303,153
0.410459,-0.183872,0.159268,153
0.410283,-0.183769,0.160096,145
0.410343,-0.183807,0.161025,143
0.410404,-0.183846,0.161954,139
0.410371,-0.183829,0.162844,136
0.410858,-0.184125,0.16396,132
0.410447,-0.183879,0.164689,136
0.410225,-0.183749,0.165499,136
0.410572,-0.18396,0.166559,134
0.41054,-0.183943,0.167454,133
0.411269,-0.184384,0.168686,131
0.410099,-0.183682,0.169077,127
0.4104,-0.183866,0.170123,128
0.410987,-0.184221,0.171299,129
0.41129,-0.184406,0.17235,135
0.411023,-0.184247,0.173144,137
0.411757,-0.184691,0.174396,127
0.412879,-0.185369,0.175831,122
0.41237,-0.185065,0.176518,127
0.41263,-0.185224,0.177561,124
0.413084,-0.1855,0.178696,117
0.412816,-0.185341,0.179495,123
0.413416,-0.185704,0.180704,121
0.413341,-0.185662,0.181596,119
0.41317,-0.185561,0.182443,124
0.414063,-0.186101,0.183801,113
0.413311,-0.185651,0.18437,116
0.413238,-0.185609,0.185266,118
0.413794,-0.185947,0.186468,120
0.414109,-0.186139,0.187557,129
0.413309,-0.18566,0.188099,125
0.413624,-0.185852,0.18919,118
0.413358,-0.185694,0.189994,117
0.414258,-0.186238,0.19138,119
0.413992,-0.18608,0.192186,122
0.413047,-0.185514,0.192651,119
0.412831,-0.185387,0.19348,122
0.413148,-0.18558,0.194581,113
0.412981,-0.185482,0.195436,113
0.412717,-0.185326,0.196242,113
0.413084,-0.185549,0.197373,117
0.413452,-0.185773,0.198507,108
0.413237,-0.185646,0.199341,131
0.413606,-0.18587,0.20048,107
0.414466,-0.18639,0.20188,100
0.41533,-0.186913,0.203287,99
0.380291,-0.168601,-0.196627,7
0.381161,-0.169135,-0.196235,16
0.380519,-0.168745,-0.195006,9
0.377779,-0.167077,-0.192627,11
0.38239,-0.169891,-0.194285,14
0.382156,-0.16975,-0.193281,18
0.379191,-0.167944,-0.1908,18
0.38173,-0.169495,-0.191304,14
0.380599,-0.168808,-0.189825,17
0.382003,-0.169666,-0.189709,17
0.381321,-0.169252,-0.188475,14
0.379505,-0.168148,-0.186646,24
0.382374,-0.169899,-0.187296,18
0.381405,-0.169311,-0.185919,15
0.380686,-0.168875,-0.184678,17
0.382008,-0.169683,-0.184503,20
0.382269,-0.169845,-0.183773,17
0.381181,-0.169183,-0.182347,19
0.380141,-0.168551,-0.180952,19
0.38203,-0.169705,-0.181058,21
0.381882,-0.169618,-0.180121,19
0.383541,-0.170631,-0.180099,19
0.383392,-0.170543,-0.17916,20
0.38548,-0.171819,-0.179343,20
0.382481,-0.169992,-0.176982,24
0.38435,-0.171134,-0.17705,23
0.383213,-0.170443,-0.175626,25
0.383971,-0.170908,-0.175139,26
0.383742,-0.17077,-0.174167,26
0.383965,-0.170909,-0.173417,23
0.384314,-0.171123,-0.172727,27
0.385741,-0.171996,-0.172556,22
0.385842,-0.17206,-0.171743,24
0.386486,-0.172455,-0.17119,26
0.385049,-0.171581,-0.169647,32
0.386189,-0.172279,-0.169328,29
0.385294,-0.171735,-0.168048,30
0.385479,-0.17185,-0.167279,26
0.386164,-0.17227,-0.166741,27
0.386475,-0.172462,-0.166028,31
0.387037,-0.172807,-0.16543,30
0.38689,-0.17272,-0.164506,29
0.387328,-0.172989,-0.163849,32
0.388271,-0.173567,-0.16342,32
0.387998,-0.173402,-0.162439,31
0.387516,-0.17311,-0.161366,38
0.388839,-0.17392,-0.161101,35
0.387517,-0.173115,-0.159658,34
0.389726,-0.174465,-0.159779,34
0.389578,-0.174377,-0.158857,39
0.389854,-0.174548,-0.158121,40
0.390257,-0.174796,-0.157439,36
0.392713,-0.176296,-0.157643,43
0.389963,-0.174621,-0.155601,41
0.390834,-0.175155,-0.155118,43
0.39141,-0.175509,-0.154507,39
0.392288,-0.176046,-0.154021,41
0.392568,-0.176219,-0.153281,42
0.392291,-0.176053,-0.152308,43
0.392529,-0.176201,-0.151551,45
0.393412,-0.176741,-0.151059,43
0.394169,-0.177206,-0.150513,42
0.395147,-0.177804,-0.150053,43
0.394348,-0.177319,-0.148869,46
0.394459,-0.177389,-0.148056,47
0.395873,-0.178254,-0.147767,51
0.39529,-0.1779,-0.146674,46
0.394838,-0.177627,-0.145638,50
0.395428,-0.177989,-0.145014,50
0.395933,-0.1783,-0.144356,51
0.39609,-0.178398,-0.14356,52
0.396465,-0.178629,-0.142849,49
0.39706,-0.178994,-0.142221,53
0.397921,-0.179522,-0.141693,48
0.398741,-0.180024,-0.141146,49
0.39846,-0.179855,-0.14018,49
0.398532,-0.179902,-0.139348,54
0.398516,-0.179894,-0.138484,56
0.398765,-0.180048,-0.137719,56
0.399369,-0.180419,-0.137084,54
0.400285,-0.18098,-0.136562,47
0.399826,-0.180702,-0.135535,59
0.401235,-0.181564,-0.135188,55
0.401354,-0.181639,-0.13437,55
0.401295,-0.181606,-0.133489,50
0.402086,-0.182091,-0.132911,56
0.401759,-0.181893,-0.131935,55
0.402283,-0.182215,-0.13126,53
0.401599,-0.1818,-0.130162,56
0.40181,-0.181931,-0.129378,56
0.401887,-0.18198,-0.128547,57
0.402054,-0.182085,-0.127747,59
0.401819,-0.181943,-0.126811,59
0.402568,-0.182403,-0.126208,64
0.402154,-0.182153,-0.125214,68
0.402861,-0.182586,-0.124594,72
0.402223,-0.182199,-0.123528,74
0.402437,-0.182332,-0.122744,73
0.402428,-0.182329,-0.121887,70
0.402642,-0.182462,-0.121104,72
0.402231,-0.182213,-0.120119,66
0.40267,-0.182483,-0.119408,67
0.401591,-0.181827,-0.118215,68
0.40194,-0.182042,-0.117476,69
0.402067,-0.182122,-0.116667,74
0.401126,-0.18155,-0.115527,81
0.401297,-0.181657,-0.114734,79
0.401381,-0.18171,-0.113914,79
0.400755,-0.18133,-0.11288,80
0.400794,-0.181356,-0.112049,89
0.4011,-0.181545,-0.111297,92
0.400698,-0.181302,-0.110335,92
0.400871,-0.18141,-0.109545,94
0.400912,-0.181437,-0.108716,89
0.400821,-0.181384,-0.107849,91
0.400686,-0.181304,-0.10697,87
0.401303,-0.181683,-0.106307,89
0.401036,-0.181522,-0.105392,91
0.4013,-0.181685,-0.104627,100
0.401743,-0.181957,-0.103911,98
0.401609,-0.181878,-0.103035,100
0.401343,-0.181718,-0.102124,108
0.402142,-0.182208,-0.101503,107
0.40192,-0.182075,-0.100605,102
0.401877,-0.182051,-0.0997564,104
0.401568,-0.181864,-0.098838,104
0.402191,-0.182247,-0.0981655,102
0.401307,-0.181709,-0.0970994,103
0.401045,-0.181552,-0.0961979,107
0.401314,-0.181718,-0.0954334,109
0.401361,-0.181749,-0.0946125,112
0.401233,-0.181673,-0.0937477,115
0.401326,-0.181732,-0.0929389,114
0.401419,-0.181791,-0.0921303,110
0.401734,-0.181985,-0.0913759,110
0.40121,-0.181668,-0.0904176,114
0.40126,-0.1817,-0.0895998,121
0.401355,-0.181761,-0.0887928,123
0.401362,-0.181767,-0.0879653,118
0.400665,-0.181344,-0.0869741,128
0.400717,-0.181378,-0.0861593,125
0.400638,-0.181332,-0.0853148,128
0.400252,-0.181098,-0.0844017,127
0.400043,-0.180972,-0.0835302,128
0.399877,-0.180874,-0.08267,130
0.399757,-0.180802,-0.0818207,127
0.399375,-0.180571,-0.0809156,132
0.400698,-0.181381,-0.0803796,138
0.399659,-0.180749,-0.0793351,135
0.399105,-0.180413,-0.0783977,134
0.400165,-0.181062,-0.0777997,138
0.399392,-0.180592,-0.0768195,138
0.398883,-0.180284,-0.075897,132
0.398941,-0.180321,-0.0750914,133
0.398132,-0.179829,-0.074113,137
0.39819,-0.179867,-0.0733097,135
0.39773,-0.179588,-0.0724055,137
0.397358,-0.179364,-0.0715207,132
0.396988,-0.179139,-0.0706381,145
0.39679,-0.179021,-0.0697901,141
0.39655,-0.178876,-0.0689356,140
0.396012,-0.17855,-0.0680275,143
0.395561,-0.178276,-0.0671381,141
0.395239,-0.178082,-0.0662742,134
0.394325,-0.177526,-0.0653071,140
0.393585,-0.177076,-0.0643748,145
0.392765,-0.176578,-0.0634322,146
0.39145,-0.175776,-0.0624089,146
0.391055,-0.175537,-0.0615471,145
0.39091,-0.175451,-0.0607289,143
0.39027,-0.175062,-0.0598303,147
0.390664,-0.175305,-0.0591026,147
0.389778,-0.174766,-0.0581687,144
0.389554,-0.174631,-0.0573434,148
0.389126,-0.174372,-0.0564877,148
0.388372,-0.173913,-0.0555842,149
0.3875,-0.173383,-0.0546665,148
0.387362,-0.173301,-0.0538622,154
0.386941,-0.173045,-0.0530173,152
0.386885,-0.173013,-0.0522273,155
0.386992,-0.173081,-0.051461,157
0.387099,-0.173148,-0.0506945,156
0.386478,-0.172771,-0.0498275,161
0.386828,-0.172987,-0.0490952,162
0.387018,-0.173105,-0.0483402,158
0.387126,-0.173173,-0.0475741,156
0.38756,-0.17344,-0.0468497,157
0.387467,-0.173386,-0.0460567,156
0.387943,-0.173678,-0.0453355,163
0.38781,-0.173599,-0.0445377,154
0.388247,-0.173868,-0.0438094,154
0.388359,-0.173938,-0.043041,160
0.388226,-0.17386,-0.042244,162
0.388339,-0.173931,-0.0414757,164
0.38833,-0.173927,-0.0406936,165
0.388485,-0.174024,-0.0399296,161
0.388721,-0.17417,-0.039174,159
0.388877,-0.174267,-0.038409,159
0.389688,-0.174765,-0.0377112,157
0.389681,-0.174763,-0.0369274,164
0.389962,-0.174937,-0.0361724,165
0.390161,-0.17506,-0.0354084,171
0.389662,-0.174758,-0.0345778,175
0.390315,-0.175158,-0.0338558,176
0.390474,-0.175258,-0.0330867,172
0.390511,-0.175282,-0.0323063,172
0.390672,-0.175383,-0.0315366,171
0.390833,-0.175483,-0.0307664,169
0.391907,-0.176141,-0.0300698,167
0.392028,-0.176218,-0.0292934,167
0.391445,-0.175863,-0.0284623,172
0.39219,-0.176321,-0.0277333,173
0.392397,-0.176449,-0.0269621,175
0.392021,-0.176222,-0.0261491,176
0.392478,-0.176503,-0.0253948,176
0.392187,-0.176327,-0.0245891,173
0.39277,-0.176685,-0.0238407,175
0.393063,-0.176866,-0.023072,173
0.393022,-0.176844,-0.0222823,175
0.393358,-0.177051,-0.0215145,179
0.394199,-0.177567,-0.0207733,177
0.394412,-0.177699,-0.0199952,173
0.394878,-0.177986,-0.0192291,177
0.394587,-0.17781,-0.0184242,180
0.395097,-0.178124,-0.017658,181
0.395185,-0.17818,-0.0168709,180
0.395444,-0.17834,-0.0160907,183
0.395534,-0.178397,-0.0153027,176
0.395624,-0.178455,-0.0145145,175
0.39597,-0.178668,-0.013735,184
0.396274,-0.178856,-0.0129527,181
