ply
format ascii 1.0
comment VCGLIB generated
element vertex 1338
property float x
property float y
property float z
property float nx
property float ny
property float nz
element face 0
property list uchar int vertex_indices
end_header
0.274415 -0.700234 -0.512997 0 0 0 
0.274022 -0.699977 -0.512075 0 0 0 
0.274171 -0.700078 -0.511264 0 0 0 
0.275361 -0.700866 -0.510661 0 0 0 
0.274877 -0.700549 -0.509722 0 0 0 
0.274846 -0.700531 -0.508875 0 0 0 
0.275723 -0.701113 -0.508203 0 0 0 
0.275376 -0.700885 -0.507294 0 0 0 
0.276164 -0.701409 -0.506601 0 0 0 
0.276181 -0.701422 -0.505761 0 0 0 
0.275517 -0.700986 -0.504796 0 0 0 
0.275716 -0.70112 -0.503992 0 0 0 
0.276873 -0.701887 -0.503359 0 0 0 
0.275799 -0.701179 -0.502325 0 0 0 
0.276546 -0.701675 -0.501616 0 0 0 
0.276156 -0.701419 -0.500707 0 0 0 
0.276905 -0.701917 -0.499994 0 0 0 
0.276698 -0.701782 -0.499118 0 0 0 
0.276765 -0.701829 -0.498288 0 0 0 
0.277152 -0.702087 -0.497511 0 0 0 
0.27649 -0.701651 -0.496562 0 0 0 
0.276695 -0.701789 -0.495756 0 0 0 
0.276536 -0.701686 -0.494891 0 0 0 
0.277016 -0.702006 -0.494126 0 0 0 
0.276858 -0.701904 -0.493263 0 0 0 
0.276654 -0.701772 -0.492393 0 0 0 
0.277045 -0.702032 -0.491613 0 0 0 
0.276934 -0.701961 -0.490758 0 0 0 
0.276914 -0.70195 -0.489917 0 0 0 
0.277078 -0.702061 -0.489102 0 0 0 
0.277288 -0.702202 -0.488293 0 0 0 
0.277225 -0.702162 -0.487446 0 0 0 
0.276934 -0.701972 -0.486569 0 0 0 
0.277099 -0.702084 -0.485754 0 0 0 
0.277174 -0.702136 -0.484927 0 0 0 
0.276794 -0.701887 -0.484042 0 0 0 
0.277098 -0.70209 -0.483244 0 0 0 
0.277038 -0.702052 -0.482401 0 0 0 
0.276796 -0.701895 -0.481535 0 0 0 
0.276873 -0.701948 -0.48071 0 0 0 
0.277499 -0.702364 -0.479948 0 0 0 
0.276848 -0.701936 -0.479037 0 0 0 
0.276518 -0.70172 -0.478166 0 0 0 
0.276461 -0.701684 -0.477326 0 0 0 
0.275861 -0.70129 -0.476428 0 0 0 
0.276485 -0.701705 -0.475663 0 0 0 
0.275977 -0.701371 -0.474778 0 0 0 
0.275741 -0.701217 -0.473922 0 0 0 
0.276049 -0.701423 -0.473122 0 0 0 
0.275589 -0.701121 -0.472247 0 0 0 
0.275671 -0.701178 -0.471425 0 0 0 
0.275303 -0.700937 -0.470561 0 0 0 
0.275161 -0.700845 -0.469719 0 0 0 
0.274975 -0.700724 -0.468874 0 0 0 
0.274745 -0.700574 -0.468027 0 0 0 
0.274201 -0.700217 -0.467155 0 0 0 
0.274376 -0.700335 -0.466343 0 0 0 
0.274238 -0.700246 -0.465506 0 0 0 
0.274055 -0.700127 -0.464667 0 0 0 
0.274905 -0.700692 -0.463905 0 0 0 
0.274409 -0.700366 -0.463043 0 0 0 
0.274093 -0.700159 -0.462195 0 0 0 
0.2736 -0.699835 -0.461337 0 0 0 
0.274136 -0.700192 -0.460549 0 0 0 
0.274002 -0.700105 -0.459716 0 0 0 
0.274226 -0.700256 -0.458906 0 0 0 
0.273914 -0.700052 -0.458063 0 0 0 
0.273468 -0.699759 -0.457214 0 0 0 
0.273828 -0.699999 -0.456412 0 0 0 
0.273696 -0.699914 -0.455582 0 0 0 
0.273342 -0.699682 -0.454741 0 0 0 
0.273078 -0.69951 -0.453907 0 0 0 
0.27326 -0.699633 -0.453094 0 0 0 
0.272864 -0.699373 -0.452255 0 0 0 
0.273226 -0.699614 -0.451449 0 0 0 
0.273231 -0.69962 -0.450628 0 0 0 
0.272926 -0.69942 -0.449796 0 0 0 
0.273199 -0.699604 -0.448985 0 0 0 
0.272984 -0.699463 -0.448157 0 0 0 
0.272903 -0.699412 -0.447334 0 0 0 
0.272955 -0.699449 -0.446515 0 0 0 
0.272831 -0.699369 -0.445692 0 0 0 
0.271997 -0.69882 -0.444853 0 0 0 
0.272406 -0.699092 -0.444043 0 0 0 
0.27162 -0.698574 -0.443209 0 0 0 
0.272205 -0.698964 -0.442402 0 0 0 
0.272394 -0.699091 -0.441586 0 0 0 
0.272583 -0.699218 -0.44077 0 0 0 
0.272507 -0.69917 -0.43995 0 0 0 
0.272298 -0.699034 -0.439129 0 0 0 
0.272666 -0.69928 -0.438312 0 0 0 
0.272858 -0.699409 -0.437494 0 0 0 
0.272695 -0.699303 -0.436674 0 0 0 
0.272887 -0.699433 -0.435854 0 0 0 
0.272548 -0.69921 -0.435035 0 0 0 
0.272697 -0.699311 -0.434215 0 0 0 
0.272847 -0.699412 -0.433395 0 0 0 
0.273175 -0.699632 -0.432571 0 0 0 
0.272926 -0.699469 -0.431754 0 0 0 
0.273612 -0.699926 -0.430924 0 0 0 
0.272652 -0.699292 -0.430118 0 0 0 
0.274366 -0.700429 -0.429266 0 0 0 
0.27318 -0.699646 -0.428468 0 0 0 
0.273646 -0.699957 -0.427636 0 0 0 
0.274204 -0.700328 -0.4268 0 0 0 
0.273108 -0.699606 -0.426007 0 0 0 
0.273264 -0.699711 -0.425181 0 0 0 
0.274046 -0.70023 -0.424335 0 0 0 
0.274248 -0.700366 -0.423505 0 0 0 
0.274316 -0.700413 -0.422679 0 0 0 
0.274027 -0.700224 -0.421866 0 0 0 
0.274814 -0.700747 -0.42101 0 0 0 
0.274929 -0.700826 -0.42018 0 0 0 
0.274281 -0.700399 -0.419384 0 0 0 
0.274846 -0.700775 -0.418533 0 0 0 
0.275549 -0.701243 -0.417672 0 0 0 
0.275261 -0.701054 -0.41686 0 0 0 
0.27565 -0.701314 -0.416012 0 0 0 
0.275995 -0.701544 -0.415165 0 0 0 
0.277387 -0.702468 -0.414254 0 0 0 
0.276735 -0.702038 -0.413462 0 0 0 
0.277402 -0.702482 -0.412589 0 0 0 
0.276115 -0.701633 -0.411841 0 0 0 
0.276964 -0.702197 -0.410954 0 0 0 
0.276678 -0.70201 -0.410143 0 0 0 
0.27662 -0.701973 -0.409316 0 0 0 
0.277199 -0.702359 -0.408442 0 0 0 
0.277324 -0.702444 -0.407599 0 0 0 
0.277404 -0.702499 -0.40676 0 0 0 
0.277576 -0.702615 -0.405913 0 0 0 
0.277474 -0.70255 -0.405087 0 0 0 
0.277009 -0.702244 -0.404293 0 0 0 
0.277593 -0.702633 -0.403409 0 0 0 
0.277493 -0.702569 -0.402583 0 0 0 
0.277439 -0.702536 -0.401754 0 0 0 
0.277432 -0.702533 -0.40092 0 0 0 
0.277974 -0.702894 -0.400033 0 0 0 
0.27783 -0.702801 -0.399211 0 0 0 
0.277916 -0.70286 -0.398366 0 0 0 
0.278094 -0.70298 -0.397511 0 0 0 
0.278502 -0.703253 -0.39663 0 0 0 
0.27859 -0.703313 -0.395783 0 0 0 
0.280109 -0.704321 -0.394777 0 0 0 
0.279736 -0.704076 -0.393976 0 0 0 
0.279826 -0.704138 -0.393124 0 0 0 
0.279546 -0.703955 -0.392314 0 0 0 
0.280054 -0.704294 -0.391412 0 0 0 
0.280564 -0.704633 -0.390507 0 0 0 
0.279267 -0.703777 -0.389822 0 0 0 
0.27959 -0.703994 -0.388939 0 0 0 
0.280286 -0.704456 -0.388007 0 0 0 
0.280148 -0.704367 -0.38718 0 0 0 
0.279965 -0.704248 -0.386359 0 0 0 
0.280617 -0.704682 -0.385426 0 0 0 
0.28076 -0.704779 -0.38456 0 0 0 
0.280764 -0.704784 -0.383713 0 0 0 
0.280488 -0.704604 -0.382904 0 0 0 
0.280819 -0.704825 -0.382009 0 0 0 
0.280778 -0.7048 -0.381167 0 0 0 
0.280364 -0.704529 -0.38038 0 0 0 
0.28093 -0.704905 -0.379447 0 0 0 
0.282671 -0.70606 -0.378331 0 0 0 
0.282537 -0.705974 -0.377498 0 0 0 
0.282075 -0.70567 -0.376717 0 0 0 
0.283356 -0.70652 -0.375659 0 0 0 
0.283035 -0.70631 -0.374855 0 0 0 
0.282056 -0.705664 -0.374159 0 0 0 
0.283528 -0.706641 -0.373061 0 0 0 
0.282453 -0.705932 -0.372384 0 0 0 
0.283125 -0.706379 -0.371413 0 0 0 
0.283468 -0.706609 -0.370496 0 0 0 
0.282019 -0.705651 -0.369891 0 0 0 
0.282502 -0.705974 -0.368949 0 0 0 
0.283413 -0.706579 -0.367928 0 0 0 
0.282388 -0.705903 -0.367255 0 0 0 
0.283253 -0.706478 -0.366237 0 0 0 
0.283363 -0.706553 -0.365357 0 0 0 
0.283616 -0.706723 -0.364448 0 0 0 
0.282262 -0.705828 -0.363845 0 0 0 
0.282939 -0.706279 -0.362854 0 0 0 
0.283477 -0.706638 -0.361888 0 0 0 
0.282219 -0.705807 -0.361274 0 0 0 
0.282945 -0.706291 -0.360268 0 0 0 
0.283866 -0.706902 -0.359219 0 0 0 
0.282323 -0.705883 -0.358669 0 0 0 
0.283099 -0.706399 -0.357647 0 0 0 
0.282835 -0.706227 -0.356837 0 0 0 
0.283805 -0.706871 -0.355768 0 0 0 
0.282925 -0.706291 -0.355089 0 0 0 
0.283754 -0.706842 -0.354045 0 0 0 
0.283492 -0.706671 -0.353235 0 0 0 
0.283468 -0.706657 -0.352372 0 0 0 
0.281977 -0.705673 -0.351837 0 0 0 
0.283136 -0.706443 -0.350711 0 0 0 
0.282261 -0.705866 -0.350042 0 0 0 
0.283281 -0.706543 -0.348941 0 0 0 
0.283402 -0.706626 -0.348043 0 0 0 
0.283238 -0.70652 -0.347211 0 0 0 
0.281751 -0.705537 -0.346693 0 0 0 
0.281119 -0.705121 -0.345976 0 0 0 
0.281664 -0.705484 -0.344978 0 0 0 
0.281268 -0.705224 -0.344206 0 0 0 
0.281249 -0.705214 -0.343343 0 0 0 
0.280949 -0.705018 -0.342549 0 0 0 
0.281119 -0.705133 -0.341638 0 0 0 
0.281384 -0.70531 -0.340702 0 0 0 
0.281367 -0.705302 -0.339836 0 0 0 
0.281303 -0.705262 -0.338982 0 0 0 
0.281288 -0.705254 -0.338114 0 0 0 
0.280896 -0.704997 -0.337345 0 0 0 
0.281257 -0.705238 -0.336379 0 0 0 
0.280772 -0.70492 -0.335635 0 0 0 
0.280335 -0.704633 -0.33488 0 0 0 
0.278408 -0.703359 -0.334531 0 0 0 
0.279513 -0.704093 -0.333361 0 0 0 
0.27964 -0.704179 -0.332455 0 0 0 
0.278881 -0.703679 -0.331794 0 0 0 
0.278543 -0.703457 -0.331018 0 0 0 
0.278299 -0.703298 -0.330217 0 0 0 
0.277268 -0.702618 -0.32964 0 0 0 
0.277165 -0.702552 -0.328801 0 0 0 
0.27637 -0.702028 -0.328162 0 0 0 
0.275809 -0.701659 -0.327458 0 0 0 
0.276075 -0.701837 -0.326512 0 0 0 
0.275423 -0.701408 -0.325837 0 0 0 
0.274819 -0.70101 -0.32515 0 0 0 
0.274765 -0.700976 -0.3243 0 0 0 
0.274209 -0.700611 -0.323601 0 0 0 
0.274384 -0.700729 -0.322681 0 0 0 
0.274467 -0.700787 -0.321788 0 0 0 
0.27405 -0.700512 -0.321049 0 0 0 
0.274089 -0.700541 -0.320169 0 0 0 
0.274311 -0.70069 -0.319231 0 0 0 
0.274259 -0.700658 -0.318377 0 0 0 
0.274163 -0.700596 -0.317538 0 0 0 
0.274843 -0.70105 -0.316448 0 0 0 
0.27461 -0.700897 -0.315651 0 0 0 
0.274743 -0.700988 -0.314734 0 0 0 
0.274969 -0.70114 -0.313786 0 0 0 
0.274874 -0.701079 -0.312942 0 0 0 
0.275514 -0.701506 -0.311853 0 0 0 
0.275098 -0.701233 -0.311115 0 0 0 
0.275234 -0.701325 -0.310191 0 0 0 
0.275417 -0.701448 -0.30925 0 0 0 
0.27537 -0.70142 -0.308387 0 0 0 
0.275876 -0.701758 -0.307332 0 0 0 
0.275646 -0.701607 -0.30653 0 0 0 
0.276108 -0.701916 -0.305486 0 0 0 
0.275831 -0.701735 -0.304699 0 0 0 
0.27611 -0.701922 -0.303716 0 0 0 
0.275973 -0.701833 -0.30288 0 0 0 
0.276577 -0.702236 -0.301777 0 0 0 
0.276719 -0.702332 -0.300837 0 0 0 
0.27649 -0.702183 -0.300032 0 0 0 
0.276958 -0.702496 -0.298971 0 0 0 
0.277381 -0.702779 -0.297924 0 0 0 
0.277619 -0.702939 -0.296943 0 0 0 
0.27739 -0.702789 -0.296134 0 0 0 
0.277723 -0.703012 -0.295115 0 0 0 
0.277495 -0.702863 -0.294306 0 0 0 
0.277781 -0.703056 -0.293301 0 0 0 
0.278304 -0.703404 -0.292203 0 0 0 
0.278828 -0.703754 -0.291101 0 0 0 
0.279213 -0.704012 -0.29005 0 0 0 
0.278703 -0.703676 -0.289347 0 0 0 
0.27923 -0.704028 -0.288237 0 0 0 
0.279428 -0.704161 -0.287254 0 0 0 
0.280006 -0.704547 -0.286118 0 0 0 
0.279684 -0.704336 -0.28534 0 0 0 
0.280027 -0.704565 -0.284294 0 0 0 
0.280656 -0.704985 -0.283129 0 0 0 
0.281145 -0.705312 -0.282018 0 0 0 
0.280584 -0.704942 -0.281334 0 0 0 
0.280835 -0.705111 -0.280318 0 0 0 
0.281374 -0.70547 -0.27918 0 0 0 
0.281723 -0.705704 -0.278117 0 0 0 
0.281929 -0.705843 -0.277113 0 0 0 
0.282521 -0.706238 -0.275943 0 0 0 
0.282923 -0.706507 -0.274851 0 0 0 
0.283228 -0.706712 -0.273797 0 0 0 
0.283099 -0.706628 -0.272927 0 0 0 
0.283406 -0.706834 -0.271869 0 0 0 
0.283714 -0.707041 -0.270808 0 0 0 
0.28417 -0.707345 -0.26968 0 0 0 
0.284236 -0.707392 -0.26872 0 0 0 
0.284841 -0.707795 -0.267521 0 0 0 
0.284811 -0.707778 -0.266601 0 0 0 
0.28532 -0.708118 -0.265438 0 0 0 
0.285586 -0.708297 -0.264382 0 0 0 
0.285704 -0.708378 -0.26339 0 0 0 
0.285774 -0.708427 -0.262419 0 0 0 
0.286933 -0.709197 -0.26095 0 0 0 
0.286756 -0.709083 -0.260086 0 0 0 
0.287724 -0.709726 -0.258696 0 0 0 
0.288096 -0.709975 -0.257575 0 0 0 
0.287172 -0.709365 -0.257056 0 0 0 
0.288143 -0.710012 -0.255652 0 0 0 
0.288217 -0.710064 -0.254666 0 0 0 
0.288693 -0.710382 -0.253488 0 0 0 
0.288568 -0.710301 -0.252593 0 0 0 
0.288744 -0.71042 -0.251553 0 0 0 
0.289173 -0.710707 -0.25039 0 0 0 
0.28925 -0.710761 -0.249394 0 0 0 
0.289176 -0.710714 -0.24847 0 0 0 
0.28875 -0.710435 -0.247718 0 0 0 
0.288727 -0.710422 -0.246768 0 0 0 
0.288805 -0.710476 -0.245768 0 0 0 
0.28828 -0.710131 -0.245066 0 0 0 
0.288157 -0.710052 -0.244165 0 0 0 
0.288941 -0.710575 -0.24281 0 0 0 
0.288719 -0.71043 -0.241956 0 0 0 
0.289001 -0.710619 -0.240848 0 0 0 
0.289233 -0.710776 -0.239762 0 0 0 
0.287752 -0.709796 -0.239549 0 0 0 
0.289042 -0.710654 -0.237921 0 0 0 
0.28721 -0.709443 -0.237894 0 0 0 
0.287241 -0.709466 -0.236911 0 0 0 
0.286771 -0.709157 -0.236188 0 0 0 
0.286103 -0.708717 -0.235569 0 0 0 
0.285786 -0.708509 -0.234769 0 0 0 
0.286366 -0.708896 -0.233495 0 0 0 
0.286799 -0.709186 -0.232296 0 0 0 
0.284094 -0.707395 -0.232765 0 0 0 
0.284869 -0.707911 -0.231384 0 0 0 
0.284802 -0.70787 -0.230451 0 0 0 
0.283696 -0.707139 -0.230079 0 0 0 
0.284421 -0.707623 -0.228717 0 0 0 
0.272173 -0.702635 -0.633575 0 0 0 
0.273249 -0.70336 -0.633214 0 0 0 
0.270527 -0.701535 -0.630844 0 0 0 
0.270123 -0.701266 -0.629706 0 0 0 
0.26972 -0.700998 -0.628571 0 0 0 
0.26841 -0.700121 -0.626967 0 0 0 
0.27015 -0.701292 -0.626951 0 0 0 
0.269931 -0.701147 -0.625917 0 0 0 
0.267446 -0.699482 -0.623722 0 0 0 
0.271234 -0.702027 -0.624743 0 0 0 
0.266391 -0.698778 -0.621361 0 0 0 
0.269471 -0.700849 -0.62201 0 0 0 
0.267177 -0.699311 -0.619941 0 0 0 
0.26692 -0.69914 -0.618903 0 0 0 
0.262547 -0.696207 -0.615818 0 0 0 
0.264011 -0.697192 -0.615648 0 0 0 
0.262969 -0.696495 -0.614236 0 0 0 
0.261023 -0.69519 -0.612386 0 0 0 
0.260389 -0.694767 -0.611187 0 0 0 
0.264112 -0.697269 -0.612108 0 0 0 
0.259774 -0.694359 -0.609117 0 0 0 
0.259533 -0.694199 -0.608117 0 0 0 
0.263147 -0.696629 -0.608963 0 0 0 
0.260944 -0.695152 -0.607024 0 0 0 
0.259454 -0.694154 -0.605435 0 0 0 
0.261194 -0.695325 -0.605374 0 0 0 
0.265325 -0.698101 -0.606426 0 0 0 
0.260366 -0.694773 -0.603222 0 0 0 
0.262592 -0.696271 -0.603374 0 0 0 
0.260488 -0.69486 -0.601519 0 0 0 
0.263064 -0.696592 -0.601822 0 0 0 
0.260913 -0.69515 -0.599957 0 0 0 
0.263712 -0.697033 -0.600349 0 0 0 
0.263687 -0.697018 -0.599454 0 0 0 
0.263531 -0.696916 -0.5985 0 0 0 
0.264164 -0.697343 -0.5979 0 0 0 
0.263046 -0.696595 -0.596521 0 0 0 
0.264861 -0.697817 -0.596444 0 0 0 
0.263305 -0.696773 -0.594876 0 0 0 
0.264287 -0.697435 -0.594427 0 0 0 
0.26352 -0.696923 -0.593214 0 0 0 
0.266444 -0.698889 -0.593599 0 0 0 
0.264525 -0.697602 -0.591891 0 0 0 
0.266131 -0.698684 -0.591699 0 0 0 
0.264875 -0.697842 -0.590283 0 0 0 
0.26538 -0.698184 -0.589619 0 0 0 
0.265623 -0.69835 -0.588842 0 0 0 
0.266086 -0.698663 -0.588157 0 0 0 
0.266463 -0.698919 -0.587435 0 0 0 
0.266088 -0.698669 -0.586401 0 0 0 
0.267218 -0.699431 -0.585988 0 0 0 
0.267775 -0.699807 -0.585336 0 0 0 
0.267044 -0.699318 -0.584159 0 0 0 
0.267867 -0.699874 -0.583614 0 0 0 
0.267492 -0.699624 -0.582585 0 0 0 
0.269571 -0.701023 -0.582537 0 0 0 
0.270226 -0.701465 -0.581915 0 0 0 
0.270116 -0.701394 -0.580989 0 0 0 
0.269601 -0.701051 -0.579907 0 0 0 
0.270122 -0.701403 -0.57923 0 0 0 
0.270238 -0.701483 -0.578395 0 0 0 
0.27085 -0.701897 -0.577751 0 0 0 
0.271828 -0.702556 -0.577244 0 0 0 
0.27313 -0.703433 -0.576857 0 0 0 
0.272291 -0.702872 -0.575656 0 0 0 
0.272046 -0.70271 -0.574683 0 0 0 
0.273258 -0.703526 -0.574254 0 0 0 
0.272602 -0.703088 -0.573129 0 0 0 
0.273497 -0.703692 -0.572578 0 0 0 
0.274719 -0.704515 -0.572143 0 0 0 
0.275671 -0.705157 -0.571604 0 0 0 
0.274732 -0.704529 -0.57038 0 0 0 
0.274119 -0.704119 -0.569278 0 0 0 
0.275345 -0.704945 -0.568834 0 0 0 
0.275421 -0.704999 -0.567978 0 0 0 
0.276424 -0.705675 -0.567448 0 0 0 
0.276594 -0.705792 -0.566624 0 0 0 
0.279479 -0.707732 -0.56674 0 0 0 
0.278196 -0.706873 -0.565409 0 0 0 
0.277295 -0.70627 -0.564214 0 0 0 
0.27742 -0.706357 -0.563374 0 0 0 
0.277547 -0.706444 -0.562533 0 0 0 
0.279077 -0.707475 -0.562163 0 0 0 
0.27944 -0.707721 -0.561398 0 0 0 
0.278817 -0.707305 -0.560307 0 0 0 
0.27843 -0.707047 -0.559296 0 0 0 
0.27978 -0.707956 -0.558853 0 0 0 
0.280996 -0.708776 -0.558362 0 0 0 
0.279522 -0.707788 -0.557002 0 0 0 
0.280123 -0.708194 -0.55631 0 0 0 
0.278751 -0.707274 -0.554993 0 0 0 
0.280953 -0.708757 -0.554804 0 0 0 
0.280423 -0.708403 -0.553755 0 0 0 
0.27999 -0.708115 -0.552738 0 0 0 
0.280783 -0.70865 -0.5521 0 0 0 
0.280586 -0.70852 -0.551158 0 0 0 
0.280909 -0.708739 -0.550375 0 0 0 
0.28128 -0.708991 -0.549604 0 0 0 
0.281036 -0.70883 -0.54865 0 0 0 
0.281883 -0.709401 -0.54802 0 0 0 
0.281544 -0.709176 -0.547039 0 0 0 
0.280923 -0.708761 -0.545978 0 0 0 
0.280258 -0.708316 -0.544908 0 0 0 
0.28063 -0.708569 -0.544138 0 0 0 
0.280202 -0.708284 -0.54314 0 0 0 
0.279542 -0.707842 -0.542079 0 0 0 
0.280055 -0.708189 -0.541349 0 0 0 
0.278928 -0.707435 -0.540164 0 0 0 
0.279207 -0.707624 -0.53937 0 0 0 
0.277901 -0.706749 -0.538144 0 0 0 
0.277669 -0.706595 -0.537214 0 0 0 
0.277437 -0.706441 -0.536286 0 0 0 
0.278179 -0.706942 -0.535618 0 0 0 
0.277253 -0.706322 -0.534508 0 0 0 
0.276747 -0.705985 -0.533513 0 0 0 
0.27638 -0.705741 -0.532557 0 0 0 
0.27629 -0.705683 -0.531673 0 0 0 
0.275789 -0.705348 -0.530686 0 0 0 
0.275015 -0.70483 -0.529634 0 0 0 
0.275156 -0.704927 -0.528813 0 0 0 
0.274978 -0.704809 -0.527914 0 0 0 
0.273847 -0.704052 -0.526783 0 0 0 
0.273761 -0.703997 -0.52591 0 0 0 
0.273496 -0.703821 -0.524996 0 0 0 
0.273683 -0.703949 -0.52419 0 0 0 
0.273599 -0.703895 -0.523321 0 0 0 
0.274422 -0.70445 -0.522663 0 0 0 
0.273886 -0.704092 -0.521689 0 0 0 
0.274665 -0.704618 -0.521018 0 0 0 
0.274038 -0.704199 -0.520026 0 0 0 
0.273776 -0.704025 -0.519119 0 0 0 
0.273695 -0.703973 -0.518254 0 0 0 
0.274112 -0.704256 -0.517498 0 0 0 
0.274758 -0.704692 -0.516791 0 0 0 
0.274315 -0.704396 -0.515848 0 0 0 
0.273874 -0.704102 -0.514907 0 0 0 
0.273976 -0.704173 -0.514083 0 0 0 
0.27494 -0.704824 -0.513438 0 0 0 
0.274499 -0.70453 -0.512501 0 0 0 
0.275103 -0.704938 -0.511778 0 0 0 
0.27498 -0.704857 -0.510907 0 0 0 
0.275495 -0.705206 -0.510163 0 0 0 
0.274827 -0.704759 -0.509185 0 0 0 
0.275661 -0.705322 -0.508502 0 0 0 
0.274768 -0.704724 -0.507485 0 0 0 
0.275374 -0.705134 -0.506756 0 0 0 
0.275118 -0.704964 -0.505863 0 0 0 
0.275272 -0.70507 -0.505048 0 0 0 
0.27579 -0.70542 -0.504299 0 0 0 
0.275444 -0.70519 -0.503392 0 0 0 
0.27569 -0.705358 -0.502592 0 0 0 
0.2758 -0.705434 -0.501768 0 0 0 
0.275683 -0.705358 -0.500904 0 0 0 
0.275521 -0.705251 -0.500033 0 0 0 
0.275815 -0.705451 -0.499241 0 0 0 
0.275472 -0.705223 -0.498341 0 0 0 
0.275539 -0.70527 -0.497511 0 0 0 
0.275607 -0.705318 -0.49668 0 0 0 
0.275994 -0.70558 -0.495901 0 0 0 
0.276108 -0.70566 -0.495078 0 0 0 
0.275813 -0.705463 -0.49419 0 0 0 
0.275292 -0.705115 -0.49327 0 0 0 
0.27568 -0.705378 -0.492489 0 0 0 
0.275796 -0.705459 -0.491667 0 0 0 
0.275776 -0.705448 -0.490824 0 0 0 
0.275484 -0.705254 -0.489943 0 0 0 
0.27542 -0.705213 -0.489095 0 0 0 
0.275221 -0.705081 -0.48823 0 0 0 
0.276796 -0.706143 -0.487609 0 0 0 
0.275141 -0.705032 -0.486545 0 0 0 
0.275532 -0.705297 -0.48576 0 0 0 
0.275561 -0.705319 -0.484927 0 0 0 
0.275138 -0.705037 -0.484036 0 0 0 
0.274761 -0.704786 -0.483153 0 0 0 
0.274701 -0.704748 -0.482311 0 0 0 
0.274733 -0.704771 -0.48148 0 0 0 
0.274223 -0.704431 -0.480585 0 0 0 
0.274255 -0.704455 -0.479757 0 0 0 
0.274378 -0.704539 -0.478938 0 0 0 
0.273961 -0.704261 -0.478059 0 0 0 
0.273636 -0.704045 -0.477192 0 0 0 
0.27349 -0.703949 -0.476346 0 0 0 
0.273525 -0.703975 -0.475519 0 0 0 
0.272844 -0.703519 -0.474619 0 0 0 
0.273282 -0.703816 -0.473836 0 0 0 
0.273364 -0.703873 -0.473015 0 0 0 
0.27264 -0.703389 -0.472116 0 0 0 
0.273393 -0.703897 -0.471361 0 0 0 
0.272581 -0.703353 -0.470457 0 0 0 
0.272753 -0.703471 -0.469646 0 0 0 
0.271946 -0.702931 -0.468748 0 0 0 
0.272787 -0.703498 -0.467996 0 0 0 
0.272381 -0.703227 -0.467136 0 0 0 
0.271931 -0.702928 -0.466274 0 0 0 
0.271484 -0.702629 -0.465415 0 0 0 
0.271304 -0.70251 -0.464578 0 0 0 
0.2717 -0.702779 -0.463785 0 0 0 
0.271653 -0.702749 -0.462959 0 0 0 
0.271652 -0.702751 -0.462136 0 0 0 
0.271429 -0.702603 -0.461298 0 0 0 
0.27165 -0.702754 -0.46049 0 0 0 
0.271783 -0.702846 -0.459677 0 0 0 
0.271517 -0.702669 -0.458838 0 0 0 
0.270766 -0.702166 -0.457971 0 0 0 
0.271298 -0.702526 -0.457182 0 0 0 
0.271123 -0.702411 -0.456351 0 0 0 
0.271347 -0.702563 -0.455542 0 0 0 
0.271261 -0.702508 -0.454717 0 0 0 
0.27047 -0.701978 -0.453858 0 0 0 
0.270606 -0.702072 -0.453045 0 0 0 
0.270347 -0.7019 -0.452215 0 0 0 
0.270925 -0.702291 -0.45142 0 0 0 
0.270886 -0.702267 -0.450599 0 0 0 
0.271202 -0.702481 -0.449791 0 0 0 
0.271385 -0.702607 -0.448977 0 0 0 
0.271127 -0.702436 -0.448148 0 0 0 
0.27109 -0.702413 -0.447328 0 0 0 
0.270701 -0.702154 -0.446497 0 0 0 
0.270975 -0.70234 -0.445685 0 0 0 
0.271028 -0.702378 -0.444867 0 0 0 
0.27117 -0.702476 -0.444051 0 0 0 
0.271004 -0.702366 -0.443228 0 0 0 
0.271147 -0.702465 -0.442411 0 0 0 
0.270982 -0.702356 -0.441589 0 0 0 
0.271214 -0.702514 -0.440772 0 0 0 
0.270829 -0.702258 -0.439949 0 0 0 
0.270886 -0.702298 -0.43913 0 0 0 
0.272629 -0.703473 -0.438321 0 0 0 
0.27109 -0.70244 -0.437493 0 0 0 
0.271148 -0.702481 -0.436674 0 0 0 
0.271031 -0.702404 -0.435854 0 0 0 
0.271134 -0.702476 -0.435035 0 0 0 
0.271815 -0.702936 -0.434211 0 0 0 
0.271964 -0.703039 -0.433389 0 0 0 
0.271538 -0.702754 -0.432572 0 0 0 
0.271511 -0.702739 -0.431752 0 0 0 
0.271662 -0.702843 -0.430929 0 0 0 
0.271814 -0.702947 -0.430106 0 0 0 
0.2717 -0.702872 -0.429286 0 0 0 
0.272074 -0.703127 -0.428457 0 0 0 
0.272673 -0.703532 -0.427621 0 0 0 
0.272605 -0.703488 -0.4268 0 0 0 
0.272894 -0.703685 -0.425968 0 0 0 
0.272292 -0.703282 -0.425163 0 0 0 
0.272359 -0.703329 -0.424338 0 0 0 
0.272293 -0.703287 -0.423517 0 0 0 
0.273029 -0.703785 -0.422667 0 0 0 
0.273411 -0.704044 -0.421828 0 0 0 
0.275462 -0.705426 -0.420917 0 0 0 
0.27373 -0.704263 -0.420162 0 0 0 
0.27479 -0.704979 -0.419288 0 0 0 
0.273647 -0.704212 -0.418513 0 0 0 
0.273316 -0.703991 -0.417703 0 0 0 
0.274016 -0.704464 -0.416841 0 0 0 
0.274089 -0.704516 -0.416009 0 0 0 
0.273758 -0.704295 -0.4152 0 0 0 
0.275183 -0.705257 -0.414289 0 0 0 
0.275847 -0.705706 -0.413418 0 0 0 
0.274972 -0.705119 -0.412641 0 0 0 
0.275636 -0.705569 -0.411767 0 0 0 
0.275849 -0.705714 -0.41092 0 0 0 
0.275972 -0.705799 -0.410079 0 0 0 
0.275596 -0.705549 -0.409273 0 0 0 
0.276129 -0.705909 -0.408401 0 0 0 
0.275618 -0.705568 -0.407606 0 0 0 
0.276015 -0.705837 -0.406742 0 0 0 
0.276141 -0.705924 -0.405898 0 0 0 
0.276131 -0.70592 -0.405065 0 0 0 
0.276349 -0.706069 -0.404211 0 0 0 
0.276522 -0.706188 -0.403361 0 0 0 
0.276559 -0.706215 -0.402522 0 0 0 
0.276962 -0.706488 -0.401648 0 0 0 
0.278331 -0.707412 -0.400681 0 0 0 
0.277589 -0.706915 -0.399913 0 0 0 
0.276896 -0.70645 -0.399143 0 0 0 
0.278036 -0.70722 -0.398189 0 0 0 
0.27748 -0.706848 -0.397406 0 0 0 
0.278394 -0.707466 -0.39647 0 0 0 
0.278436 -0.707497 -0.395623 0 0 0 
0.278249 -0.707373 -0.394802 0 0 0 
0.278568 -0.70759 -0.393924 0 0 0 
0.278889 -0.707808 -0.393044 0 0 0 
0.27898 -0.707872 -0.39219 0 0 0 
0.278609 -0.707624 -0.39139 0 0 0 
0.278839 -0.707781 -0.390518 0 0 0 
0.278792 -0.707752 -0.389679 0 0 0 
0.279163 -0.708004 -0.388787 0 0 0 
0.279164 -0.708007 -0.387942 0 0 0 
0.28014 -0.708667 -0.386968 0 0 0 
0.279631 -0.708326 -0.386187 0 0 0 
0.279541 -0.708267 -0.385351 0 0 0 
0.280521 -0.70893 -0.384368 0 0 0 
0.280152 -0.708684 -0.38357 0 0 0 
0.281372 -0.709507 -0.382546 0 0 0 
0.279789 -0.708444 -0.381922 0 0 0 
0.281523 -0.709614 -0.380818 0 0 0 
0.280359 -0.708832 -0.380137 0 0 0 
0.279806 -0.708462 -0.379369 0 0 0 
0.281214 -0.709413 -0.378302 0 0 0 
0.28141 -0.709547 -0.377418 0 0 0 
0.281559 -0.709649 -0.376539 0 0 0 
0.28049 -0.708932 -0.375855 0 0 0 
0.281812 -0.709824 -0.374786 0 0 0 
0.281869 -0.709865 -0.37392 0 0 0 
0.281832 -0.709843 -0.373068 0 0 0 
0.281985 -0.709948 -0.372185 0 0 0 
0.281949 -0.709926 -0.371332 0 0 0 
0.282056 -0.71 -0.370455 0 0 0 
0.282257 -0.710138 -0.36956 0 0 0 
0.281375 -0.709547 -0.368857 0 0 0 
0.28219 -0.710097 -0.367852 0 0 0 
0.281968 -0.709951 -0.367031 0 0 0 
0.28137 -0.709551 -0.366281 0 0 0 
0.282281 -0.710166 -0.36525 0 0 0 
0.282014 -0.709989 -0.364439 0 0 0 
0.282314 -0.710193 -0.363519 0 0 0 
0.282142 -0.710079 -0.362689 0 0 0 
0.28197 -0.709966 -0.36186 0 0 0 
0.281752 -0.709822 -0.36104 0 0 0 
0.281677 -0.709773 -0.360192 0 0 0 
0.281413 -0.709598 -0.359382 0 0 0 
0.281244 -0.709486 -0.358553 0 0 0 
0.281829 -0.709883 -0.357568 0 0 0 
0.281473 -0.709645 -0.356778 0 0 0 
0.281871 -0.709916 -0.355829 0 0 0 
0.282556 -0.710379 -0.354815 0 0 0 
0.28201 -0.710014 -0.354066 0 0 0 
0.282127 -0.710095 -0.353172 0 0 0 
0.281819 -0.70989 -0.352372 0 0 0 
0.281843 -0.709909 -0.351499 0 0 0 
0.282104 -0.710087 -0.350572 0 0 0 
0.281845 -0.709914 -0.349761 0 0 0 
0.282296 -0.710221 -0.348788 0 0 0 
0.28147 -0.709667 -0.348109 0 0 0 
0.281025 -0.709369 -0.347344 0 0 0 
0.28124 -0.709517 -0.346424 0 0 0 
0.280466 -0.708998 -0.34574 0 0 0 
0.281909 -0.709972 -0.344521 0 0 0 
0.28024 -0.70885 -0.344057 0 0 0 
0.280315 -0.708903 -0.343169 0 0 0 
0.281806 -0.70991 -0.341927 0 0 0 
0.280844 -0.709264 -0.341296 0 0 0 
0.280309 -0.708906 -0.340559 0 0 0 
0.281471 -0.709691 -0.33939 0 0 0 
0.280182 -0.708826 -0.338848 0 0 0 
0.280448 -0.709007 -0.337906 0 0 0 
0.281472 -0.709699 -0.336763 0 0 0 
0.279854 -0.708612 -0.336316 0 0 0 
0.279699 -0.70851 -0.335485 0 0 0 
0.280108 -0.708788 -0.334501 0 0 0 
0.280001 -0.708718 -0.333655 0 0 0 
0.279941 -0.70868 -0.332796 0 0 0 
0.279037 -0.708073 -0.332171 0 0 0 
0.278932 -0.708005 -0.331326 0 0 0 
0.279013 -0.708062 -0.330428 0 0 0 
0.277464 -0.707021 -0.329993 0 0 0 
0.276851 -0.70661 -0.329296 0 0 0 
0.276285 -0.706232 -0.328588 0 0 0 
0.276275 -0.706227 -0.32772 0 0 0 
0.275943 -0.706005 -0.326946 0 0 0 
0.275749 -0.705877 -0.326132 0 0 0 
0.274546 -0.70507 -0.325619 0 0 0 
0.274309 -0.704912 -0.324822 0 0 0 
0.273981 -0.704693 -0.324052 0 0 0 
0.27379 -0.704567 -0.323241 0 0 0 
0.273236 -0.704196 -0.322542 0 0 0 
0.273365 -0.704286 -0.321633 0 0 0 
0.27354 -0.704406 -0.320709 0 0 0 
0.273443 -0.704343 -0.319869 0 0 0 
0.273574 -0.704433 -0.318957 0 0 0 
0.273522 -0.704401 -0.318102 0 0 0 
0.2737 -0.704523 -0.317172 0 0 0 
0.273923 -0.704676 -0.316226 0 0 0 
0.273098 -0.704122 -0.315621 0 0 0 
0.274282 -0.704922 -0.314359 0 0 0 
0.274049 -0.704768 -0.313559 0 0 0 
0.273955 -0.704707 -0.312714 0 0 0 
0.273952 -0.704707 -0.311837 0 0 0 
0.274317 -0.704955 -0.310836 0 0 0 
0.274545 -0.705111 -0.309879 0 0 0 
0.274406 -0.70502 -0.309046 0 0 0 
0.274497 -0.705084 -0.308134 0 0 0 
0.275141 -0.70552 -0.307028 0 0 0 
0.275326 -0.705647 -0.306079 0 0 0 
0.274957 -0.705401 -0.305324 0 0 0 
0.275143 -0.705529 -0.304373 0 0 0 
0.275699 -0.705906 -0.303288 0 0 0 
0.275146 -0.705536 -0.302598 0 0 0 
0.275472 -0.705758 -0.301593 0 0 0 
0.275151 -0.705544 -0.300821 0 0 0 
0.275756 -0.705954 -0.29971 0 0 0 
0.275899 -0.706052 -0.298766 0 0 0 
0.276181 -0.706246 -0.297769 0 0 0 
0.276279 -0.706314 -0.296838 0 0 0 
0.276517 -0.706476 -0.295854 0 0 0 
0.276522 -0.706483 -0.294956 0 0 0 
0.276575 -0.70652 -0.29404 0 0 0 
0.277142 -0.706905 -0.292925 0 0 0 
0.276915 -0.706754 -0.292113 0 0 0 
0.27725 -0.706982 -0.291083 0 0 0 
0.277633 -0.707243 -0.290032 0 0 0 
0.277547 -0.707188 -0.289163 0 0 0 
0.277743 -0.707323 -0.288181 0 0 0 
0.278412 -0.707776 -0.287011 0 0 0 
0.278753 -0.708008 -0.285967 0 0 0 
0.278668 -0.707953 -0.285092 0 0 0 
0.278536 -0.707867 -0.284236 0 0 0 
0.279068 -0.708228 -0.28311 0 0 0 
0.27965 -0.708622 -0.28196 0 0 0 
0.279662 -0.708633 -0.281041 0 0 0 
0.280774 -0.709385 -0.279665 0 0 0 
0.280451 -0.70917 -0.278881 0 0 0 
0.280752 -0.709375 -0.277836 0 0 0 
0.281294 -0.709743 -0.276688 0 0 0 
0.281694 -0.710015 -0.275596 0 0 0 
0.282192 -0.710353 -0.27446 0 0 0 
0.282401 -0.710497 -0.273444 0 0 0 
0.281981 -0.710216 -0.272698 0 0 0 
0.283113 -0.710982 -0.27128 0 0 0 
0.283813 -0.711456 -0.270044 0 0 0 
0.284026 -0.711602 -0.269017 0 0 0 
0.284044 -0.711617 -0.268075 0 0 0 
0.285044 -0.712293 -0.266696 0 0 0 
0.285261 -0.712442 -0.26566 0 0 0 
0.284788 -0.712126 -0.264932 0 0 0 
0.285646 -0.712707 -0.263605 0 0 0 
0.285469 -0.71259 -0.262743 0 0 0 
0.285293 -0.712473 -0.26188 0 0 0 
0.286205 -0.713091 -0.260519 0 0 0 
0.286177 -0.713075 -0.259585 0 0 0 
0.28615 -0.713059 -0.25865 0 0 0 
0.286222 -0.713111 -0.257668 0 0 0 
0.287192 -0.713767 -0.256264 0 0 0 
0.286817 -0.713516 -0.255488 0 0 0 
0.288494 -0.71465 -0.253742 0 0 0 
0.288519 -0.714669 -0.252772 0 0 0 
0.287891 -0.714249 -0.252114 0 0 0 
0.288219 -0.714472 -0.250999 0 0 0 
0.288598 -0.71473 -0.249856 0 0 0 
0.28802 -0.714343 -0.249175 0 0 0 
0.287846 -0.714229 -0.248299 0 0 0 
0.288276 -0.714521 -0.247126 0 0 0 
0.288455 -0.714645 -0.246075 0 0 0 
0.288635 -0.714768 -0.245021 0 0 0 
0.287908 -0.714281 -0.244417 0 0 0 
0.287886 -0.714269 -0.243462 0 0 0 
0.28847 -0.714665 -0.242202 0 0 0 
0.288147 -0.71445 -0.241397 0 0 0 
0.28848 -0.714677 -0.240259 0 0 0 
0.288713 -0.714837 -0.23917 0 0 0 
0.287633 -0.714111 -0.238752 0 0 0 
0.287211 -0.713829 -0.237999 0 0 0 
0.287443 -0.713988 -0.236908 0 0 0 
0.287374 -0.713944 -0.235972 0 0 0 
0.286853 -0.713596 -0.235272 0 0 0 
0.286433 -0.713315 -0.234521 0 0 0 
0.286415 -0.713306 -0.233558 0 0 0 
0.286347 -0.713263 -0.232621 0 0 0 
0.28633 -0.713254 -0.231656 0 0 0 
0.285312 -0.71257 -0.231226 0 0 0 
0.284598 -0.712091 -0.230638 0 0 0 
0.284432 -0.711982 -0.229755 0 0 0 
0.283869 -0.711605 -0.229087 0 0 0 
0.284798 -0.712234 -0.227608 0 0 0 
0.270471 -0.705724 -0.632598 0 0 0 
0.264766 -0.70183 -0.628639 0 0 0 
0.269202 -0.704862 -0.630067 0 0 0 
0.266984 -0.70335 -0.627976 0 0 0 
0.267717 -0.703853 -0.62744 0 0 0 
0.272408 -0.707059 -0.628963 0 0 0 
0.267194 -0.703501 -0.62533 0 0 0 
0.269704 -0.705218 -0.625708 0 0 0 
0.269485 -0.705071 -0.624673 0 0 0 
0.268402 -0.704334 -0.623199 0 0 0 
0.271204 -0.706249 -0.623705 0 0 0 
0.268106 -0.704137 -0.621215 0 0 0 
0.267079 -0.703437 -0.619783 0 0 0 
0.267722 -0.703879 -0.619194 0 0 0 
0.262437 -0.700272 -0.615648 0 0 0 
0.263286 -0.700854 -0.61517 0 0 0 
0.265426 -0.702319 -0.615326 0 0 0 
0.265797 -0.702574 -0.614604 0 0 0 
0.263284 -0.700861 -0.612473 0 0 0 
0.259856 -0.698521 -0.60991 0 0 0 
0.260174 -0.698741 -0.609176 0 0 0 
0.259155 -0.698048 -0.607798 0 0 0 
0.25986 -0.698532 -0.607251 0 0 0 
0.259489 -0.698281 -0.606189 0 0 0 
0.259162 -0.69806 -0.60515 0 0 0 
0.259738 -0.698456 -0.604539 0 0 0 
0.260273 -0.698823 -0.603907 0 0 0 
0.260463 -0.698956 -0.603112 0 0 0 
0.261868 -0.699918 -0.60288 0 0 0 
0.261495 -0.699665 -0.601822 0 0 0 
0.261774 -0.699858 -0.601066 0 0 0 
0.260968 -0.69931 -0.599814 0 0 0 
0.260253 -0.698824 -0.598608 0 0 0 
0.260358 -0.698899 -0.597777 0 0 0 
0.261588 -0.699741 -0.597451 0 0 0 
0.262695 -0.7005 -0.597065 0 0 0 
0.262279 -0.700218 -0.595998 0 0 0 
0.262386 -0.700293 -0.595164 0 0 0 
0.26258 -0.700429 -0.594369 0 0 0 
0.264132 -0.701491 -0.594167 0 0 0 
0.26332 -0.700938 -0.592932 0 0 0 
0.263166 -0.700836 -0.591985 0 0 0 
0.263187 -0.700853 -0.591115 0 0 0 
0.263427 -0.701019 -0.590339 0 0 0 
0.264765 -0.701935 -0.590029 0 0 0 
0.26536 -0.702344 -0.589399 0 0 0 
0.264633 -0.70185 -0.588213 0 0 0 
0.265228 -0.702259 -0.587582 0 0 0 
0.264239 -0.701586 -0.586292 0 0 0 
0.264877 -0.702024 -0.585679 0 0 0 
0.266536 -0.703159 -0.585482 0 0 0 
0.26616 -0.702905 -0.584448 0 0 0 
0.268411 -0.704446 -0.584482 0 0 0 
0.266341 -0.703034 -0.582763 0 0 0 
0.267476 -0.703812 -0.58234 0 0 0 
0.267456 -0.703801 -0.581452 0 0 0 
0.269317 -0.705074 -0.581309 0 0 0 
0.267418 -0.703779 -0.579679 0 0 0 
0.268112 -0.704256 -0.579073 0 0 0 
0.268585 -0.704582 -0.578378 0 0 0 
0.269644 -0.705307 -0.577908 0 0 0 
0.269851 -0.705451 -0.577106 0 0 0 
0.269203 -0.705011 -0.575978 0 0 0 
0.272582 -0.707322 -0.576381 0 0 0 
0.272518 -0.707281 -0.57547 0 0 0 
0.270637 -0.705998 -0.573881 0 0 0 
0.27326 -0.707792 -0.573977 0 0 0 
0.273013 -0.707626 -0.573 0 0 0 
0.273362 -0.707867 -0.572244 0 0 0 
0.273575 -0.708015 -0.571437 0 0 0 
0.273054 -0.707662 -0.570364 0 0 0 
0.273863 -0.708217 -0.569773 0 0 0 
0.274353 -0.708554 -0.569064 0 0 0 
0.274752 -0.708829 -0.568322 0 0 0 
0.275523 -0.709358 -0.56771 0 0 0 
0.274906 -0.708939 -0.566608 0 0 0 
0.275123 -0.709089 -0.5658 0 0 0 
0.275756 -0.709525 -0.565135 0 0 0 
0.275927 -0.709644 -0.56431 0 0 0 
0.275543 -0.709384 -0.563295 0 0 0 
0.276643 -0.710138 -0.562785 0 0 0 
0.277236 -0.710546 -0.5621 0 0 0 
0.278722 -0.711564 -0.561712 0 0 0 
0.278192 -0.711204 -0.560648 0 0 0 
0.277899 -0.711006 -0.559665 0 0 0 
0.278825 -0.711641 -0.559084 0 0 0 
0.27886 -0.711668 -0.558209 0 0 0 
0.279508 -0.712113 -0.557532 0 0 0 
0.279262 -0.711947 -0.556566 0 0 0 
0.278875 -0.711685 -0.555557 0 0 0 
0.279194 -0.711906 -0.554774 0 0 0 
0.27975 -0.712288 -0.554064 0 0 0 
0.279693 -0.712252 -0.553162 0 0 0 
0.280772 -0.712992 -0.55261 0 0 0 
0.279581 -0.71218 -0.55136 0 0 0 
0.280329 -0.712693 -0.550704 0 0 0 
0.280038 -0.712497 -0.549732 0 0 0 
0.28003 -0.712494 -0.548848 0 0 0 
0.279599 -0.712202 -0.547838 0 0 0 
0.280348 -0.712716 -0.547178 0 0 0 
0.28167 -0.713622 -0.546682 0 0 0 
0.280384 -0.712746 -0.545426 0 0 0 
0.280143 -0.712583 -0.544476 0 0 0 
0.280374 -0.712744 -0.543662 0 0 0 
0.280606 -0.712905 -0.542849 0 0 0 
0.281029 -0.713196 -0.542088 0 0 0 
0.279798 -0.712357 -0.540866 0 0 0 
0.280172 -0.712615 -0.540093 0 0 0 
0.279793 -0.712359 -0.539112 0 0 0 
0.279369 -0.712071 -0.538122 0 0 0 
0.278899 -0.711752 -0.537122 0 0 0 
0.279978 -0.712492 -0.536537 0 0 0 
0.278478 -0.711469 -0.535267 0 0 0 
0.278619 -0.711568 -0.534433 0 0 0 
0.27848 -0.711475 -0.533527 0 0 0 
0.277273 -0.710652 -0.532348 0 0 0 
0.277553 -0.710846 -0.531554 0 0 0 
0.277556 -0.71085 -0.530688 0 0 0 
0.276957 -0.710443 -0.529673 0 0 0 
0.276775 -0.710322 -0.528764 0 0 0 
0.277196 -0.710612 -0.528005 0 0 0 
0.276369 -0.710049 -0.526941 0 0 0 
0.275731 -0.709615 -0.525926 0 0 0 
0.275874 -0.709715 -0.525102 0 0 0 
0.274964 -0.709095 -0.524028 0 0 0 
0.274788 -0.708977 -0.523131 0 0 0 
0.274431 -0.708735 -0.522193 0 0 0 
0.274348 -0.708681 -0.521319 0 0 0 
0.274083 -0.708502 -0.520406 0 0 0 
0.274319 -0.708666 -0.519607 0 0 0 
0.274374 -0.708706 -0.518767 0 0 0 
0.274703 -0.708933 -0.517987 0 0 0 
0.274531 -0.708817 -0.517097 0 0 0 
0.273996 -0.708454 -0.516131 0 0 0 
0.274007 -0.708464 -0.515283 0 0 0 
0.274064 -0.708506 -0.514446 0 0 0 
0.273849 -0.708361 -0.513552 0 0 0 
0.274543 -0.708838 -0.512847 0 0 0 
0.274329 -0.708694 -0.511954 0 0 0 
0.275208 -0.709297 -0.511283 0 0 0 
0.274857 -0.709059 -0.510363 0 0 0 
0.274508 -0.708823 -0.509445 0 0 0 
0.274023 -0.708494 -0.508502 0 0 0 
0.274584 -0.708879 -0.507764 0 0 0 
0.274463 -0.708799 -0.506894 0 0 0 
0.274253 -0.708658 -0.506008 0 0 0 
0.274542 -0.708858 -0.505216 0 0 0 
0.274378 -0.708748 -0.50434 0 0 0 
0.274396 -0.708763 -0.503499 0 0 0 
0.274778 -0.709026 -0.502722 0 0 0 
0.274479 -0.708824 -0.501824 0 0 0 
0.27509 -0.709244 -0.501086 0 0 0 
0.274837 -0.709073 -0.500197 0 0 0 
0.274766 -0.709027 -0.499341 0 0 0 
0.274379 -0.708765 -0.498432 0 0 0 
0.275446 -0.709497 -0.497766 0 0 0 
0.274558 -0.708892 -0.496776 0 0 0 
0.274626 -0.708941 -0.495945 0 0 0 
0.274694 -0.70899 -0.495114 0 0 0 
0.274491 -0.708853 -0.49424 0 0 0 
0.274062 -0.708562 -0.493332 0 0 0 
0.274585 -0.708922 -0.492572 0 0 0 
0.274293 -0.708724 -0.491687 0 0 0 
0.273911 -0.708466 -0.490791 0 0 0 
0.274163 -0.70864 -0.489989 0 0 0 
0.273558 -0.708228 -0.489063 0 0 0 
0.274761 -0.709054 -0.488395 0 0 0 
0.273522 -0.708209 -0.487384 0 0 0 
0.27337 -0.708107 -0.486526 0 0 0 
0.273804 -0.708406 -0.485748 0 0 0 
0.273068 -0.707905 -0.484815 0 0 0 
0.273277 -0.70805 -0.484007 0 0 0 
0.27241 -0.707459 -0.483061 0 0 0 
0.272619 -0.707605 -0.482255 0 0 0 
0.271845 -0.707078 -0.481327 0 0 0 
0.2721 -0.707254 -0.480526 0 0 0 
0.272087 -0.707248 -0.479693 0 0 0 
0.271585 -0.706906 -0.478804 0 0 0 
0.271173 -0.706627 -0.477927 0 0 0 
0.271028 -0.70653 -0.477083 0 0 0 
0.271062 -0.706556 -0.476258 0 0 0 
0.270653 -0.706278 -0.475387 0 0 0 
0.270555 -0.706213 -0.474549 0 0 0 
0.271167 -0.706634 -0.473786 0 0 0 
0.270361 -0.706085 -0.472877 0 0 0 
0.270265 -0.706021 -0.472042 0 0 0 
0.270213 -0.705988 -0.471212 0 0 0 
0.270427 -0.706137 -0.470408 0 0 0 
0.269671 -0.705622 -0.469514 0 0 0 
0.269709 -0.70565 -0.468694 0 0 0 
0.269792 -0.705709 -0.467878 0 0 0 
0.269611 -0.705588 -0.467039 0 0 0 
0.268992 -0.705166 -0.466166 0 0 0 
0.269559 -0.705557 -0.46539 0 0 0 
0.268853 -0.705076 -0.464513 0 0 0 
0.269509 -0.705527 -0.463742 0 0 0 
0.269595 -0.705588 -0.462927 0 0 0 
0.269198 -0.705319 -0.462077 0 0 0 
0.269021 -0.7052 -0.461244 0 0 0 
0.268582 -0.704902 -0.460394 0 0 0 
0.268845 -0.705084 -0.459592 0 0 0 
0.269153 -0.705297 -0.458791 0 0 0 
0.26911 -0.70527 -0.457969 0 0 0 
0.269506 -0.705543 -0.457171 0 0 0 
0.26815 -0.704618 -0.456276 0 0 0 
0.268546 -0.704891 -0.455479 0 0 0 
0.269426 -0.705495 -0.454705 0 0 0 
0.269034 -0.705229 -0.453866 0 0 0 
0.269038 -0.705234 -0.453047 0 0 0 
0.269438 -0.70551 -0.452245 0 0 0 
0.269355 -0.705455 -0.451422 0 0 0 
0.269097 -0.705281 -0.450592 0 0 0 
0.269498 -0.705558 -0.449788 0 0 0 
0.269066 -0.705264 -0.448953 0 0 0 
0.26938 -0.705481 -0.448144 0 0 0 
0.269563 -0.705609 -0.44733 0 0 0 
0.269264 -0.705407 -0.446502 0 0 0 
0.269668 -0.705685 -0.445693 0 0 0 
0.269765 -0.705754 -0.444875 0 0 0 
0.269335 -0.705462 -0.444046 0 0 0 
0.269785 -0.705772 -0.443235 0 0 0 
0.269928 -0.705872 -0.442418 0 0 0 
0.269499 -0.705581 -0.441591 0 0 0 
0.269467 -0.705561 -0.440771 0 0 0 
0.269919 -0.705873 -0.439956 0 0 0 
0.27002 -0.705944 -0.439136 0 0 0 
0.270696 -0.706409 -0.43832 0 0 0 
0.270312 -0.706148 -0.437496 0 0 0 
0.269665 -0.705708 -0.436674 0 0 0 
0.270208 -0.706082 -0.435853 0 0 0 
0.270976 -0.706609 -0.43503 0 0 0 
0.269975 -0.705927 -0.434213 0 0 0 
0.270036 -0.70597 -0.433391 0 0 0 
0.270361 -0.706196 -0.432567 0 0 0 
0.270556 -0.706331 -0.431744 0 0 0 
0.271638 -0.707074 -0.430906 0 0 0 
0.271523 -0.706997 -0.430083 0 0 0 
0.271365 -0.706891 -0.429262 0 0 0 
0.27174 -0.70715 -0.42843 0 0 0 
0.271316 -0.706862 -0.427615 0 0 0 
0.271514 -0.707 -0.426786 0 0 0 
0.271358 -0.706896 -0.425966 0 0 0 
0.272583 -0.707736 -0.425105 0 0 0 
0.271624 -0.707082 -0.424309 0 0 0 
0.271825 -0.707222 -0.423477 0 0 0 
0.271804 -0.70721 -0.422652 0 0 0 
0.272185 -0.707473 -0.421812 0 0 0 
0.271674 -0.707126 -0.421007 0 0 0 
0.271922 -0.707297 -0.42017 0 0 0 
0.27226 -0.707531 -0.419329 0 0 0 
0.272152 -0.707459 -0.418507 0 0 0 
0.273388 -0.708308 -0.417618 0 0 0 
0.274045 -0.70876 -0.416753 0 0 0 
0.274435 -0.709029 -0.415901 0 0 0 
0.274418 -0.70902 -0.415069 0 0 0 
0.273951 -0.708702 -0.414265 0 0 0 
0.274206 -0.708879 -0.413418 0 0 0 
0.274643 -0.709181 -0.412557 0 0 0 
0.274358 -0.708987 -0.411743 0 0 0 
0.274796 -0.70929 -0.41088 0 0 0 
0.27424 -0.708911 -0.410085 0 0 0 
0.274273 -0.708936 -0.40925 0 0 0 
0.274396 -0.709023 -0.408408 0 0 0 
0.274746 -0.709265 -0.407547 0 0 0 
0.274735 -0.709259 -0.406713 0 0 0 
0.274997 -0.709441 -0.405857 0 0 0 
0.274851 -0.709343 -0.405034 0 0 0 
0.276892 -0.710743 -0.404022 0 0 0 
0.276883 -0.710739 -0.403183 0 0 0 
0.275414 -0.709735 -0.402476 0 0 0 
0.276592 -0.710544 -0.401529 0 0 0 
0.276493 -0.710479 -0.400699 0 0 0 
0.275392 -0.709727 -0.399966 0 0 0 
0.276435 -0.710443 -0.399024 0 0 0 
0.276612 -0.710567 -0.398166 0 0 0 
0.276836 -0.710723 -0.397301 0 0 0 
0.276877 -0.710753 -0.396455 0 0 0 
0.277195 -0.710973 -0.395578 0 0 0 
0.277099 -0.71091 -0.394746 0 0 0 
0.27751 -0.711193 -0.393856 0 0 0 
0.27737 -0.7111 -0.393028 0 0 0 
0.278846 -0.712113 -0.39201 0 0 0 
0.278845 -0.712114 -0.391162 0 0 0 
0.278196 -0.711672 -0.390394 0 0 0 
0.279914 -0.712851 -0.389332 0 0 0 
0.278104 -0.711614 -0.388711 0 0 0 
0.279543 -0.712601 -0.387678 0 0 0 
0.279312 -0.712445 -0.386858 0 0 0 
0.278432 -0.711845 -0.386125 0 0 0 
0.280109 -0.712996 -0.385048 0 0 0 
0.280347 -0.713161 -0.384162 0 0 0 
0.280585 -0.713326 -0.383275 0 0 0 
0.280027 -0.712947 -0.3825 0 0 0 
0.280266 -0.713113 -0.381611 0 0 0 
0.279804 -0.712799 -0.380825 0 0 0 
0.279904 -0.71287 -0.379956 0 0 0 
0.280004 -0.71294 -0.379086 0 0 0 
0.280151 -0.713044 -0.378209 0 0 0 
0.280299 -0.713147 -0.37733 0 0 0 
0.280214 -0.713091 -0.376487 0 0 0 
0.279708 -0.712747 -0.375712 0 0 0 
0.280607 -0.713365 -0.37471 0 0 0 
0.280476 -0.713278 -0.373873 0 0 0 
0.280112 -0.713031 -0.373076 0 0 0 
0.280545 -0.71333 -0.372145 0 0 0 
0.280791 -0.713501 -0.371243 0 0 0 
0.28118 -0.713769 -0.370315 0 0 0 
0.280393 -0.713233 -0.369594 0 0 0 
0.281017 -0.713663 -0.368622 0 0 0 
0.280937 -0.71361 -0.367775 0 0 0 
0.281376 -0.713913 -0.366832 0 0 0 
0.281532 -0.714022 -0.36594 0 0 0 
0.280982 -0.713648 -0.365179 0 0 0 
0.281045 -0.713693 -0.364304 0 0 0 
0.281203 -0.713804 -0.36341 0 0 0 
0.281409 -0.713947 -0.362505 0 0 0 
0.281662 -0.714123 -0.36159 0 0 0 
0.281255 -0.713847 -0.360805 0 0 0 
0.281747 -0.714186 -0.359839 0 0 0 
0.281152 -0.71378 -0.359094 0 0 0 
0.281455 -0.71399 -0.358164 0 0 0 
0.281996 -0.714364 -0.357183 0 0 0 
0.28126 -0.713861 -0.35647 0 0 0 
0.281186 -0.713814 -0.355617 0 0 0 
0.281066 -0.713734 -0.354774 0 0 0 
0.281372 -0.713946 -0.353839 0 0 0 
0.282772 -0.714907 -0.35266 0 0 0 
0.280757 -0.713529 -0.352236 0 0 0 
0.280923 -0.713645 -0.351329 0 0 0 
0.280758 -0.713535 -0.350497 0 0 0 
0.2805 -0.71336 -0.349686 0 0 0 
0.280384 -0.713283 -0.348842 0 0 0 
0.279939 -0.712981 -0.348076 0 0 0 
0.280483 -0.713356 -0.347077 0 0 0 
0.28051 -0.713376 -0.346199 0 0 0 
0.280537 -0.713397 -0.34532 0 0 0 
0.280612 -0.713451 -0.344429 0 0 0 
0.279886 -0.712957 -0.343734 0 0 0 
0.280244 -0.713204 -0.342773 0 0 0 
0.280038 -0.713065 -0.341951 0 0 0 
0.279738 -0.712862 -0.341153 0 0 0 
0.280381 -0.713305 -0.340115 0 0 0 
0.280506 -0.713393 -0.339207 0 0 0 
0.280018 -0.713061 -0.338458 0 0 0 
0.28005 -0.713085 -0.337574 0 0 0 
0.280365 -0.713304 -0.336614 0 0 0 
0.27922 -0.712522 -0.336041 0 0 0 
0.279112 -0.71245 -0.335195 0 0 0 
0.279005 -0.712379 -0.334348 0 0 0 
0.278851 -0.712276 -0.333514 0 0 0 
0.27851 -0.712045 -0.332732 0 0 0 
0.27817 -0.711815 -0.33195 0 0 0 
0.277598 -0.711425 -0.331235 0 0 0 
0.2781 -0.711771 -0.330217 0 0 0 
0.277622 -0.711446 -0.329476 0 0 0 
0.277379 -0.711282 -0.32867 0 0 0 
0.276023 -0.710355 -0.328187 0 0 0 
0.275689 -0.710129 -0.32741 0 0 0 
0.274942 -0.70962 -0.326757 0 0 0 
0.275301 -0.709868 -0.325777 0 0 0 
0.274602 -0.709391 -0.325113 0 0 0 
0.273677 -0.70876 -0.324519 0 0 0 
0.274815 -0.709542 -0.323301 0 0 0 
0.27284 -0.708191 -0.323032 0 0 0 
0.272741 -0.708126 -0.322191 0 0 0 
0.272098 -0.707688 -0.32152 0 0 0 
0.27191 -0.707561 -0.320709 0 0 0 
0.272085 -0.707683 -0.319783 0 0 0 
0.27217 -0.707744 -0.318885 0 0 0 
0.272391 -0.707898 -0.317941 0 0 0 
0.272477 -0.70796 -0.31704 0 0 0 
0.272609 -0.708052 -0.316123 0 0 0 
0.272332 -0.707865 -0.315338 0 0 0 
0.27251 -0.707989 -0.314404 0 0 0 
0.272461 -0.707958 -0.313544 0 0 0 
0.272732 -0.708146 -0.312576 0 0 0 
0.272729 -0.708147 -0.311699 0 0 0 
0.272636 -0.708085 -0.310852 0 0 0 
0.272954 -0.708305 -0.309863 0 0 0 
0.273365 -0.708589 -0.308841 0 0 0 
0.273961 -0.709 -0.307752 0 0 0 
0.273364 -0.708594 -0.307076 0 0 0 
0.273548 -0.708722 -0.306127 0 0 0 
0.273594 -0.708756 -0.305226 0 0 0 
0.27424 -0.709201 -0.30411 0 0 0 
0.27378 -0.708889 -0.303387 0 0 0 
0.274566 -0.70943 -0.302216 0 0 0 
0.274245 -0.709212 -0.301442 0 0 0 
0.274248 -0.709216 -0.300551 0 0 0 
0.275038 -0.70976 -0.299369 0 0 0 
0.274579 -0.709448 -0.298646 0 0 0 
0.275604 -0.710153 -0.29737 0 0 0 
0.274494 -0.709395 -0.296891 0 0 0 
0.275334 -0.709973 -0.295679 0 0 0 
0.2752 -0.709884 -0.294833 0 0 0 
0.275672 -0.710209 -0.293755 0 0 0 
0.275958 -0.710408 -0.292745 0 0 0 
0.276948 -0.711089 -0.291461 0 0 0 
0.276346 -0.710679 -0.290791 0 0 0 
0.276823 -0.711008 -0.289701 0 0 0 
0.276878 -0.711048 -0.288774 0 0 0 
0.277075 -0.711186 -0.28779 0 0 0 
0.277273 -0.711324 -0.286804 0 0 0 
0.277188 -0.711268 -0.285929 0 0 0 
0.277764 -0.711666 -0.284787 0 0 0 
0.278153 -0.711935 -0.283718 0 0 0 
0.278164 -0.711945 -0.2828 0 0 0 
0.279604 -0.712934 -0.281294 0 0 0 
0.279951 -0.713174 -0.280232 0 0 0 
0.279247 -0.712694 -0.279605 0 0 0 
0.27926 -0.712706 -0.278681 0 0 0 
0.280087 -0.713275 -0.277413 0 0 0 
0.280581 -0.713616 -0.276281 0 0 0 
0.280981 -0.713893 -0.275186 0 0 0 
0.280755 -0.713741 -0.274356 0 0 0 
0.281785 -0.71445 -0.272986 0 0 0 
0.281366 -0.714165 -0.272238 0 0 0 
0.281818 -0.714477 -0.271111 0 0 0 
0.282905 -0.715225 -0.269702 0 0 0 
0.282533 -0.714972 -0.268931 0 0 0 
0.282795 -0.715155 -0.26788 0 0 0 
0.283743 -0.715807 -0.266521 0 0 0 
0.283419 -0.715588 -0.265726 0 0 0 
0.28393 -0.71594 -0.264556 0 0 0 
0.283655 -0.715754 -0.263739 0 0 0 
0.284858 -0.716581 -0.262249 0 0 0 
0.285077 -0.716734 -0.261203 0 0 0 
0.28495 -0.71665 -0.260314 0 0 0 
0.285269 -0.716871 -0.259218 0 0 0 
0.28554 -0.71706 -0.258142 0 0 0 
0.285812 -0.717248 -0.257064 0 0 0 
0.285885 -0.717301 -0.256077 0 0 0 
0.286757 -0.717902 -0.254711 0 0 0 
0.286782 -0.717922 -0.253742 0 0 0 
0.286908 -0.71801 -0.252724 0 0 0 
0.287134 -0.718168 -0.251657 0 0 0 
0.286959 -0.718051 -0.250781 0 0 0 
0.28779 -0.718623 -0.249417 0 0 0 
0.287314 -0.718299 -0.248685 0 0 0 
0.288097 -0.718839 -0.247337 0 0 0 
0.287067 -0.718136 -0.246879 0 0 0 
0.287498 -0.718433 -0.245701 0 0 0 
0.287728 -0.718594 -0.244619 0 0 0 
0.288262 -0.718963 -0.243384 0 0 0 
0.287888 -0.718709 -0.242602 0 0 0 
0.28888 -0.719392 -0.241129 0 0 0 
0.287897 -0.71872 -0.240655 0 0 0 
0.287928 -0.718744 -0.239667 0 0 0 
0.288212 -0.718942 -0.238547 0 0 0 
0.287788 -0.718653 -0.237791 0 0 0 
0.287921 -0.718747 -0.236747 0 0 0 
0.287144 -0.718217 -0.236175 0 0 0 
0.287935 -0.718762 -0.234786 0 0 0 
0.287664 -0.718579 -0.23395 0 0 0 
0.287343 -0.718362 -0.233141 0 0 0 
0.286972 -0.71811 -0.232359 0 0 0 
0.286602 -0.717859 -0.231578 0 0 0 
0.286686 -0.717919 -0.230554 0 0 0 
0.286317 -0.717669 -0.229772 0 0 0 
0.286402 -0.71773 -0.228746 0 0 0 
0.285631 -0.717204 -0.228184 0 0 0 
0.285566 -0.717162 -0.227239 0 0 0 
0.284999 -0.716776 -0.226569 0 0 0 
0.268739 -0.708791 -0.632549 0 0 0 
0.271143 -0.710463 -0.632902 0 0 0 
0.267886 -0.708204 -0.630237 0 0 0 
0.273726 -0.712262 -0.632398 0 0 0 
0.269918 -0.70962 -0.629454 0 0 0 
0.26773 -0.708103 -0.627378 0 0 0 
0.269751 -0.709509 -0.627508 0 0 0 
0.272444 -0.711382 -0.627978 0 0 0 
0.270275 -0.709878 -0.625925 0 0 0 
0.267496 -0.707951 -0.623571 0 0 0 
0.267915 -0.708245 -0.622865 0 0 0 
0.266884 -0.707531 -0.621422 0 0 0 
0.270452 -0.710011 -0.622311 0 0 0 
0.268266 -0.708496 -0.620286 0 0 0 
0.264097 -0.705603 -0.61728 0 0 0 
0.265403 -0.706512 -0.617024 0 0 0 
0.266312 -0.707146 -0.616566 0 0 0 
0.260619 -0.703195 -0.612847 0 0 0 
0.259982 -0.702755 -0.611638 0 0 0 
0.259305 -0.702287 -0.610415 0 0 0 
0.262412 -0.704448 -0.611034 0 0 0 
0.260984 -0.703458 -0.609446 0 0 0 
0.258964 -0.702057 -0.607581 0 0 0 
0.258464 -0.701713 -0.606455 0 0 0 
0.258653 -0.701846 -0.60566 0 0 0 
0.257215 -0.70085 -0.604094 0 0 0 
0.260152 -0.702893 -0.604597 0 0 0 
0.26004 -0.702817 -0.603657 0 0 0 
0.259108 -0.702172 -0.602337 0 0 0 
0.258954 -0.702068 -0.601383 0 0 0 
0.259273 -0.702292 -0.600648 0 0 0 
0.258562 -0.7018 -0.59944 0 0 0 
0.260173 -0.702921 -0.599296 0 0 0 
0.259889 -0.702727 -0.598285 0 0 0 
0.259779 -0.702653 -0.597354 0 0 0 
0.261139 -0.7036 -0.597084 0 0 0 
0.261419 -0.703797 -0.596327 0 0 0 
0.260097 -0.702881 -0.594857 0 0 0 
0.260462 -0.703137 -0.59414 0 0 0 
0.261522 -0.703876 -0.593727 0 0 0 
0.262108 -0.704285 -0.593103 0 0 0 
0.261433 -0.703819 -0.591928 0 0 0 
0.262805 -0.704774 -0.591642 0 0 0 
0.261867 -0.704125 -0.590358 0 0 0 
0.261281 -0.70372 -0.589229 0 0 0 
0.26139 -0.703798 -0.588399 0 0 0 
0.262761 -0.704753 -0.588102 0 0 0 
0.262434 -0.704529 -0.587087 0 0 0 
0.264428 -0.705916 -0.587042 0 0 0 
0.264143 -0.705721 -0.586043 0 0 0 
0.264078 -0.705678 -0.585137 0 0 0 
0.264409 -0.705911 -0.584394 0 0 0 
0.264962 -0.706297 -0.58374 0 0 0 
0.264942 -0.706285 -0.582853 0 0 0 
0.264482 -0.705968 -0.581789 0 0 0 
0.264947 -0.706294 -0.581098 0 0 0 
0.265856 -0.706927 -0.580583 0 0 0 
0.266369 -0.707286 -0.579907 0 0 0 
0.265729 -0.706845 -0.578776 0 0 0 
0.267533 -0.708101 -0.578604 0 0 0 
0.267202 -0.707873 -0.577595 0 0 0 
0.267943 -0.70839 -0.577002 0 0 0 
0.268149 -0.708536 -0.576201 0 0 0 
0.268266 -0.708619 -0.575365 0 0 0 
0.268876 -0.709046 -0.574717 0 0 0 
0.269669 -0.709599 -0.574135 0 0 0 
0.269562 -0.709527 -0.573213 0 0 0 
0.270087 -0.709894 -0.572528 0 0 0 
0.270206 -0.709979 -0.57169 0 0 0 
0.271096 -0.7106 -0.571136 0 0 0 
0.271854 -0.711129 -0.57053 0 0 0 
0.27234 -0.71147 -0.569822 0 0 0 
0.272004 -0.711239 -0.568818 0 0 0 
0.272766 -0.711771 -0.568207 0 0 0 
0.273301 -0.712145 -0.567514 0 0 0 
0.27393 -0.712584 -0.566851 0 0 0 
0.273363 -0.712193 -0.565767 0 0 0 
0.273947 -0.712601 -0.565087 0 0 0 
0.274255 -0.712818 -0.56431 0 0 0 
0.275259 -0.713518 -0.56377 0 0 0 
0.275524 -0.713704 -0.562975 0 0 0 
0.275464 -0.713665 -0.562069 0 0 0 
0.276148 -0.714143 -0.561414 0 0 0 
0.277584 -0.715143 -0.561007 0 0 0 
