0.42415,-0.103571,-0.186524,19
0.423627,-0.103374,-0.185386,21
0.422426,-0.10292,-0.183943,20
0.423413,-0.103297,-0.183498,26
0.425532,-0.104106,-0.18356,23
0.423006,-0.103147,-0.181528,22
0.424337,-0.103656,-0.181231,20
0.4245,-0.10372,-0.18041,24
0.42653,-0.104494,-0.180415,19
0.42424,-0.103625,-0.17851,23
0.424013,-0.103541,-0.177519,27
0.423544,-0.103364,-0.176425,22
0.426597,-0.104528,-0.176861,25
0.424749,-0.103827,-0.17517,24
0.425158,-0.103985,-0.174457,20
0.424541,-0.103752,-0.173305,23
0.424657,-0.103799,-0.172467,26
0.424189,-0.103623,-0.171383,22
0.425086,-0.103966,-0.170876,29
0.424034,-0.103568,-0.16955,29
0.42386,-0.103504,-0.168595,26
0.424415,-0.103717,-0.167943,22
0.425215,-0.104024,-0.167391,27
0.425822,-0.104257,-0.166757,31
0.425794,-0.104248,-0.165862,30
0.424499,-0.103758,-0.164455,30
0.424715,-0.103842,-0.163663,28
0.424348,-0.103705,-0.162638,27
0.423499,-0.103384,-0.161422,31
0.424977,-0.103948,-0.161134,30
0.424659,-0.103829,-0.160132,30
0.424343,-0.103711,-0.159132,35
0.424367,-0.103722,-0.158268,31
0.424342,-0.103715,-0.157385,34
0.425776,-0.104263,-0.157066,33
0.424343,-0.103719,-0.155641,31
0.423643,-0.103455,-0.154503,36
0.423428,-0.103375,-0.153552,40
0.423984,-0.103589,-0.152895,32
0.423383,-0.103363,-0.151801,43
0.423506,-0.103411,-0.150981,38
0.422285,-0.102949,-0.149663,42
0.421883,-0.102798,-0.148652,39
0.421958,-0.102828,-0.147819,43
0.421652,-0.102714,-0.146848,40
0.421157,-0.102528,-0.14581,42
0.421376,-0.102613,-0.145032,41
0.419937,-0.102067,-0.14366,41
0.419495,-0.101901,-0.142649,39
0.419431,-0.101879,-0.141775,44
0.41871,-0.101606,-0.140671,45
0.418835,-0.101656,-0.139867,46
0.417977,-0.101332,-0.138721,44
0.417962,-0.101328,-0.13787,48
0.418181,-0.101413,-0.137101,46
0.417887,-0.101303,-0.136156,46
0.418059,-0.101371,-0.135371,51
0.417533,-0.101173,-0.134351,47
0.417613,-0.101205,-0.133537,44
0.417182,-0.101043,-0.132553,50
0.417541,-0.101182,-0.131832,52
0.417901,-0.101321,-0.131111,53
0.418215,-0.101442,-0.130375,48
0.41825,-0.101458,-0.129547,50
0.417866,-0.101314,-0.128584,52
0.417716,-0.101258,-0.127699,52
0.41817,-0.101433,-0.127007,60
0.4183,-0.101485,-0.126211,52
0.418383,-0.101518,-0.125401,51
0.41884,-0.101694,-0.124708,58
0.419531,-0.10196,-0.124086,52
0.419382,-0.101905,-0.123203,55
0.419046,-0.101779,-0.122264,59
0.419458,-0.101938,-0.121555,61
0.419077,-0.101795,-0.120605,66
0.420051,-0.102168,-0.120063,68
0.419389,-0.101918,-0.119031,65
0.4214,-0.102686,-0.118791,61
0.42003,-0.102166,-0.117554,66
0.420681,-0.102416,-0.11691,74
0.421098,-0.102577,-0.116196,71
0.421422,-0.102702,-0.115455,66
0.420993,-0.102541,-0.114499,66
0.422119,-0.102972,-0.113984,69
0.421548,-0.102756,-0.112989,71
0.421685,-0.10281,-0.112195,76
0.421965,-0.102919,-0.11144,74
0.421961,-0.102919,-0.110606,82
0.421864,-0.102884,-0.109748,77
0.421908,-0.102903,-0.108929,81
0.422095,-0.102976,-0.108148,81
0.422329,-0.103068,-0.10738,83
0.422233,-0.103033,-0.106524,82
0.422657,-0.103197,-0.105806,84
0.423509,-0.103523,-0.105197,82
0.423177,-0.103399,-0.10428,93
0.422893,-0.103292,-0.103378,85
0.423272,-0.103439,-0.102645,90
0.423747,-0.103622,-0.101936,88
0.424129,-0.103769,-0.101202,95
0.424416,-0.103881,-0.100443,101
0.424895,-0.104065,-0.0997306,101
0.425136,-0.104159,-0.098959,101
0.424757,-0.104016,-0.0980373,102
0.424855,-0.104056,-0.0972319,103
0.425289,-0.104223,-0.0965061,100
0.42558,-0.104336,-0.0957455,102
0.425393,-0.104267,-0.0948729,107
0.425924,-0.104471,-0.0941674,111
0.426649,-0.10475,-0.0935047,111
0.426319,-0.104626,-0.0925999,111
0.426757,-0.104795,-0.0918699,116
0.426956,-0.104872,-0.0910853,109
0.427493,-0.105079,-0.0903749,113
0.42808,-0.105305,-0.0896739,107
0.428524,-0.105476,-0.0889398,109
0.428144,-0.105333,-0.0880276,111
0.428928,-0.105634,-0.0873649,115
0.429083,-0.105695,-0.0865669,120
0.429871,-0.105997,-0.085901,120
0.430027,-0.106059,-0.0851017,119
0.430184,-0.10612,-0.0843023,118
0.429951,-0.106034,-0.0834238,119
0.430402,-0.106207,-0.0826837,116
0.430658,-0.106307,-0.0819037,112
0.430817,-0.10637,-0.081104,118
0.432106,-0.106863,-0.080524,121
0.432365,-0.106964,-0.0797409,118
0.431936,-0.106802,-0.0788259,121
0.433233,-0.107298,-0.0782386,120
0.432063,-0.106854,-0.0771864,110
0.432225,-0.106918,-0.0763852,116
0.433327,-0.10734,-0.075755,122
0.432997,-0.107216,-0.0748624,116
0.433162,-0.107281,-0.0740599,114
0.43412,-0.107649,-0.0733971,119
0.434336,-0.107733,-0.0726014,125
0.434902,-0.107951,-0.0718655,128
0.434572,-0.107827,-0.0709751,125
0.43489,-0.10795,-0.0701955,128
0.435808,-0.108302,-0.0695148,133
0.435828,-0.108312,-0.0686832,134
0.435698,-0.108264,-0.0678277,136
0.43592,-0.108351,-0.0670292,128
0.436292,-0.108494,-0.0662542,130
0.436164,-0.108448,-0.0653998,130
0.437291,-0.10888,-0.06474,137
0.436661,-0.108641,-0.0638083,138
0.436836,-0.10871,-0.0630005,141
0.437111,-0.108817,-0.0622073,139
0.436935,-0.108752,-0.0613472,137
0.437766,-0.10907,-0.0606335,135
0.43754,-0.108986,-0.0597664,140
0.438121,-0.10921,-0.0590138,138
0.437795,-0.109088,-0.0581337,140
0.437621,-0.109023,-0.057276,141
0.438255,-0.109267,-0.0565276,138
0.437578,-0.109011,-0.0556037,138
0.437859,-0.10912,-0.0548077,139
0.438293,-0.109287,-0.0540304,136
0.438273,-0.109282,-0.0531943,140
0.438152,-0.109238,-0.0523462,142
0.43879,-0.109483,-0.0515915,141
0.438115,-0.109228,-0.0506767,141
0.437442,-0.108973,-0.0497652,142
0.437224,-0.108892,-0.0489094,144
0.43756,-0.109022,-0.048118,152
0.437695,-0.109076,-0.047303,144
0.437277,-0.108918,-0.0464269,147
0.437967,-0.109183,-0.0456725,148
0.437299,-0.10893,-0.0447713,145
0.436784,-0.108736,-0.043889,155
0.437373,-0.108963,-0.0431219,155
0.436608,-0.108673,-0.042217,161
0.436296,-0.108556,-0.0413598,151
0.435637,-0.108307,-0.0404707,154
0.435975,-0.108438,-0.0396784,157
0.435119,-0.108113,-0.0387748,154
0.434564,-0.107904,-0.0379021,161
0.434704,-0.107959,-0.037093,164
0.434004,-0.107694,-0.0362111,168
0.433996,-0.107693,-0.0353906,164
0.433004,-0.107317,-0.0344893,170
0.433687,-0.107579,-0.0337266,166
0.432452,-0.10711,-0.0328112,164
0.432398,-0.107092,-0.0319911,168
0.43259,-0.107167,-0.0311895,166
0.43151,-0.106757,-0.0302954,170
0.431166,-0.106628,-0.0294575,167
0.430628,-0.106425,-0.0286079,166
0.430481,-0.10637,-0.0277865,167
0.430625,-0.106427,-0.0269846,169
0.430672,-0.106447,-0.0261762,167
0.430478,-0.106375,-0.0253532,173
0.430672,-0.106451,-0.0245538,172
0.430285,-0.106305,-0.0237209,170
0.42985,-0.106141,-0.0228871,171
0.429514,-0.106015,-0.0220603,172
0.429323,-0.105944,-0.0212423,174
0.428844,-0.105764,-0.0204112,169
0.428128,-0.105492,-0.019571,171
0.427653,-0.105313,-0.0187446,170
0.427132,-0.105116,-0.0179182,174
0.426709,-0.104957,-0.0170978,170
0.426287,-0.104798,-0.0162793,174
0.425345,-0.104441,-0.0154435,177
0.425163,-0.104373,-0.0146379,175
0.426497,-0.104884,-0.0138826,175
0.424283,-0.104041,-0.0130131,178
0.423681,-0.103813,-0.0121988,177
0.423316,-0.103676,-0.0113932,177
0.423512,-0.103753,-0.0106031,178
0.422169,-0.103242,-0.00977709,182
0.421575,-0.103018,-0.0089721,180
0.421169,-0.102865,-0.00817303,179
0.420488,-0.102607,-0.00737095,184
0.420638,-0.102666,-0.006584,181
0.419454,-0.102216,-0.00577924,181
0.41988,-0.102381,-0.0049968,179
0.418474,-0.101846,-0.00419627,182
0.418259,-0.101766,-0.00340964,178
0.418,-0.101669,-0.00262365,180
0.417833,-0.101607,-0.00183897,177
0.417031,-0.101303,-0.00105428,174
0.417318,-0.101415,-0.000271745,179
0.417289,-0.101405,0.000511014,177
0.417034,-0.10131,0.00129257,175
0.416463,-0.101094,0.00207096,172
0.417205,-0.101379,0.00285872,178
0.416725,-0.101197,0.00363623,175
0.416743,-0.101206,0.00441826,175
0.416898,-0.101267,0.0052024,174
0.417054,-0.101329,0.00598721,175
0.417074,-0.101338,0.00677015,170
0.417185,-0.101383,0.0075551,175
0.41707,-0.101341,0.00833542,176
0.417364,-0.101455,0.00912542,173
0.417386,-0.101465,0.00990941,174
0.417545,-0.101528,0.0106975,178
0.417341,-0.101452,0.0114751,177
0.417865,-0.101653,0.0122758,169
0.417707,-0.101595,0.013055,167
0.419422,-0.102251,0.0139022,169
0.419264,-0.102193,0.014684,171
0.418467,-0.101891,0.0154395,169
0.418859,-0.102042,0.0162424,175
0.419665,-0.102352,0.0170654,173
0.419923,-0.102452,0.0178662,171
0.419354,-0.102237,0.0186281,171
0.420118,-0.10253,0.0194551,171
0.420285,-0.102596,0.020254,172
0.420223,-0.102574,0.0210412,168
0.422525,-0.103455,0.0219615,173
0.421115,-0.102919,0.0226746,170
0.422029,-0.103269,0.0235223,171
0.422667,-0.103515,0.0243567,167
0.42214,-0.103316,0.0251188,167
0.42292,-0.103615,0.0259656,170
0.423797,-0.103952,0.0268223,168
0.423082,-0.103681,0.0275708,164
0.423445,-0.103821,0.0283945,162
0.423997,-0.104034,0.0292339,163
0.425354,-0.104554,0.030137,166
0.425391,-0.10457,0.0309425,162
0.425713,-0.104695,0.0317711,158
0.426036,-0.10482,0.0326013,163
0.426456,-0.104982,0.0334411,160
0.426972,-0.105181,0.0342911,167
0.427395,-0.105345,0.0351352,173
0.428203,-0.105655,0.0360159,163
0.429015,-0.105967,0.0369003,165
0.429299,-0.106077,0.0377386,164
0.430602,-0.106577,0.0386762,158
0.431133,-0.106782,0.0395434,162
0.431178,-0.106801,0.0403643,163
0.431809,-0.107044,0.0412456,163
0.432345,-0.10725,0.0421197,167
0.432245,-0.107214,0.0429286,162
0.433227,-0.107591,0.0438544,163
0.434263,-0.107989,0.0447904,161
0.434461,-0.108066,0.0456368,167
0.434908,-0.108239,0.0465127,166
0.435058,-0.108298,0.0473562,165
0.436959,-0.109026,0.0484074,166
0.437565,-0.109259,0.0493109,170
0.437517,-0.109243,0.0501373,168
0.437269,-0.10915,0.0509389,164
0.437374,-0.109192,0.0517843,170
0.437278,-0.109158,0.0526048,170
0.437132,-0.109104,0.0534186,165
0.437541,-0.109262,0.0543055,167
0.437547,-0.109267,0.0551404,167
0.437857,-0.109387,0.0560169,171
0.438218,-0.109527,0.0569022,172
0.438024,-0.109455,0.0577113,171
0.438437,-0.109615,0.0586064,172
0.438092,-0.109485,0.0593942,172
0.438052,-0.109471,0.0602254,174
0.438163,-0.109516,0.0610793,168
0.44072,-0.110495,0.0623016,172
0.438388,-0.109606,0.06279,171
0.438502,-0.109652,0.0636467,170
0.440707,-0.110496,0.0648312,172
0.438579,-0.109685,0.0653388,167
0.438694,-0.109731,0.066198,168
0.438404,-0.109622,0.0669923,167
0.440407,-0.110389,0.0681626,171
0.43874,-0.109754,0.0687307,169
0.438451,-0.109646,0.0695247,168
0.438722,-0.109752,0.0704132,168
0.438536,-0.109683,0.0712246,166
0.438604,-0.109711,0.0720799,171
0.438318,-0.109604,0.0728734,169
0.438286,-0.109593,0.0737115,169
0.438407,-0.109642,0.0745775,174
0.438529,-0.10969,0.0754445,175
0.438042,-0.109506,0.0762001,181
0.43852,-0.109691,0.0771343,180
0.438338,-0.109623,0.0779464,182
0.438157,-0.109556,0.0787584,175
0.43823,-0.109586,0.0796191,179
0.437797,-0.109423,0.0803818,184
0.437871,-0.109453,0.0812432,180
0.437743,-0.109407,0.0820651,177
0.436252,-0.108839,0.0826132,183
0.435925,-0.108716,0.0833918,173
0.435298,-0.108478,0.084108,177
0.435373,-0.108509,0.0849677,175
0.435099,-0.108406,0.085755,178
0.434325,-0.108113,0.0864363,178
0.434902,-0.108335,0.0874026,173
0.434679,-0.108252,0.0881999,173
0.433361,-0.10775,0.0887588,170
0.432991,-0.107611,0.0895209,171
0.432623,-0.107473,0.0902822,170
0.431811,-0.107164,0.0909434,170
0.432433,-0.107404,0.091925,169
0.432117,-0.107285,0.0926961,168
0.431949,-0.107223,0.0935007,163
0.432375,-0.107388,0.0944426,157
0.432159,-0.107308,0.0952367,162
0.431993,-0.107246,0.0960423,155
0.432371,-0.107393,0.0969772,164
0.432454,-0.107426,0.0978431,162
0.43209,-0.10729,0.0986023,158
0.432421,-0.107418,0.0995297,157
0.432604,-0.10749,0.100423,160
0.432738,-0.107543,0.101305,158
0.432873,-0.107597,0.102188,161
0.433457,-0.107822,0.103186,154
0.433644,-0.107895,0.104086,154
0.434984,-0.10841,0.105283,157
0.434219,-0.108119,0.105942,153
0.433157,-0.107716,0.106521,153
0.434246,-0.108134,0.107661,153
0.433884,-0.107998,0.108422,153
0.434024,-0.108053,0.109316,153
0.433613,-0.107898,0.110063,154
0.434356,-0.108184,0.111122,152
0.435001,-0.108433,0.112157,153
0.435295,-0.108547,0.1131,155
0.435338,-0.108566,0.113974,155
0.435229,-0.108526,0.114808,150
0.435172,-0.108507,0.115655,155
0.436026,-0.108835,0.116761,152
0.436121,-0.108874,0.117655,159
0.436167,-0.108893,0.118536,154
0.436111,-0.108874,0.119388,150
0.436361,-0.108971,0.12033,146
0.436306,-0.108953,0.121184,145
0.435845,-0.108779,0.121918,149
0.435994,-0.108838,0.122833,152
0.436449,-0.109014,0.123841,151
0.436447,-0.109015,0.124713,149
0.436395,-0.108997,0.125571,155
0.435885,-0.108804,0.126288,149
0.436699,-0.109117,0.127413,151
0.436392,-0.109002,0.128194,153
0.436596,-0.109083,0.129134,152
0.435375,-0.108618,0.129627,152
0.436496,-0.109048,0.130857,155
0.436089,-0.108895,0.131606,150
0.435024,-0.10849,0.132142,154
0.434823,-0.108415,0.132954,154
0.434977,-0.108476,0.133881,155
0.433716,-0.107996,0.134347,151
0.434122,-0.108154,0.135357,158
0.433218,-0.10781,0.135934,154
0.432769,-0.10764,0.136661,157
0.432321,-0.107471,0.137387,156
0.432024,-0.10736,0.138162,154
0.432079,-0.107383,0.139057,160
0.431883,-0.10731,0.139867,159
0.431288,-0.107085,0.140539,157
0.431593,-0.107204,0.141522,152
0.431399,-0.107131,0.142332,157
0.431006,-0.106983,0.143073,147
0.430713,-0.106873,0.143847,157
0.430969,-0.106973,0.144817,154
0.431076,-0.107016,0.145735,154
0.430335,-0.106735,0.146349,153
0.431142,-0.107046,0.14752,156
0.43065,-0.10686,0.148224,153
0.429762,-0.106522,0.148781,153
0.429671,-0.10649,0.149629,158
0.429283,-0.106344,0.150367,153
0.429292,-0.106349,0.151252,153
0.429004,-0.106241,0.152026,148
0.429511,-0.106437,0.153099,153
0.429273,-0.106348,0.153893,155
0.428986,-0.10624,0.154668,153
0.429096,-0.106285,0.155595,156
0.428067,-0.105893,0.156084,161
0.428177,-0.105938,0.157011,155
0.426808,-0.105416,0.157364,152
0.426721,-0.105385,0.158213,152
0.426487,-0.105298,0.159004,154
0.426058,-0.105136,0.159718,157
0.425923,-0.105086,0.160549,153
0.424617,-0.104589,0.16091,146
0.424386,-0.104502,0.1617,144
0.42435,-0.104491,0.162568,152
0.425242,-0.104834,0.163813,147
0.423211,-0.104059,0.16387,150
0.422837,-0.103919,0.164599,145
0.422851,-0.103926,0.165487,144
0.422865,-0.103933,0.166376,132
0.422685,-0.103867,0.167185,130
0.423039,-0.104004,0.168218,120
0.422424,-0.103771,0.168845,115
0.42302,-0.104001,0.169983,117
0.422939,-0.103972,0.170836,116
0.422761,-0.103906,0.171649,114
0.423798,-0.104305,0.172984,113
0.423474,-0.104183,0.173736,105
0.423345,-0.104136,0.174572,103
0.424191,-0.104462,0.175834,113
0.424014,-0.104396,0.176652,112
0.424178,-0.104462,0.177621,112
0.424834,-0.104715,0.178809,112
0.424952,-0.104762,0.179761,107
0.425266,-0.104884,0.180802,112
0.42509,-0.104819,0.181625,106
0.425603,-0.105018,0.18276,101
0.425772,-0.105084,0.183742,100
0.426139,-0.105227,0.184816,104
0.427353,-0.105694,0.186281,103
0.426978,-0.105552,0.187019,108
0.427349,-0.105697,0.188103,100
0.427273,-0.10567,0.18898,98
0.427896,-0.10591,0.190186,99
0.427271,-0.105673,0.190808,100
0.428145,-0.10601,0.192137,90
0.428271,-0.106061,0.193115,96
0.429,-0.106342,0.194383,137
0.429329,-0.10647,0.195463,93
0.429356,-0.106483,0.1964,96
0.429535,-0.106553,0.197412,94
0.417517,-0.10459,-0.203545,15
0.4227,-0.10661,-0.205275,13
0.417345,-0.104528,-0.201649,14
0.418502,-0.10498,-0.201329,14
0.418034,-0.1048,-0.20019,10
0.418188,-0.104862,-0.199365,12
0.419638,-0.105429,-0.199184,12
0.41888,-0.105136,-0.197904,13
0.418221,-0.104882,-0.196678,11
0.419526,-0.105392,-0.196419,18
0.420115,-0.105624,-0.195806,16
0.420803,-0.105894,-0.195238,14
0.420428,-0.10575,-0.194154,9
0.421601,-0.106209,-0.193819,19
0.42239,-0.106518,-0.193295,20
0.422597,-0.106601,-0.19249,18
0.421202,-0.10606,-0.190925,16
0.423892,-0.10711,-0.191297,16
0.422246,-0.106471,-0.18962,17
0.421629,-0.106233,-0.188431,17
0.42237,-0.106524,-0.18788,19
0.423358,-0.10691,-0.187439,21
0.421092,-0.10603,-0.185495,23
0.422704,-0.10666,-0.185342,15
0.423108,-0.10682,-0.18463,16
0.422686,-0.106657,-0.183542,18
0.422216,-0.106477,-0.182435,17
0.426489,-0.108143,-0.183467,22
0.424389,-0.107327,-0.181625,19
0.422748,-0.10669,-0.179998,18
0.425598,-0.107803,-0.180371,20
0.421766,-0.106312,-0.177783,26
0.426271,-0.108069,-0.178874,25
0.42408,-0.107218,-0.17702,21
0.42483,-0.107512,-0.176455,17
0.425044,-0.107597,-0.175656,19
0.425748,-0.107874,-0.175068,24
0.4242,-0.107273,-0.173513,24
0.423392,-0.10696,-0.172281,25
0.422491,-0.106612,-0.171014,29
0.422656,-0.106678,-0.170201,27
0.422145,-0.106481,-0.169104,29
0.424637,-0.107454,-0.169264,25
0.423635,-0.107066,-0.167963,24
0.424141,-0.107265,-0.167291,26
0.423774,-0.107124,-0.166257,32
0.424134,-0.107267,-0.165524,31
0.423525,-0.107032,-0.164396,28
0.425005,-0.10761,-0.164116,31
0.422652,-0.106696,-0.162288,27
0.423737,-0.10712,-0.161847,34
0.424244,-0.10732,-0.161172,30
0.42325,-0.106935,-0.159902,30
0.423515,-0.107041,-0.159132,32
0.422527,-0.106658,-0.157871,32
0.424386,-0.107384,-0.157724,32
0.424556,-0.107452,-0.156915,32
0.423178,-0.106917,-0.155511,38
0.423106,-0.106892,-0.154613,38
0.422651,-0.106716,-0.153571,36
0.423254,-0.106953,-0.152931,41
0.42184,-0.106405,-0.151531,40
0.423836,-0.107185,-0.151413,37
0.421416,-0.106244,-0.149645,38
0.422064,-0.106498,-0.149023,43
0.423965,-0.107241,-0.148859,42
0.423703,-0.107141,-0.147897,41
0.422386,-0.10663,-0.146554,45
0.42208,-0.106513,-0.145582,42
0.422013,-0.106489,-0.144698,44
0.4209,-0.106057,-0.143441,41
0.419747,-0.10561,-0.142176,43
0.42006,-0.105734,-0.141434,40
0.418492,-0.105125,-0.140031,43
0.418898,-0.105285,-0.139323,41
0.417154,-0.104607,-0.13787,40
0.416999,-0.104549,-0.136973,44
0.417125,-0.1046,-0.136172,47
0.417762,-0.104851,-0.135545,48
0.416078,-0.104196,-0.134132,56
0.416991,-0.104554,-0.133599,54
0.416422,-0.104334,-0.132568,46
0.41604,-0.104188,-0.131602,45
0.416536,-0.104383,-0.130928,48
0.416895,-0.104525,-0.130208,49
0.417069,-0.104595,-0.129426,52
0.417336,-0.104701,-0.128674,59
0.416769,-0.104482,-0.127655,53
0.41602,-0.104192,-0.12658,55
0.416749,-0.104478,-0.125977,56
0.418877,-0.10531,-0.125812,59
0.418867,-0.105308,-0.12497,63
0.418065,-0.104997,-0.123883,65
0.417499,-0.104779,-0.122873,61
0.418746,-0.105267,-0.122421,56
0.41804,-0.104993,-0.121371,64
0.418683,-0.105246,-0.120731,66
0.418583,-0.105209,-0.119867,70
0.418018,-0.104991,-0.118865,80
0.419642,-0.105626,-0.118514,70
0.419448,-0.105553,-0.117622,70
0.419629,-0.105625,-0.116841,70
0.420045,-0.105789,-0.116128,65
0.419198,-0.105461,-0.115051,63
0.41966,-0.105643,-0.114352,65
0.419281,-0.105498,-0.113413,70
0.4204,-0.105936,-0.112897,73
0.420161,-0.105845,-0.111998,66
0.420439,-0.105955,-0.111244,71
0.419827,-0.105718,-0.110245,78
0.421561,-0.106396,-0.109889,85
0.421134,-0.106232,-0.108942,83
0.421226,-0.10627,-0.108136,89
0.421601,-0.106418,-0.107405,92
0.421788,-0.106493,-0.106624,95
0.422211,-0.10666,-0.105905,96
0.422589,-0.106809,-0.105173,94
0.421691,-0.106461,-0.10411,93
0.422352,-0.106721,-0.103451,92
0.422967,-0.106963,-0.102778,91
0.422495,-0.106781,-0.101828,89
0.422591,-0.10682,-0.101024,92
0.422923,-0.106952,-0.100278,93
0.423684,-0.107251,-0.0996369,93
0.423639,-0.107235,-0.0987964,91
0.423594,-0.10722,-0.0979568,98
0.424549,-0.107594,-0.0973576,101
0.424791,-0.10769,-0.0965855,99
0.424413,-0.107545,-0.0956668,100
0.424704,-0.10766,-0.0949063,100
0.424756,-0.107683,-0.09409,104
0.425,-0.10778,-0.0933179,105
0.425388,-0.107933,-0.0925781,110
0.425586,-0.108012,-0.0917943,113
0.425879,-0.108129,-0.0910316,113
0.426126,-0.108227,-0.0902578,113
0.42671,-0.108457,-0.0895575,113
0.427537,-0.108781,-0.0889082,117
0.42687,-0.108523,-0.0879341,115
0.427892,-0.108924,-0.0873236,116
0.428337,-0.109099,-0.0865874,122
0.428443,-0.109143,-0.085779,120
0.428017,-0.108979,-0.0848603,113
0.428803,-0.109287,-0.0841926,120
0.429154,-0.109426,-0.0834336,119
0.429798,-0.109679,-0.0827328,111
0.429956,-0.109743,-0.0819329,115
0.429968,-0.10975,-0.081104,118
0.430322,-0.10989,-0.0803424,114
0.430384,-0.109916,-0.0795232,120
0.430985,-0.110153,-0.0788072,118
0.431343,-0.110294,-0.0780431,118
0.43121,-0.110244,-0.0771864,114
0.43147,-0.110348,-0.0764033,124
0.432175,-0.110625,-0.0757008,120
0.432733,-0.110845,-0.0749695,124
0.432306,-0.11068,-0.0740599,126
0.433261,-0.111055,-0.0733971,127
0.43318,-0.111025,-0.0725495,127
0.433892,-0.111305,-0.0718397,129
0.433811,-0.111275,-0.070992,127
0.434376,-0.111498,-0.0702542,128
0.434495,-0.111546,-0.06944,126
0.435613,-0.111985,-0.0687903,124
0.434635,-0.111605,-0.0677952,131
0.435405,-0.111907,-0.0670854,135
0.435426,-0.111918,-0.0662542,134
0.43625,-0.112241,-0.0655488,138
0.436222,-0.112232,-0.0647089,138
0.437251,-0.112636,-0.0640308,135
0.436922,-0.112509,-0.0631442,133
0.436243,-0.112247,-0.0622073,133
0.437424,-0.11271,-0.0615463,136
0.437702,-0.11282,-0.0607501,141
0.437022,-0.112557,-0.0598166,137
0.437603,-0.112785,-0.0590634,139
0.437378,-0.1127,-0.0581965,147
0.437658,-0.112811,-0.0573998,146
0.436981,-0.112549,-0.0564734,142
0.436909,-0.112522,-0.0556304,137
0.43724,-0.112654,-0.0548405,137
0.437875,-0.112903,-0.0540887,139
0.438461,-0.113134,-0.0533286,141
0.437684,-0.112833,-0.0523964,141
0.437715,-0.112847,-0.0515668,149
0.437899,-0.112921,-0.0507557,142
0.438083,-0.112995,-0.0499442,147
0.437864,-0.112911,-0.0490852,148
0.437847,-0.112907,-0.0482505,147
0.437579,-0.112804,-0.0473879,144
0.43696,-0.112565,-0.0464879,145
0.436044,-0.112209,-0.0455582,148
0.43668,-0.112459,-0.044798,146
0.436968,-0.112574,-0.043999,152
0.436904,-0.112551,-0.043163,151
0.436641,-0.11245,-0.0423075,152
0.43683,-0.112526,-0.0414978,158
0.436368,-0.112347,-0.0406247,160
0.436607,-0.112443,-0.03982,156
0.436497,-0.112402,-0.0389822,159
0.436187,-0.112283,-0.038127,161
0.434685,-0.111698,-0.0371676,157
0.434825,-0.111755,-0.0363566,164
0.434917,-0.111793,-0.0355412,164
0.433426,-0.111213,-0.0345948,166
0.433271,-0.111155,-0.0337623,162
0.433266,-0.111154,-0.0329423,163
0.432523,-0.110867,-0.0320661,163
0.431588,-0.110504,-0.0311786,169
0.43178,-0.11058,-0.0303768,168
0.431581,-0.110505,-0.0295469,170
0.431383,-0.110429,-0.0287179,162
0.432016,-0.110678,-0.0279453,169
0.430406,-0.110052,-0.0270253,171
0.430017,-0.109902,-0.0261884,169
0.429436,-0.109677,-0.0253415,169
0.429774,-0.109811,-0.024551,171
0.429775,-0.109813,-0.0237401,165
0.429148,-0.109571,-0.022895,170
0.429005,-0.109517,-0.0220781,167
0.42771,-0.109013,-0.0212034,168
0.427665,-0.108998,-0.0203949,171
0.427525,-0.108945,-0.0195822,174
0.42729,-0.108855,-0.0187659,179
0.426817,-0.108672,-0.0179405,173
0.426441,-0.108527,-0.0171211,170
0.426733,-0.108643,-0.016329,175
0.426168,-0.108425,-0.0155044,176
0.42499,-0.107967,-0.0146608,176
0.424338,-0.107714,-0.0138392,177
0.424769,-0.107884,-0.0130537,177
0.423368,-0.107339,-0.0122136,175
0.422722,-0.107088,-0.0113995,172
0.422078,-0.106839,-0.010588,177
0.421206,-0.1065,-0.0097739,179
0.422098,-0.106851,-0.00900021,178
0.420395,-0.106187,-0.0081739,176
0.420083,-0.106068,-0.00737796,175
0.419865,-0.105984,-0.00658468,175
0.419509,-0.105847,-0.00579052,176
0.419338,-0.105783,-0.00499982,180
0.419398,-0.105808,-0.00421189,180
0.417493,-0.105066,-0.00340996,181
0.417416,-0.105037,-0.00262479,180
0.416977,-0.104868,-0.00183883,182
0.416539,-0.104699,-0.00105461,172
0.417098,-0.104919,-0.000271199,170
0.417023,-0.104892,0.000512596,173
0.417222,-0.104971,0.00129744,169
0.416967,-0.104873,0.00207998,170
0.417802,-0.105202,0.00287119,171
0.417002,-0.104891,0.00364801,171
0.41743,-0.10506,0.00443743,177
0.418726,-0.105568,0.00524146,172
0.418334,-0.105417,0.00602231,173
0.418446,-0.105463,0.00681112,175
0.417555,-0.105117,0.00757959,173
0.418625,-0.105536,0.00838921,172
0.418464,-0.105476,0.00917268,168
0.41899,-0.105683,0.00997392,170
0.418876,-0.10564,0.0107589,167
0.41922,-0.105776,0.0115577,172
0.419336,-0.105824,0.0123504,170
0.41959,-0.105925,0.0131484,167
0.421416,-0.10664,0.0140052,175
0.419871,-0.106038,0.014739,172
0.420081,-0.106122,0.0155381,169
0.420939,-0.10646,0.0163658,175
0.421802,-0.106799,0.0171972,169
0.420856,-0.106431,0.0179478,170
0.421626,-0.106734,0.0187782,167
0.421702,-0.106765,0.0195766,170
0.421731,-0.106779,0.0203731,167
0.421901,-0.106847,0.0211774,168
0.421792,-0.106806,0.0219668,168
0.422382,-0.107039,0.0227968,164
0.423631,-0.107529,0.0236692,164
0.42296,-0.107269,0.0244267,163
0.424073,-0.107705,0.0252967,164
0.424484,-0.107868,0.0261246,168
0.424848,-0.108012,0.0269512,164
0.425215,-0.108157,0.0277795,164
0.426962,-0.108842,0.0287095,162
0.425713,-0.108356,0.0294236,171
0.427371,-0.109005,0.0303551,166
0.42784,-0.109191,0.0312001,168
0.427591,-0.109095,0.0319894,165
0.428735,-0.109544,0.0328929,161
0.428871,-0.1096,0.0337159,167
0.429637,-0.109901,0.0345941,168
0.430697,-0.110317,0.0355017,168
0.430545,-0.11026,0.036304,162
0.430831,-0.110373,0.0371465,162
0.432047,-0.110851,0.0380782,163
0.432533,-0.111043,0.0389445,165
0.433415,-0.111389,0.0398521,165
0.433658,-0.111486,0.0406992,166
0.433655,-0.111487,0.0415223,165
0.433653,-0.111488,0.0423457,168
0.434195,-0.111702,0.0432274,165
0.434392,-0.111781,0.044074,165
0.43464,-0.11188,0.0449273,162
0.434342,-0.111765,0.0457204,164
0.435237,-0.112117,0.0466493,170
0.435388,-0.112178,0.0474953,163
0.436791,-0.112729,0.0484906,166
0.436944,-0.112791,0.0493412,172
0.436998,-0.112813,0.0501804,174
0.43685,-0.112758,0.0509952,171
0.436955,-0.112801,0.0518416,168
0.437161,-0.112883,0.0527017,170
0.437116,-0.112868,0.0535302,173
0.437474,-0.11301,0.0544123,164
0.437481,-0.113015,0.0552488,164
0.437639,-0.113078,0.0561064,167
0.437849,-0.113163,0.0569722,171
0.437807,-0.113148,0.0578036,165
0.438271,-0.113332,0.0587075,171
0.438027,-0.113238,0.0595111,173
0.438595,-0.113462,0.0604332,176
0.439114,-0.113667,0.0613506,174
0.437907,-0.113197,0.0620104,171
0.439596,-0.11386,0.063108,170
0.439915,-0.113986,0.0640008,178
0.439061,-0.113654,0.0647112,173
0.438008,-0.113245,0.0653871,170
0.437971,-0.113233,0.0662225,178
0.437833,-0.113181,0.0670417,175
0.437899,-0.113209,0.0678943,175
0.437763,-0.113157,0.0687138,172
0.437627,-0.113106,0.0695333,172
0.437441,-0.113036,0.070344,168
0.437155,-0.112926,0.0711371,168
0.438338,-0.11339,0.0721865,169
0.437242,-0.112964,0.0728376,171
0.437311,-0.112993,0.0736934,173
0.437077,-0.112904,0.0744951,175
0.436391,-0.112637,0.0752133,171
0.436966,-0.112864,0.0761627,178
0.436936,-0.112855,0.0770017,181
0.436201,-0.112569,0.0777076,180
0.436828,-0.112816,0.0786714,179
0.436044,-0.112512,0.0793654,183
0.436874,-0.112838,0.080372,177
0.434785,-0.112024,0.0808064,177
0.434859,-0.112054,0.0816639,174
0.434133,-0.111773,0.0823612,177
0.433809,-0.111648,0.0831376,174
0.433784,-0.11164,0.0839747,176
0.433013,-0.111341,0.0846575,168
0.432493,-0.11114,0.0853902,172
0.431876,-0.1109,0.0861006,162
0.432348,-0.111087,0.0870415,172
0.431831,-0.110886,0.0877717,169
0.431167,-0.110629,0.0884684,167
0.430703,-0.11045,0.0892066,166
0.430829,-0.110501,0.0900744,163
0.431301,-0.110687,0.0910206,160
0.431379,-0.11072,0.0918804,162
0.431754,-0.110869,0.0928087,168
0.431587,-0.110805,0.0936142,166
0.431568,-0.1108,0.0944541,158
0.431056,-0.110602,0.095179,161
0.431433,-0.110751,0.0961122,164
0.431712,-0.110863,0.0970243,161
0.431844,-0.110916,0.0979026,160
0.431877,-0.110931,0.0987581,155
0.431812,-0.110908,0.0995902,158
0.431796,-0.110904,0.100435,157
0.432079,-0.111016,0.101354,158
0.432511,-0.111188,0.102313,158
0.432299,-0.111106,0.103111,155
0.432633,-0.111239,0.104048,158
0.43272,-0.111275,0.104923,158
0.433456,-0.111566,0.105968,149
0.433945,-0.111759,0.106951,155
0.433884,-0.111737,0.107793,153
0.433422,-0.111558,0.108528,150
0.433762,-0.111694,0.109477,158
0.433552,-0.111613,0.110279,150
0.434597,-0.112024,0.111422,154
0.434236,-0.111885,0.112185,150
0.434782,-0.112101,0.113197,151
0.434472,-0.111982,0.113974,151
0.43507,-0.112218,0.115005,156
0.435164,-0.112257,0.115897,155
0.435765,-0.112494,0.116934,157
0.435759,-0.112494,0.1178,157
0.435703,-0.112474,0.118653,148
0.436105,-0.112633,0.119639,146
0.436253,-0.112693,0.120553,151
0.435944,-0.112574,0.121333,151
0.436093,-0.112635,0.122249,148
0.437264,-0.113095,0.123472,149
0.437006,-0.112996,0.12427,149
0.437107,-0.113038,0.125176,156
0.436747,-0.112899,0.125943,157
0.436644,-0.112861,0.126788,156
0.43695,-0.112983,0.12776,149
0.437309,-0.113125,0.12875,153
0.436951,-0.112988,0.129518,149
0.436952,-0.11299,0.130398,155
0.436646,-0.112872,0.131181,157
0.437006,-0.113016,0.132177,156
0.436855,-0.112958,0.13301,159
0.437011,-0.113022,0.133944,152
0.436553,-0.112845,0.134678,156
0.436659,-0.112888,0.135596,151
0.435947,-0.112612,0.136244,155
0.436309,-0.112755,0.137248,157
0.435293,-0.11236,0.137793,155
0.434789,-0.112165,0.138507,158
0.434337,-0.11199,0.139236,159
0.433836,-0.111796,0.139948,162
0.433336,-0.111603,0.140659,161
0.43319,-0.111548,0.141491,159
0.432793,-0.111394,0.142236,153
0.431894,-0.111045,0.142804,160
0.431951,-0.111069,0.143705,158
0.431958,-0.111074,0.14459,153
0.431915,-0.111059,0.145457,153
0.431321,-0.110829,0.146128,157
0.431179,-0.110775,0.14696,155
0.431337,-0.11084,0.147901,156
0.430296,-0.110434,0.148406,157
0.430255,-0.11042,0.149274,156
0.430464,-0.110504,0.150234,158
0.429178,-0.110003,0.150643,155
0.430433,-0.110496,0.151994,161
0.429446,-0.110112,0.15251,154
0.429108,-0.109982,0.153267,155
0.42892,-0.10991,0.154081,155
0.428584,-0.109781,0.154838,153
0.428545,-0.109768,0.155709,161
0.427814,-0.109484,0.156313,159
0.427875,-0.10951,0.157222,158
0.427442,-0.109343,0.157939,154
0.427356,-0.109311,0.158792,152
0.426678,-0.109048,0.159411,153
0.426052,-0.108805,0.160049,154
0.42577,-0.108696,0.160822,154
0.425098,-0.108435,0.161438,146
0.425013,-0.108404,0.162289,143
0.424392,-0.108163,0.162923,145
0.4246,-0.108247,0.163893,146
0.423883,-0.107968,0.164486,149
0.423897,-0.107976,0.165377,147
0.423085,-0.10766,0.165927,143
0.422712,-0.107516,0.166657,142
0.422726,-0.107524,0.167549,126
0.423664,-0.107893,0.16883,125
0.423728,-0.10792,0.169747,121
0.423549,-0.107852,0.170561,121
0.423808,-0.107956,0.171563,110
0.423922,-0.108003,0.172504,105
0.423452,-0.107821,0.173194,103
0.423957,-0.108021,0.174306,103
0.424463,-0.108221,0.175422,109
0.424236,-0.108135,0.17622,107
0.424402,-0.108202,0.17719,105
0.42442,-0.108211,0.178097,105
0.426064,-0.108857,0.179728,111
0.425887,-0.10879,0.180553,108
0.425167,-0.10851,0.181134,104
0.426473,-0.109024,0.182628,106
0.426444,-0.109015,0.183522,106
0.426218,-0.108928,0.184328,109
0.426537,-0.109056,0.185383,95
0.42656,-0.109067,0.186304,99
0.427629,-0.109488,0.18771,98
0.427453,-0.109421,0.188543,103
0.428027,-0.109648,0.189727,103
0.428201,-0.109718,0.190726,99
0.427775,-0.109554,0.191444,88
0.429309,-0.110157,0.19309,99
0.429891,-0.110387,0.19429,101
0.429108,-0.110083,0.194841,139
0.429438,-0.110214,0.195924,93
0.430124,-0.110485,0.197182,90
0.43,-0.110439,0.19805,89
0.417207,-0.108075,-0.203813,10
0.414515,-0.107005,-0.201535,12
0.417083,-0.10803,-0.201939,12
0.417092,-0.108036,-0.20104,13
0.412583,-0.106241,-0.197869,13
0.416448,-0.107783,-0.198912,15
0.419663,-0.109067,-0.199615,15
0.424158,-0.11086,-0.20094,15
0.420795,-0.109522,-0.198363,11
0.418398,-0.108569,-0.196278,15
0.416505,-0.107817,-0.194451,14
0.418996,-0.108812,-0.194769,14
0.41944,-0.108991,-0.194085,15
0.421141,-0.109671,-0.194006,17
0.422221,-0.110104,-0.193622,17
0.419382,-0.108974,-0.191359,17
0.418915,-0.108791,-0.190239,19
0.420369,-0.109372,-0.190033,18
0.421591,-0.109861,-0.189711,17
0.423014,-0.110431,-0.189479,18
0.418493,-0.108631,-0.186465,13
0.420858,-0.109576,-0.186674,19
0.4215,-0.109834,-0.186075,19
0.42166,-0.1099,-0.185253,21
0.419796,-0.109159,-0.183503,17
0.420917,-0.109608,-0.183123,19
0.42185,-0.109982,-0.182655,20
0.421334,-0.109778,-0.181528,19
0.422851,-0.110385,-0.181318,25
0.424723,-0.111133,-0.181261,20
0.421431,-0.109824,-0.178899,22
0.423825,-0.11078,-0.17907,21
0.422044,-0.110072,-0.177391,21
0.424102,-0.110895,-0.177405,23
0.423437,-0.110632,-0.176222,18
0.424088,-0.110893,-0.175614,28
0.422792,-0.110379,-0.174163,20
0.421603,-0.109907,-0.172765,22
0.421093,-0.109706,-0.171663,27
0.422751,-0.110369,-0.171486,26
0.423158,-0.110534,-0.170773,27
0.422984,-0.110466,-0.169815,33
0.42281,-0.110399,-0.168858,24
0.423266,-0.110583,-0.168165,28
0.425479,-0.111467,-0.168199,23
0.423113,-0.110526,-0.166337,29
0.42357,-0.110711,-0.165643,25
0.423058,-0.110509,-0.164554,30
0.422983,-0.110481,-0.163644,32
0.421897,-0.11005,-0.162327,32
0.422593,-0.11033,-0.161731,25
0.424261,-0.110997,-0.161521,34
0.422976,-0.110487,-0.160132,31
0.423434,-0.110671,-0.159437,35
0.424913,-0.111263,-0.159142,35
0.422613,-0.110348,-0.157366,35
0.422156,-0.110168,-0.156317,38
0.423433,-0.11068,-0.155939,40
0.422494,-0.110307,-0.154706,38
0.422567,-0.110339,-0.153864,40
0.421777,-0.110026,-0.152695,38
0.421899,-0.110076,-0.151874,43
0.422357,-0.110261,-0.151179,37
0.422527,-0.110331,-0.150376,40
0.42342,-0.110689,-0.149841,40
0.421767,-0.110032,-0.148364,43
0.421842,-0.110064,-0.147528,48
0.421393,-0.109887,-0.146502,51
0.422425,-0.110301,-0.146015,44
0.422118,-0.110181,-0.145042,45
0.421384,-0.10989,-0.143917,47
0.420937,-0.109714,-0.1429,45
0.421252,-0.109842,-0.142154,45
0.41953,-0.109157,-0.140691,39
0.417917,-0.108516,-0.139274,41
0.417855,-0.108493,-0.138404,43
0.417933,-0.108526,-0.137583,45
0.417638,-0.108411,-0.136634,41
0.417158,-0.108221,-0.135624,45
0.416031,-0.107774,-0.134398,54
0.415188,-0.107439,-0.133273,47
0.41582,-0.107694,-0.132645,50
0.416177,-0.107838,-0.131925,54
0.416258,-0.107872,-0.131111,48
0.41583,-0.107704,-0.130132,50
0.415404,-0.107536,-0.129155,50
0.416501,-0.107975,-0.128674,50
0.415337,-0.107513,-0.127462,55
0.416156,-0.107842,-0.126889,58
0.416608,-0.108024,-0.126197,61
0.416876,-0.108133,-0.125445,59
0.41645,-0.107965,-0.124476,61
0.416811,-0.108111,-0.123753,55
0.416895,-0.108147,-0.122945,60
0.418512,-0.108794,-0.122607,60
0.417248,-0.108292,-0.121385,58
0.416686,-0.108069,-0.12038,59
0.416909,-0.108161,-0.119616,65
0.417087,-0.108234,-0.118837,66
0.418241,-0.108696,-0.118348,66
0.417816,-0.108528,-0.117389,62
0.418089,-0.108639,-0.116637,66
0.417295,-0.108324,-0.115575,59
0.418078,-0.108639,-0.114971,62
0.418212,-0.108694,-0.114178,58
0.418207,-0.108695,-0.113347,66
0.418529,-0.108825,-0.112608,68
0.418525,-0.108825,-0.111777,69
0.419453,-0.109198,-0.111205,77
0.418704,-0.108901,-0.110168,72
0.418934,-0.108995,-0.109403,77
0.419538,-0.109238,-0.108738,80
0.419583,-0.109258,-0.107921,75
0.419441,-0.109203,-0.107054,84
0.420047,-0.109447,-0.106388,89
0.420374,-0.109579,-0.105645,87
0.420327,-0.109562,-0.104804,90
0.420467,-0.10962,-0.104012,90
0.422066,-0.110261,-0.103596,93
0.421078,-0.109868,-0.102513,100
0.421032,-0.109852,-0.101674,90
0.42188,-0.110192,-0.101059,96
0.421364,-0.109988,-0.100102,91
0.421742,-0.110141,-0.0993687,100
0.422973,-0.110635,-0.0988428,102
0.422361,-0.110392,-0.097865,99
0.422884,-0.110603,-0.0971635,106
0.422415,-0.110418,-0.0962235,108
0.422987,-0.110648,-0.0955322,105
0.423228,-0.110746,-0.0947616,109
0.423233,-0.11075,-0.0939355,106
0.423855,-0.111001,-0.0932521,109
0.423718,-0.110948,-0.0923934,115
0.424247,-0.111161,-0.0916864,116
0.425543,-0.11168,-0.0911497,118
0.424881,-0.111418,-0.0901729,116
0.425031,-0.11148,-0.0893784,110
0.425613,-0.111714,-0.0886777,114
0.425765,-0.111777,-0.0878823,115
0.426301,-0.111993,-0.0871691,117
0.427032,-0.112287,-0.0864953,119
0.426801,-0.112196,-0.085617,117
0.427003,-0.112279,-0.0848303,117
0.427496,-0.112478,-0.084103,113
0.427748,-0.112581,-0.0833251,114
0.427856,-0.112626,-0.0825175,120
0.428886,-0.113039,-0.081894,125
0.42885,-0.113026,-0.081056,118
0.429203,-0.113169,-0.0802947,119
0.429459,-0.113274,-0.0795138,118
0.429473,-0.113281,-0.0786856,119
0.430414,-0.113659,-0.0780339,120
0.431557,-0.114117,-0.0774165,116
0.430297,-0.113616,-0.0763489,117
0.431243,-0.113996,-0.0756918,119
0.431702,-0.114181,-0.0749427,125
0.431325,-0.114033,-0.0740423,118
0.431735,-0.114198,-0.0732834,121
0.432739,-0.114601,-0.0726275,131
0.432362,-0.114453,-0.0717283,133
0.433121,-0.114758,-0.071026,128
0.433686,-0.114985,-0.0702878,129
0.434302,-0.115233,-0.0695564,128
0.434073,-0.115144,-0.0686832,130
0.434891,-0.115472,-0.0679822,129
0.434562,-0.115343,-0.0670935,127
0.434634,-0.115374,-0.06627,132
0.436357,-0.116064,-0.0657065,132
0.435377,-0.115675,-0.0647167,137
0.43545,-0.115706,-0.0638925,136
0.436527,-0.116138,-0.0632201,137
0.436149,-0.115989,-0.0623268,140
0.436224,-0.116021,-0.0615019,140
0.436652,-0.116194,-0.0607282,137
0.436025,-0.115946,-0.0598022,140
0.436654,-0.116199,-0.0590563,136
0.438043,-0.116755,-0.0584139,133
0.43802,-0.116748,-0.0575726,135
0.437189,-0.116419,-0.0566228,141
0.437066,-0.116372,-0.0557707,138
0.437096,-0.116385,-0.0549393,136
0.437428,-0.11652,-0.0541472,136
0.437307,-0.116474,-0.0532965,136
0.437691,-0.116629,-0.0525097,140
0.437874,-0.116704,-0.0516969,139
0.438209,-0.11684,-0.0509021,141
0.437736,-0.116653,-0.0500101,140
0.437568,-0.116588,-0.0491559,138
0.437702,-0.116644,-0.0483374,142
0.437535,-0.116579,-0.0474845,148
0.43762,-0.116615,-0.0466606,146
0.437404,-0.116531,-0.0458038,150
0.437339,-0.116507,-0.0449643,153
0.438183,-0.116846,-0.0442206,148
0.437564,-0.116601,-0.0433232,150
0.437148,-0.116437,-0.0424491,151
0.436684,-0.116253,-0.0415721,156
0.436572,-0.116211,-0.0407313,161
0.436863,-0.116329,-0.0399293,159
0.436,-0.115986,-0.0390193,159
0.435641,-0.115845,-0.0381587,156
0.435532,-0.115803,-0.0373221,161
0.434728,-0.115484,-0.0364255,162
0.43462,-0.115443,-0.0355917,158
0.433376,-0.114948,-0.0346642,162
0.432926,-0.11477,-0.0338061,163
0.433907,-0.115164,-0.0330628,163
0.432521,-0.114613,-0.0321339,161
0.431732,-0.114299,-0.0312553,164
0.431533,-0.114222,-0.030423,167
0.431285,-0.114125,-0.0295883,169
0.430989,-0.114009,-0.0287515,167
0.43016,-0.113679,-0.0278803,167
0.431375,-0.114167,-0.0271451,169
0.429721,-0.113508,-0.0262249,168
0.429914,-0.113587,-0.0254238,168
0.42914,-0.11328,-0.0245652,178
0.42914,-0.113282,-0.0237538,176
0.428948,-0.113207,-0.022932,169
0.428757,-0.113133,-0.0221112,169
0.428326,-0.112962,-0.021279,169
0.42857,-0.113062,-0.0204816,169
0.427134,-0.11249,-0.0196046,172
0.42647,-0.112227,-0.0187681,177
0.426331,-0.112173,-0.0179569,171
0.425908,-0.112006,-0.0171347,175
0.425771,-0.111953,-0.0163253,173
0.425588,-0.111882,-0.0155149,182
0.425357,-0.111792,-0.0147037,176
0.424089,-0.111287,-0.0138593,174
0.423674,-0.111123,-0.0130464,169
0.423401,-0.111016,-0.0122393,173
0.423832,-0.11119,-0.0114524,171
0.422063,-0.110485,-0.0106089,176
0.421747,-0.110361,-0.00980583,179
0.420551,-0.109885,-0.00898565,175
0.420516,-0.109873,-0.00819227,177
0.419927,-0.10964,-0.00738968,181
0.420585,-0.109904,-0.00660816,179
0.419997,-0.109671,-0.00580785,180
0.418953,-0.109256,-0.00500487,177
0.418737,-0.109171,-0.00421354,177
0.417336,-0.108613,-0.00341475,181
0.417395,-0.108639,-0.00262891,176
0.418413,-0.109048,-0.00184576,176
0.417789,-0.1088,-0.00105682,176
0.417077,-0.108518,-0.00027044,174
0.418369,-0.109036,0.000518969,169
0.418432,-0.109063,0.0013075,178
0.41822,-0.10898,0.0020944,169
0.418238,-0.108989,0.00288253,169
0.41812,-0.108944,0.00366927,167
0.417956,-0.10888,0.00445499,170
0.418066,-0.108926,0.00524417,165
0.418452,-0.109082,0.00603847,170
0.418838,-0.109239,0.00683437,167
0.418813,-0.109231,0.00762329,167
0.418972,-0.109296,0.00841636,172
0.420283,-0.109822,0.00923871,172
0.420213,-0.109796,0.0100293,171
0.420375,-0.109863,0.0108264,173
0.420538,-0.10993,0.0116242,173
0.420654,-0.109978,0.0124213,172
0.420679,-0.10999,0.0132157,169
0.421214,-0.110206,0.014029,170
0.422731,-0.110814,0.0148827,165
0.423085,-0.110958,0.0156951,169
0.423394,-0.111083,0.0165071,176
0.422392,-0.110685,0.0172617,170
0.423357,-0.111072,0.0181044,169
0.423292,-0.111048,0.0189009,168
0.423744,-0.111231,0.0197235,168
0.423727,-0.111226,0.0205232,165
0.423899,-0.111296,0.0213334,170
0.424637,-0.111594,0.0221765,162
0.426472,-0.112329,0.0230872,165
0.426124,-0.112192,0.0238727,169
0.426157,-0.112207,0.0246809,167
0.426716,-0.112433,0.0255233,172
0.426941,-0.112525,0.026346,167
0.426165,-0.112216,0.0271009,165
0.42706,-0.112576,0.027971,171
0.427479,-0.112746,0.0288103,167
0.427708,-0.112839,0.0296372,161
0.428178,-0.113029,0.0304837,165
0.429374,-0.113509,0.0313895,166
0.429753,-0.113663,0.0322342,172
0.429792,-0.11368,0.0330526,166
0.430221,-0.113854,0.0339044,167
0.430505,-0.113969,0.0347455,169
0.432062,-0.114594,0.035701,165
0.432596,-0.11481,0.03657,167
0.431462,-0.114358,0.0372867,167
0.432487,-0.11477,0.0382036,170
0.432925,-0.114947,0.0390682,166
0.432724,-0.114869,0.0398715,169
0.433164,-0.115047,0.040739,167
0.433556,-0.115205,0.0416035,170
0.433554,-0.115206,0.0424285,165
0.43539,-0.115943,0.0434502,168
0.43514,-0.115845,0.0442524,163
0.43504,-0.115807,0.0450705,169
0.435889,-0.116148,0.0459956,164
0.435839,-0.116131,0.0468212,165
0.435891,-0.116153,0.0476586,166
0.436394,-0.116356,0.0485502,175
0.436496,-0.116399,0.0493958,171
0.436249,-0.116302,0.0501989,170
0.438979,-0.117397,0.0513736,171
0.437919,-0.116974,0.0520782,169
0.437469,-0.116797,0.0528575,170
0.438487,-0.117206,0.0538277,171
0.438645,-0.117271,0.0546879,173
0.438906,-0.117377,0.055563,171
0.437141,-0.116673,0.0561617,174
0.437502,-0.11682,0.0570493,172
0.437005,-0.116623,0.0578178,174
0.438685,-0.117297,0.058896,173
0.439152,-0.117486,0.0598055,176
0.437437,-0.116802,0.060396,181
0.439326,-0.11756,0.0615176,180
0.439134,-0.117485,0.0623325,177
0.438586,-0.117268,0.0630924,173
0.437382,-0.116788,0.0637486,179
0.43785,-0.116978,0.0646634,174
0.438422,-0.117208,0.0655969,178
0.437726,-0.116932,0.0663286,177
0.43683,-0.116576,0.0670252,174
0.436845,-0.116584,0.0678692,176
0.437265,-0.116754,0.0687815,178
0.436473,-0.116439,0.0694905,177
0.436439,-0.116427,0.0703267,179
0.436305,-0.116376,0.0711458,177
0.436323,-0.116385,0.0719914,186
0.436442,-0.116435,0.0728555,179
0.436259,-0.116363,0.0736662,179
0.435976,-0.116252,0.0744585,180
0.435895,-0.116222,0.0752871,183
0.435262,-0.115971,0.0760134,178
0.434382,-0.115621,0.076691,176
0.434453,-0.115651,0.077546,180
0.433925,-0.115442,0.0782869,182
0.433548,-0.115293,0.0790554,182
0.43382,-0.115404,0.0799498,182
0.433494,-0.115276,0.0807275,177
0.433417,-0.115247,0.0815543,182
0.432746,-0.11498,0.0822609,175
0.432324,-0.114813,0.0830162,174
0.432249,-0.114786,0.0838419,173
0.430597,-0.114127,0.0843394,177
0.430475,-0.11408,0.0851521,173
0.430108,-0.113935,0.0859129,171
0.429498,-0.113693,0.0866205,171
0.429768,-0.113803,0.0875167,164
0.43004,-0.113914,0.0884148,167
0.429529,-0.113711,0.0891418,163
0.429899,-0.113862,0.0900635,164
0.429633,-0.113757,0.0908443,161
0.429956,-0.113888,0.0917579,157
0.429642,-0.113765,0.0925278,167
0.430064,-0.113936,0.0934667,167
0.4298,-0.113832,0.0942481,163
0.430371,-0.114063,0.0952252,160
0.430501,-0.114117,0.0961006,161
0.430139,-0.113974,0.0968595,157
0.430762,-0.114225,0.097855,159
0.430598,-0.114162,0.0986621,159
0.430927,-0.114296,0.0995902,157
0.43106,-0.114351,0.100472,160
0.430848,-0.114268,0.101268,160
0.431229,-0.114423,0.102213,156
0.433104,-0.115175,0.10354,155
0.431498,-0.114535,0.103984,156
0.431734,-0.114631,0.104898,154
0.43192,-0.114707,0.1058,160
0.432705,-0.115024,0.10686,157
0.432643,-0.115001,0.1077,156
0.433182,-0.115219,0.108701,156
0.432423,-0.114917,0.109356,153
0.433362,-0.115295,0.110468,154
0.433353,-0.115294,0.111326,148
0.433445,-0.115332,0.112212,154
0.43424,-0.115653,0.113294,153
0.434636,-0.115813,0.114269,154
0.434477,-0.115752,0.11509,151
0.434521,-0.115772,0.115968,150
0.43502,-0.115974,0.116977,151
0.435369,-0.116115,0.117946,152
0.436431,-0.116543,0.119123,147
0.436681,-0.116645,0.120068,149
0.436168,-0.116442,0.120791,150
0.436419,-0.116544,0.121739,147
0.436518,-0.116586,0.122643,152
0.436975,-0.116771,0.123655,151
0.437178,-0.116855,0.124594,148
0.437228,-0.116877,0.125487,151
0.436868,-0.116735,0.126256,148
0.437739,-0.117086,0.127403,148
0.438151,-0.117253,0.128412,151
0.437688,-0.11707,0.129151,155
0.438307,-0.11732,0.130228,152
0.438206,-0.117281,0.13108,152
0.437744,-0.117098,0.131818,150
0.438262,-0.117308,0.132869,146
0.438419,-0.117373,0.133807,149
0.437597,-0.117046,0.134427,154
0.437292,-0.116926,0.135214,152
0.437399,-0.116971,0.136136,153
0.43653,-0.116625,0.136735,154
0.436791,-0.116732,0.137709,156
0.436642,-0.116674,0.138547,157
0.436494,-0.116617,0.139385,157
0.436346,-0.11656,0.140223,160
0.435789,-0.116339,0.140921,165
0.435539,-0.116241,0.141724,159
0.434883,-0.115981,0.142385,153
0.434992,-0.116026,0.143311,155
0.433627,-0.115482,0.143722,159
0.43333,-0.115365,0.144504,157
0.432883,-0.115188,0.145232,157
0.433093,-0.115274,0.146194,157
0.432495,-0.115037,0.146867,156
0.432,-0.114841,0.147576,152
0.431455,-0.114625,0.148265,157
0.431967,-0.114832,0.149339,156
0.432078,-0.114879,0.150268,157
0.431232,-0.114542,0.150845,155
0.430741,-0.114348,0.15155,153
0.430451,-0.114233,0.15233,153
0.430361,-0.1142,0.153185,156
0.429922,-0.114026,0.153908,158
0.429983,-0.114053,0.15482,163
0.429895,-0.114019,0.155675,160
0.429408,-0.113826,0.156378,160
0.428673,-0.113534,0.156984,157
0.428139,-0.113322,0.157665,154
0.427409,-0.113032,0.158268,156
0.427174,-0.11294,0.159063,154
0.427088,-0.112908,0.159918,151
0.426214,-0.11256,0.160459,154
0.425441,-0.112253,0.161037,143
0.425357,-0.112221,0.16189,147
0.425615,-0.112326,0.162882,149
0.425041,-0.112099,0.163538,151
0.42481,-0.112008,0.164332,151
0.423799,-0.111605,0.164805,152
0.423376,-0.111438,0.165517,140
0.423098,-0.111329,0.16629,135
0.424331,-0.111825,0.167692,130
0.423322,-0.111423,0.168159,126
0.424557,-0.11192,0.169571,122
0.423987,-0.111694,0.170222,123
0.423759,-0.111604,0.171017,119
0.424215,-0.111789,0.172106,122
0.424477,-0.111896,0.173114,114
0.424494,-0.111906,0.174018,109
0.425544,-0.112329,0.175372,110
0.425415,-0.112279,0.176216,110
0.424548,-0.111934,0.176736,111
0.425354,-0.112259,0.177993,113
0.424586,-0.111953,0.178554,111
0.425542,-0.112338,0.179883,109
0.425858,-0.112468,0.18093,104
0.426176,-0.112597,0.181979,110
0.426545,-0.112747,0.183054,108
0.426616,-0.112778,0.183997,110
0.426688,-0.112809,0.18494,94
0.427059,-0.11296,0.186023,104
0.426882,-0.112891,0.186855,97
0.427504,-0.113143,0.188058,99
0.427578,-0.113175,0.189009,106
0.428505,-0.113548,0.190361,105
0.429589,-0.113985,0.191793,109
0.428908,-0.113714,0.192394,101
0.429237,-0.113848,0.193474,99
0.429415,-0.113922,0.194484,95
0.429847,-0.114097,0.195617,130
0.429317,-0.113887,0.19629,94
0.430054,-0.114185,0.197575,95
0.430184,-0.114239,0.198569,91
0.416917,-0.111581,-0.204107,12
0.418891,-0.112388,-0.20421,11
0.416079,-0.111244,-0.201867,15
0.416089,-0.11125,-0.200968,15
0.418198,-0.112112,-0.20113,10
0.41521,-0.110897,-0.198722,11
0.418938,-0.112418,-0.199687,15
0.416511,-0.111431,-0.197573,13
0.418047,-0.11206,-0.197434,17
0.416676,-0.111503,-0.195855,15
0.421543,-0.113489,-0.197347,15
0.418033,-0.112061,-0.194723,18
0.418763,-0.11236,-0.194178,17
0.418823,-0.112387,-0.193306,19
0.419459,-0.112648,-0.192713,18
0.420677,-0.113147,-0.192397,16
0.418813,-0.112389,-0.190604,16
0.420364,-0.113024,-0.190445,16
0.420281,-0.112992,-0.189505,16
0.42355,-0.114327,-0.190146,19
0.420259,-0.112988,-0.187699,13
0.417784,-0.111981,-0.185647,16
0.419854,-0.112827,-0.185718,15
0.42088,-0.113247,-0.185297,19
0.420557,-0.113118,-0.184253,17
0.420717,-0.113185,-0.183432,21
0.421263,-0.11341,-0.182786,24
0.418496,-0.112284,-0.180639,25
0.420138,-0.112956,-0.180492,19
0.420972,-0.113298,-0.179976,15
0.420748,-0.113209,-0.178985,21
0.421198,-0.113394,-0.178295,22
0.422667,-0.113995,-0.178054,27
0.419983,-0.112903,-0.175982,25
0.420912,-0.113284,-0.175503,22
0.420594,-0.113157,-0.174477,26
0.423708,-0.114429,-0.174941,24
0.421786,-0.113647,-0.173221,24
0.422869,-0.114091,-0.172799,29
0.42192,-0.113706,-0.171507,27
0.422132,-0.113795,-0.170712,29
0.424679,-0.114835,-0.170902,24
0.422074,-0.113775,-0.168919,29
0.421468,-0.11353,-0.167782,29
0.422066,-0.113776,-0.16715,29
0.422666,-0.114023,-0.166517,30
0.424143,-0.114628,-0.166242,29
0.421599,-0.113592,-0.164317,32
0.424234,-0.114669,-0.164511,31
0.421787,-0.113673,-0.162638,35
0.423257,-0.114275,-0.162352,37
0.422651,-0.11403,-0.16123,32
0.421327,-0.113492,-0.159826,33
0.422215,-0.113856,-0.159304,33
0.421997,-0.11377,-0.158343,34
0.42231,-0.113899,-0.157592,30
0.421326,-0.1135,-0.156335,37
0.421398,-0.113532,-0.155492,35
0.421902,-0.113739,-0.154816,40
0.422552,-0.114007,-0.154195,40
