ply
format ascii 1.0
comment VCGLIB generated
element vertex 946
property float x
property float y
property float z
property float nx
property float ny
property float nz
property uchar red
property uchar green
property uchar blue
property uchar alpha
element face 0
property list uchar int vertex_indices
end_header
0.2794605 2.813603 2.951449 0 0 0 117 103 92 255 
-2.411611 1.199653 3.864928 0 0 0 205 197 194 255 
0.9042426 3.669344 1.78337 0 0 0 141 127 116 255 
1.684004 3.054333 2.28066 0 0 0 116 99 83 255 
-1.444065 0.1892333 4.987173 0 0 0 163 159 150 255 
-2.388162 1.12559 3.956992 0 0 0 209 204 200 255 
-1.94648 3.50576 1.98148 0 0 0 143 140 135 255 
-1.681007 3.894049 1.516161 0 0 0 193 186 180 255 
0.08618678 1.297736 3.985953 0 0 0 182 172 163 255 
-1.682014 3.58475 1.948 0 0 0 140 139 135 255 
-1.62334 3.610229 1.901817 0 0 0 138 137 133 255 
-1.634921 3.603987 1.924874 0 0 0 82 81 77 255 
-1.518628 3.622874 1.858686 0 0 0 200 195 191 255 
0.771843 2.971817 2.651809 0 0 0 176 164 152 255 
1.646884 3.044871 2.312973 0 0 0 114 92 78 255 
0.2507539 1.52343 3.942278 0 0 0 164 155 148 255 
1.041513 -0.9996465 5.318275 0 0 0 170 153 143 255 
-1.464997 3.568083 1.952547 0 0 0 172 171 169 255 
-0.375628 1.081288 4.12637 0 0 0 179 167 158 255 
-1.830075 0.582059 4.515556 0 0 0 110 105 101 255 
-1.251767 3.557645 1.922124 0 0 0 164 161 156 255 
-1.165296 0.7710214 4.402842 0 0 0 128 119 112 255 
0.2597286 2.777484 3.042381 0 0 0 157 143 130 255 
0.9745216 2.007841 3.656875 0 0 0 116 102 89 255 
-1.640949 1.232768 3.891025 0 0 0 209 201 198 255 
-1.578544 1.398613 3.803524 0 0 0 155 147 145 255 
-1.413684 0.8266631 4.125432 0 0 0 143 128 121 255 
-1.016631 3.43944 2.049161 0 0 0 170 169 167 255 
-1.478848 1.426226 3.786264 0 0 0 111 106 103 255 
0.9302324 1.485242 3.920959 0 0 0 207 200 192 255 
0.1202416 1.326107 3.976986 0 0 0 123 113 104 255 
-1.362875 1.51198 3.702954 0 0 0 150 139 135 255 
-1.626693 0.5621262 4.578454 0 0 0 206 196 194 255 
-1.45892 0.53185 4.515369 0 0 0 156 151 147 255 
-0.317441 1.44933 3.898646 0 0 0 145 137 134 255 
-0.5544139 1.390873 3.94037 0 0 0 189 181 178 255 
-1.289793 0.742342 4.315829 0 0 0 147 134 125 255 
-1.167711 1.533885 3.719383 0 0 0 197 188 181 255 
0.4265483 2.774808 3.165257 0 0 0 177 161 148 255 
-1.11571 0.9651524 4.0665 0 0 0 147 139 136 255 
0.6672859 2.987258 2.492549 0 0 0 178 168 156 255 
-0.7501714 2.960237 2.487138 0 0 0 145 138 133 255 
-1.263857 0.7167571 4.373144 0 0 0 200 191 182 255 
0.9663416 1.010197 4.040019 0 0 0 180 173 167 255 
0.973488 2.969139 2.609988 0 0 0 164 151 142 255 
-1.14671 0.8231245 4.256634 0 0 0 184 174 165 255 
1.453973 2.914335 2.521227 0 0 0 193 180 168 255 
0.3103966 2.864479 2.816375 0 0 0 161 148 139 255 
1.235303 3.481215 2.005811 0 0 0 154 144 134 255 
-0.9421017 1.505115 3.797983 0 0 0 144 137 131 255 
-0.002025939 1.944612 3.708574 0 0 0 159 149 140 255 
-0.3616182 3.442418 2.092538 0 0 0 188 187 185 255 
-1.394919 2.214381 3.166337 0 0 0 0 0 0 255 
0.3349034 2.025383 3.837949 0 0 0 113 103 93 255 
-0.1632981 3.677493 1.778094 0 0 0 152 145 137 255 
1.559005 0.6361696 4.342597 0 0 0 130 120 110 255 
-0.05651035 3.700165 1.697612 0 0 0 163 156 150 255 
0.8952532 2.92474 2.693918 0 0 0 151 141 132 255 
-0.8525695 1.522315 3.814521 0 0 0 110 105 101 255 
-0.1349502 3.546949 1.922245 0 0 0 155 145 135 255 
1.300514 3.573331 1.8491 0 0 0 148 136 122 255 
0.5984067 2.832944 3.085702 0 0 0 175 161 150 255 
1.075739 3.013017 2.391806 0 0 0 152 140 128 255 
1.565012 3.039992 2.264219 0 0 0 166 149 133 255 
-0.6384143 1.695621 3.561054 0 0 0 155 146 141 255 
-0.6081318 3.427326 2.05976 0 0 0 165 163 164 255 
1.311861 3.597475 1.805519 0 0 0 178 164 153 255 
-1.68622 2.914901 2.506124 0 0 0 166 162 159 255 
-0.6676502 0.9565636 4.095679 0 0 0 196 191 188 255 
0.8535906 2.718849 3.354569 0 0 0 153 140 128 255 
-0.3437589 2.845346 2.673521 0 0 0 151 146 142 255 
-0.6532983 1.293366 3.961539 0 0 0 142 133 126 255 
1.465093 2.994077 2.393531 0 0 0 178 165 149 255 
1.00562 3.63612 1.864035 0 0 0 182 170 159 255 
-0.0850555 2.896585 2.603664 0 0 0 196 189 183 255 
1.812909 -0.3518474 4.869801 0 0 0 122 109 101 255 
-0.609166 0.7788519 4.371584 0 0 0 139 131 128 255 
-0.4066721 0.8454744 4.220268 0 0 0 127 118 111 255 
0.7627347 1.719489 3.868648 0 0 0 162 155 149 255 
0.3864981 1.128977 4.078373 0 0 0 203 194 187 255 
-0.3189167 1.892609 3.582867 0 0 0 113 100 91 255 
-0.3247673 1.473848 3.831786 0 0 0 150 146 143 255 
0.8765514 0.8835945 4.088446 0 0 0 199 192 186 255 
0.169663 2.974133 2.471813 0 0 0 142 134 131 255 
0.5142278 3.632957 1.761237 0 0 0 153 141 127 255 
-0.2937085 1.52795 3.81621 0 0 0 147 140 134 255 
-0.28094 1.978471 3.557548 0 0 0 126 115 109 255 
-0.2635919 1.969154 3.572369 0 0 0 110 104 95 255 
-0.2700243 1.485986 3.858384 0 0 0 97 92 88 255 
-0.2124298 1.080499 4.078992 0 0 0 163 155 152 255 
0.5540695 3.611365 1.843284 0 0 0 141 125 112 255 
0.08732294 2.817444 2.791342 0 0 0 149 135 122 255 
0.3249143 3.139515 2.356408 0 0 0 125 112 103 255 
-0.3379436 0.5390499 4.52002 0 0 0 182 175 169 255 
0.8605366 2.010679 3.596972 0 0 0 147 135 123 255 
0.6300398 3.623839 1.782308 0 0 0 176 164 152 255 
0.8520936 0.8688096 4.112334 0 0 0 205 200 196 255 
1.438732 2.996967 2.372078 0 0 0 132 114 100 255 
0.8361387 2.97474 2.589742 0 0 0 146 136 124 255 
2.65081 1.615712 3.528712 0 0 0 175 156 149 255 
2.898029 2.24119 2.99269 0 0 0 132 115 99 255 
2.972893 2.338825 2.859298 0 0 0 128 110 96 255 
0.7395849 1.734996 3.856075 0 0 0 163 154 147 255 
1.379907 2.963412 2.443106 0 0 0 134 120 107 255 
0.7404522 1.567868 3.906367 0 0 0 161 154 146 255 
2.616319 0.8463894 4.296072 0 0 0 141 137 128 255 
3.185972 2.07919 3.155997 0 0 0 100 84 71 255 
2.666706 1.630228 3.515142 0 0 0 157 139 125 255 
2.626003 1.579431 3.57938 0 0 0 143 127 114 255 
2.859321 2.289104 2.94182 0 0 0 106 87 72 255 
3.464823 1.979767 3.363049 0 0 0 115 99 89 255 
0.7161122 1.895428 3.768122 0 0 0 194 191 186 255 
0.4496695 -0.7694422 5.10918 0 0 0 181 171 162 255 
3.055346 0.9505802 4.380866 0 0 0 116 103 94 255 
-0.1141679 1.558342 3.82138 0 0 0 172 163 156 255 
1.333823 2.977254 2.444517 0 0 0 119 106 90 255 
-1.689539 1.60039 3.41214 0 0 0 155 150 146 255 
1.141825 2.842059 2.734903 0 0 0 163 153 144 255 
-0.4348756 0.6007116 4.338661 0 0 0 186 179 171 255 
0.7658275 1.985963 3.619521 0 0 0 190 183 177 255 
0.7214347 2.748687 3.32226 0 0 0 185 174 168 255 
1.544827 2.201178 3.309429 0 0 0 112 93 79 255 
1.116632 2.820007 2.751516 0 0 0 160 151 144 255 
-0.308385 3.714556 1.72877 0 0 0 189 188 184 255 
1.318689 3.005744 2.385169 0 0 0 181 169 157 255 
-1.231149 0.7479611 4.341859 0 0 0 155 146 139 255 
1.610675 -0.4151938 5.079636 0 0 0 164 151 143 255 
0.6311568 1.568467 3.924901 0 0 0 172 163 156 255 
0.628953 1.531995 3.923008 0 0 0 173 164 157 255 
-0.0378424 1.521271 3.851202 0 0 0 185 174 168 255 
0.7808214 3.664326 1.807616 0 0 0 170 158 146 255 
0.3099594 2.870685 2.799616 0 0 0 137 124 115 255 
0.6458519 2.780921 3.245118 0 0 0 135 119 106 255 
-1.643938 3.068433 2.203692 0 0 0 172 167 164 255 
1.588984 2.942928 2.512129 0 0 0 167 156 144 255 
1.76911 3.090248 2.207542 0 0 0 164 146 132 255 
1.093657 0.4198341 4.289546 0 0 0 135 125 115 255 
1.095875 0.9147917 4.092334 0 0 0 195 191 182 255 
1.136067 0.9864423 4.025424 0 0 0 167 158 149 255 
1.127609 0.8940153 4.121266 0 0 0 207 198 191 255 
1.968325 3.138269 2.02138 0 0 0 147 133 120 255 
2.024335 1.238037 3.919258 0 0 0 171 162 153 255 
1.865631 1.413541 3.80894 0 0 0 104 100 97 255 
2.669141 3.119532 2.113102 0 0 0 177 159 145 255 
1.910316 3.088156 2.196347 0 0 0 130 114 99 255 
-2.399385 1.194671 3.858763 0 0 0 205 197 194 255 
-1.617013 3.605937 1.900824 0 0 0 138 137 133 255 
-1.633793 3.603976 1.92442 0 0 0 82 81 77 255 
-1.187946 1.746651 3.367242 0 0 0 171 166 162 255 
-1.431374 1.167183 3.928736 0 0 0 209 201 198 255 
-1.626693 0.5621262 4.578454 0 0 0 206 196 194 255 
-0.7502861 2.960244 2.487071 0 0 0 145 138 133 255 
-1.190941 0.6823903 4.461646 0 0 0 165 157 154 255 
-0.4486858 3.06583 2.301702 0 0 0 156 151 147 255 
-0.654626 0.6068381 4.476286 0 0 0 190 183 177 255 
-0.2796394 1.49329 3.868828 0 0 0 97 92 88 255 
0.552891 3.613122 1.844085 0 0 0 141 125 112 255 
0.3276085 3.135398 2.354909 0 0 0 125 112 103 255 
-0.3379436 0.5390499 4.52002 0 0 0 182 175 169 255 
0.8705117 3.71547 1.683211 0 0 0 135 121 112 255 
0.8705117 3.71547 1.683211 0 0 0 135 121 112 255 
0.2794392 2.813619 2.951313 0 0 0 117 103 92 255 
1.82753 3.004739 2.41362 0 0 0 140 123 113 255 
0.5503165 2.937191 2.703746 0 0 0 146 133 124 255 
0.5503165 2.937191 2.703746 0 0 0 146 133 124 255 
0.8952259 2.924336 2.69349 0 0 0 151 141 132 255 
1.813325 2.989175 2.448961 0 0 0 170 162 150 255 
0.7214347 2.748687 3.32226 0 0 0 185 174 168 255 
-0.891139 1.372737 3.891278 0 0 0 163 156 150 255 
1.141825 2.842059 2.734903 0 0 0 163 153 144 255 
0.7309173 2.722092 3.362004 0 0 0 155 146 137 255 
0.7404951 2.708253 3.35147 0 0 0 155 146 137 255 
1.333823 2.977254 2.444517 0 0 0 119 106 90 255 
1.376644 2.967986 2.445435 0 0 0 134 120 107 255 
1.438732 2.996967 2.372078 0 0 0 132 114 100 255 
0.8605366 2.010679 3.596972 0 0 0 147 135 123 255 
1.465093 2.994077 2.393531 0 0 0 178 165 149 255 
1.565012 3.039992 2.264219 0 0 0 166 149 133 255 
1.334222 1.230584 3.854481 0 0 0 196 189 181 255 
0.9207585 2.025241 3.636375 0 0 0 78 64 53 255 
1.652248 3.027839 2.34313 0 0 0 202 189 173 255 
1.76911 3.090248 2.207542 0 0 0 164 146 132 255 
1.791778 3.076413 2.284673 0 0 0 173 157 142 255 
1.229976 2.204994 3.521286 0 0 0 124 106 92 255 
2.143519 3.065149 2.185157 0 0 0 183 176 162 255 
1.320093 0.436427 4.424943 0 0 0 171 161 152 255 
1.568438 1.529452 3.788891 0 0 0 112 94 81 255 
2.117625 2.545234 2.584093 0 0 0 196 183 174 255 
1.697889 1.521477 3.805742 0 0 0 167 158 151 255 
1.732317 1.559121 3.747068 0 0 0 126 117 108 255 
1.765276 1.452821 3.736291 0 0 0 127 120 110 255 
1.58187 0.515161 4.414536 0 0 0 167 156 150 255 
2.384275 2.31906 2.833255 0 0 0 110 94 81 255 
-1.308744 0.7105464 4.350367 0 0 0 164 155 146 255 
3.152277 3.176951 2.060778 0 0 0 98 80 66 255 
2.284994 0.745656 4.23848 0 0 0 142 128 117 255 
3.262433 2.71378 2.510759 0 0 0 111 92 77 255 
3.76887 2.753422 2.647504 0 0 0 159 144 125 255 
2.039608 3.07444 2.164961 0 0 0 138 122 109 255 
1.322483 0.4354682 4.421288 0 0 0 171 161 152 255 
2.389118 3.348969 1.748633 0 0 0 161 149 137 255 
1.721191 2.131974 3.301158 0 0 0 133 121 109 255 
1.378842 0.391167 4.445583 0 0 0 157 143 134 255 
1.427178 0.7117187 4.269216 0 0 0 162 151 139 255 
2.269307 3.072984 2.133971 0 0 0 162 145 129 255 
1.415945 0.5748066 4.365295 0 0 0 184 177 167 255 
1.498208 0.8187566 4.159536 0 0 0 130 121 112 255 
1.602717 1.114743 3.897282 0 0 0 131 117 106 255 
1.816984 2.033195 3.317621 0 0 0 80 67 58 255 
1.626228 1.456026 3.820433 0 0 0 175 163 151 255 
1.615885 0.8630478 4.115877 0 0 0 161 149 135 255 
2.084867 2.265479 2.904192 0 0 0 138 122 107 255 
0.8742623 0.3099868 4.387489 0 0 0 187 179 176 255 
1.569908 0.7656298 4.242321 0 0 0 175 167 156 255 
3.046794 0.8798852 4.117685 0 0 0 165 155 146 255 
2.43797 3.07974 2.119315 0 0 0 155 136 121 255 
1.608424 0.7435926 4.251716 0 0 0 122 108 93 255 
1.571576 0.623226 4.397355 0 0 0 142 129 120 255 
2.625685 3.224931 1.825763 0 0 0 163 147 134 255 
1.996332 2.019919 3.279596 0 0 0 154 142 130 255 
1.585595 0.5656287 4.406969 0 0 0 156 146 137 255 
1.62526 0.7066938 4.309728 0 0 0 141 128 119 255 
1.861439 1.503858 3.71991 0 0 0 189 181 174 255 
1.636256 0.4287608 4.47727 0 0 0 116 103 95 255 
2.279877 2.300827 2.856926 0 0 0 144 128 114 255 
1.710033 0.7802517 4.284482 0 0 0 125 116 107 255 
2.383835 2.353096 2.713616 0 0 0 172 156 143 255 
1.905277 1.401322 3.82055 0 0 0 88 84 83 255 
1.865584 1.162852 3.950624 0 0 0 99 85 76 255 
1.930056 1.334199 3.853349 0 0 0 255 249 244 255 
2.38433 2.318783 2.833216 0 0 0 110 94 81 255 
1.986467 1.372995 3.818913 0 0 0 177 170 161 255 
1.84148 0.8883128 4.207834 0 0 0 157 152 148 255 
1.559005 0.6361696 4.342597 0 0 0 130 120 110 255 
2.038658 1.337355 3.840606 0 0 0 155 142 132 255 
1.909656 0.9959507 4.161584 0 0 0 112 99 90 255 
-1.494661 1.387116 3.809831 0 0 0 109 104 100 255 
1.960311 1.042012 4.12701 0 0 0 168 160 149 255 
2.534926 2.32453 2.80998 0 0 0 145 129 116 255 
1.994211 0.5665437 4.297702 0 0 0 117 107 98 255 
2.275758 1.561561 3.623104 0 0 0 160 142 130 255 
2.318159 1.568624 3.60285 0 0 0 104 88 75 255 
2.401901 1.582878 3.538305 0 0 0 124 107 95 255 
2.123529 0.6106753 4.296314 0 0 0 170 158 146 255 
2.385578 1.516816 3.668176 0 0 0 162 153 146 255 
2.357645 1.02979 3.921804 0 0 0 140 130 121 255 
3.128741 3.147288 2.072212 0 0 0 152 134 120 255 
2.466611 1.497302 3.698642 0 0 0 137 128 121 255 
2.484222 1.497323 3.700456 0 0 0 176 167 158 255 
2.228295 0.632085 4.368935 0 0 0 159 147 140 255 
2.706836 1.72388 3.329406 0 0 0 122 104 90 255 
3.16152 3.082837 2.191517 0 0 0 161 143 129 255 
-1.517865 1.373324 3.817356 0 0 0 192 184 182 255 
-0.802281 1.73474 3.46877 0 0 0 117 110 104 255 
1.89073 0.9542145 4.17948 0 0 0 171 164 158 255 
1.850973 1.084534 3.991727 0 0 0 99 93 87 255 
1.685196 3.049572 2.304969 0 0 0 116 99 82 255 
2.78768 0.8788635 4.201667 0 0 0 162 158 149 255 
3.404016 3.205592 2.210776 0 0 0 151 132 117 255 
-0.1581121 -0.3200687 5.146698 0 0 0 188 178 169 255 
1.586883 2.901939 2.539643 0 0 0 161 149 137 255 
2.680358 0.8543544 4.297979 0 0 0 159 152 142 255 
-0.3964467 -0.01063548 4.712044 0 0 0 180 169 167 255 
2.717466 1.68106 3.441156 0 0 0 144 128 115 255 
2.601847 1.067329 3.922245 0 0 0 149 136 127 255 
2.361094 0.6368272 4.394293 0 0 0 112 104 93 255 
2.586861 0.8373938 4.284939 0 0 0 110 103 97 255 
2.624689 0.8714899 4.266284 0 0 0 88 81 71 255 
0.5587526 3.217393 2.175031 0 0 0 159 150 143 255 
1.768336 3.080915 2.229379 0 0 0 133 115 101 255 
3.456237 3.156122 2.175975 0 0 0 108 89 74 255 
0.3410809 0.4469817 4.412951 0 0 0 197 189 187 255 
-0.1162043 0.4842712 4.562556 0 0 0 169 164 160 255 
2.452902 0.7378709 4.342579 0 0 0 102 95 87 255 
0.8362322 1.119954 4.207704 0 0 0 164 163 159 255 
3.33425 2.751382 2.488859 0 0 0 115 96 81 255 
0.1584872 3.83995 1.420215 0 0 0 163 158 155 255 
1.590285 1.576912 3.743088 0 0 0 172 156 140 255 
1.969027 1.491534 3.705311 0 0 0 145 133 121 255 
3.505177 1.952697 3.30495 0 0 0 125 112 102 255 
1.20051 3.82593 1.564186 0 0 0 155 145 138 255 
0.6425468 0.3539036 4.277292 0 0 0 202 198 195 255 
3.24213 2.92663 2.28363 0 0 0 168 152 136 255 
2.733693 2.040645 3.058762 0 0 0 159 144 130 255 
3.92847 1.422842 3.778246 0 0 0 167 159 148 255 
-0.7927171 3.277278 2.125362 0 0 0 199 196 191 255 
2.742525 1.615329 3.372044 0 0 0 137 119 105 255 
3.055341 1.082662 4.000798 0 0 0 178 171 163 255 
-0.193104 1.217534 4.036799 0 0 0 162 150 150 255 
2.561852 0.8073118 4.317262 0 0 0 72 67 61 255 
-2.062995 3.504505 1.869419 0 0 0 152 144 133 255 
-0.7927171 3.277278 2.125362 0 0 0 199 196 191 255 
-1.03803 0.03006615 4.912475 0 0 0 192 180 180 255 
2.561852 0.8073118 4.317262 0 0 0 72 67 61 255 
2.742525 1.615329 3.372044 0 0 0 137 119 105 255 
-2.062995 3.504505 1.869419 0 0 0 152 144 133 255 
3.70971 2.197367 2.853226 0 0 0 110 94 79 255 
3.47591 0.9731146 3.817953 0 0 0 142 125 109 255 
2.868068 2.546346 2.53404 0 0 0 164 148 133 255 
3.443333 1.526173 3.513245 0 0 0 160 148 136 255 
3.516018 1.905457 3.336409 0 0 0 103 94 87 255 
-1.298107 0.4456937 4.529603 0 0 0 199 195 192 255 
2.720481 0.9423853 3.96137 0 0 0 121 111 102 255 
-1.298107 0.4456937 4.529603 0 0 0 199 195 192 255 
1.63043 0.9281972 4.25034 0 0 0 118 101 85 255 
1.804762 1.570218 3.669632 0 0 0 187 180 170 255 
1.947359 1.115827 3.943663 0 0 0 109 100 91 255 
3.443235 1.525923 3.513237 0 0 0 160 148 136 255 
-1.692785 3.320301 2.101004 0 0 0 197 192 188 255 
-0.982744 0.121623 4.710004 0 0 0 197 196 194 255 
-0.2084749 3.533508 1.821936 0 0 0 165 151 138 255 
-0.3358395 3.001115 2.620786 0 0 0 188 183 179 255 
0.7271287 0.1073998 4.481266 0 0 0 207 203 200 255 
1.723912 0.8660131 4.129451 0 0 0 118 101 85 255 
1.947359 1.115827 3.943663 0 0 0 109 100 91 255 
-0.8725628 3.458889 1.861181 0 0 0 201 197 196 255 
1.385032 2.275983 3.380328 0 0 0 154 136 122 255 
3.763791 1.533034 3.527893 0 0 0 116 102 91 255 
1.261405 1.908649 3.579134 0 0 0 193 186 180 255 
-0.9867618 2.922297 2.404056 0 0 0 202 197 193 255 
0.7526209 1.887412 3.577766 0 0 0 193 192 188 255 
1.025758 0.4153795 4.250705 0 0 0 160 151 144 255 
-0.7772714 0.09252942 4.865983 0 0 0 200 196 195 255 
1.544358 0.5698424 4.425341 0 0 0 146 133 124 255 
2.218326 1.473415 3.633711 0 0 0 139 126 109 255 
3.185055 1.632698 3.344841 0 0 0 169 160 151 255 
3.616116 1.458133 3.639697 0 0 0 119 106 97 255 
4.128888 1.729598 3.290592 0 0 0 145 131 118 255 
0.257727 0.8191349 4.244338 0 0 0 160 155 155 255 
2.210568 1.51001 3.378044 0 0 0 182 173 166 255 
3.353954 1.006463 3.844468 0 0 0 172 162 153 255 
3.918766 0.7449987 4.073351 0 0 0 131 127 116 255 
-0.7999933 2.907153 2.56463 0 0 0 145 141 138 255 
3.353954 1.006463 3.844468 0 0 0 172 162 153 255 
2.98608 0.7360533 4.273458 0 0 0 178 171 163 255 
1.895359 1.00695 4.118786 0 0 0 127 108 101 255 
-0.3861069 3.383069 2.091198 0 0 0 166 161 155 255 
-1.075988 2.950853 2.498916 0 0 0 201 196 192 255 
1.668125 0.4013426 4.550594 0 0 0 166 155 149 255 
2.680209 3.279073 1.790806 0 0 0 135 116 102 255 
3.786479 2.128138 2.915261 0 0 0 102 86 73 255 
3.8557 0.7564107 4.018312 0 0 0 139 130 115 255 
0.2499523 2.857299 2.794642 0 0 0 146 132 123 255 
2.922898 2.239028 2.95393 0 0 0 120 104 91 255 
0.3887671 3.113622 2.33816 0 0 0 177 168 159 255 
-0.2207796 2.764092 2.811071 0 0 0 173 160 151 255 
0.8812891 0.2607752 4.386548 0 0 0 176 168 165 255 
2.225789 1.547535 3.493345 0 0 0 153 136 120 255 
3.513112 1.693249 3.439425 0 0 0 156 148 137 255 
1.476733 0.8564668 4.119826 0 0 0 167 155 143 255 
-1.019719 3.619431 1.747666 0 0 0 175 170 166 255 
-1.736494 1.604925 3.425785 0 0 0 177 171 168 255 
2.640125 0.7572805 4.338764 0 0 0 94 89 83 255 
2.640125 0.7572805 4.338764 0 0 0 94 89 83 255 
0.8116817 0.2477636 4.410053 0 0 0 158 148 145 255 
2.523945 0.7234963 4.354564 0 0 0 139 130 123 255 
0.8899431 0.3697372 4.419617 0 0 0 129 115 106 255 
-1.093534 2.101257 3.198187 0 0 0 0 0 0 255 
1.583094 0.6717013 4.143379 0 0 0 103 97 85 255 
-1.019719 3.619431 1.747666 0 0 0 175 170 166 255 
-0.7515583 1.573759 3.77434 0 0 0 189 183 181 255 
-1.014625 1.031054 4.025905 0 0 0 192 188 187 255 
4.07811 1.181923 3.663062 0 0 0 145 132 116 255 
4.043736 1.158815 3.726802 0 0 0 138 126 112 255 
4.045522 1.158692 3.650036 0 0 0 120 111 100 255 
3.930206 1.82135 3.29438 0 0 0 130 116 105 255 
-1.222574 0.876412 4.06566 0 0 0 186 178 176 255 
3.794458 0.7114485 3.946558 0 0 0 124 105 91 255 
1.53578 0.4860241 4.421495 0 0 0 154 139 127 255 
1.616377 2.132604 3.356411 0 0 0 114 100 89 255 
-0.5930109 1.333983 3.963197 0 0 0 104 100 97 255 
-0.9501699 2.857041 2.526911 0 0 0 198 194 191 255 
-0.6066002 1.713879 3.529086 0 0 0 174 161 153 255 
-0.161851 1.851331 3.58496 0 0 0 135 125 116 255 
0.8041038 -0.5767863 5.019621 0 0 0 169 157 145 255 
1.187329 0.3230889 4.428064 0 0 0 129 119 110 255 
1.83986 0.951489 4.180097 0 0 0 170 162 151 255 
3.607463 1.168482 3.839409 0 0 0 115 98 82 255 
0.3268394 2.402522 3.543723 0 0 0 139 93 130 255 
3.885574 1.442645 3.628232 0 0 0 134 118 105 255 
3.906299 1.044163 3.763553 0 0 0 156 144 130 255 
-0.6092758 1.715084 3.530191 0 0 0 174 161 153 255 
1.781139 0.4862027 4.436259 0 0 0 161 151 141 255 
3.23349 1.585622 3.51916 0 0 0 125 112 96 255 
-0.3494224 0.8023986 4.358267 0 0 0 196 189 181 255 
3.33421 0.9994087 3.958411 0 0 0 169 156 147 255 
3.509404 1.275464 3.655085 0 0 0 126 112 99 255 
2.138873 -0.1839361 4.832223 0 0 0 147 136 126 255 
0.6869878 -0.7658792 5.125758 0 0 0 114 101 93 255 
-1.646856 0.3706807 4.486015 0 0 0 171 167 158 255 
-1.494642 3.081837 2.198901 0 0 0 172 169 164 255 
-0.707597 0.2710654 4.564567 0 0 0 160 154 150 255 
-2.360788 3.386294 2.031806 0 0 0 170 162 159 255 
3.732339 1.309719 3.783721 0 0 0 102 84 70 255 
3.375569 3.574304 1.50872 0 0 0 159 149 140 255 
-0.3953228 0.6670852 4.482456 0 0 0 146 141 138 255 
1.832725 0.9156228 4.207304 0 0 0 133 126 120 255 
2.721557 0.8229197 4.363842 0 0 0 149 142 136 255 
3.096892 0.8840479 4.091684 0 0 0 179 171 160 255 
3.248597 0.8136243 4.153896 0 0 0 182 175 165 255 
3.464115 1.210885 3.685609 0 0 0 129 115 104 255 
3.698421 1.231759 3.78383 0 0 0 102 89 72 255 
3.701822 0.7913775 3.982848 0 0 0 118 104 91 255 
3.739096 0.7562196 4.013457 0 0 0 152 143 128 255 
3.910693 1.010031 3.79108 0 0 0 98 90 77 255 
3.987807 1.155522 3.699399 0 0 0 161 145 132 255 
3.9965 1.081843 3.745133 0 0 0 141 125 110 255 
3.970717 0.7251101 4.060024 0 0 0 151 142 133 255 
4.014252 0.7730038 4.138137 0 0 0 111 102 93 255 
-0.3873304 -0.6434898 5.207385 0 0 0 167 156 150 255 
-0.8989428 0.2944344 4.611144 0 0 0 172 169 164 255 
1.629616 0.4333526 4.504913 0 0 0 149 136 127 255 
-0.8989428 0.2944344 4.611144 0 0 0 172 169 164 255 
-0.8096656 0.2479863 4.608503 0 0 0 193 192 190 255 
2.639696 0.820878 4.312903 0 0 0 142 137 131 255 
3.623066 1.836765 3.353744 0 0 0 116 102 91 255 
3.660691 0.7167518 4.053267 0 0 0 165 157 144 255 
4.082946 1.213153 3.625388 0 0 0 113 100 83 255 
2.219392 0.4835228 4.477121 0 0 0 156 138 126 255 
1.360056 2.867296 2.589827 0 0 0 189 179 170 255 
0.9838434 2.317907 3.494137 0 0 0 0 0 0 255 
0.8849974 3.511074 1.975728 0 0 0 158 149 142 255 
-0.005879495 0.9805075 4.18975 0 0 0 172 167 163 255 
-0.513858 1.418731 3.91064 0 0 0 170 169 167 255 
-2.020744 3.620243 1.747256 0 0 0 133 132 130 255 
-1.233102 0.8367379 4.133481 0 0 0 157 148 141 255 
1.774336 2.067581 3.280748 0 0 0 106 94 82 255 
1.860013 1.430609 3.800414 0 0 0 160 159 157 255 
3.098352 0.7710201 4.264927 0 0 0 140 130 120 255 
3.363205 0.9062093 3.941066 0 0 0 140 124 109 255 
3.570099 2.671876 2.806664 0 0 0 127 111 96 255 
-2.566895 -0.104677 5.157814 0 0 0 173 168 164 255 
-0.656738 0.1156264 4.701193 0 0 0 196 195 193 255 
-0.564625 3.453583 2.036168 0 0 0 160 159 157 255 
-1.296742 2.906115 2.525972 0 0 0 144 143 141 255 
-1.762559 0.4659157 4.686128 0 0 0 156 151 148 255 
-2.074715 -0.08912927 5.046246 0 0 0 193 191 192 255 
0.7992702 0.1820523 4.427673 0 0 0 165 160 154 255 
-1.598042 0.3965674 4.669162 0 0 0 131 126 122 255 
1.14659 0.2840206 4.463894 0 0 0 181 174 168 255 
-0.6955545 1.337769 3.941341 0 0 0 116 107 98 255 
1.858844 1.038758 4.025878 0 0 0 154 142 126 255 
4.089597 0.7556879 4.035641 0 0 0 149 143 131 255 
-0.8617194 2.297492 3.116231 0 0 0 203 196 192 255 
1.989713 2.942377 2.374503 0 0 0 144 134 125 255 
3.985712 1.110893 3.723155 0 0 0 110 98 86 255 
4.086846 0.7633617 4.049053 0 0 0 149 143 131 255 
-0.6789981 3.264372 1.950755 0 0 0 149 141 138 255 
1.908787 -0.5136324 5.175785 0 0 0 150 137 129 255 
-2.231885 -0.109364 5.132016 0 0 0 130 129 127 255 
-1.576133 1.327954 3.848594 0 0 0 174 169 165 255 
1.452391 -0.4442709 5.071984 0 0 0 150 137 129 255 
-1.379598 0.6663306 4.387394 0 0 0 148 139 132 255 
-0.942726 0.2124849 4.596049 0 0 0 171 170 168 255 
-1.283899 3.508537 1.980179 0 0 0 184 183 181 255 
-1.253455 2.881406 2.554348 0 0 0 189 185 184 255 
-1.226763 2.912357 2.534484 0 0 0 201 197 196 255 
-1.064658 2.872825 2.562197 0 0 0 153 149 146 255 
-0.6002793 0.1734637 4.602739 0 0 0 185 181 178 255 
-0.6668363 -0.08665437 5.00971 0 0 0 181 178 175 255 
-0.6147751 3.457 2.017676 0 0 0 187 180 172 255 
0.3620864 0.7628272 4.297842 0 0 0 161 157 156 255 
1.410266 1.256079 3.847223 0 0 0 149 139 129 255 
2.803875 0.2882884 4.552953 0 0 0 140 130 121 255 
1.567285 1.384618 3.804771 0 0 0 163 151 135 255 
2.427414 0.6162189 4.403289 0 0 0 169 159 149 255 
2.613305 0.8569036 4.286865 0 0 0 151 144 136 255 
3.387282 2.05179 3.193282 0 0 0 100 90 80 255 
3.412792 1.674825 3.507311 0 0 0 148 138 129 255 
3.754349 0.7954015 4.032015 0 0 0 146 132 119 255 
3.853754 1.844236 3.317179 0 0 0 115 104 92 255 
3.816994 1.338029 3.727706 0 0 0 144 137 127 255 
3.839843 1.420666 3.605856 0 0 0 122 104 90 255 
3.934164 0.7480261 4.072953 0 0 0 144 135 126 255 
4.010084 0.769682 4.064778 0 0 0 129 122 106 255 
-0.942726 0.2124849 4.596049 0 0 0 171 170 168 255 
0.1201402 3.658642 1.587952 0 0 0 169 163 165 255 
1.950089 2.955386 2.426849 0 0 0 139 129 120 255 
3.909194 0.728684 4.113007 0 0 0 131 123 112 255 
2.873253 0.7862149 4.253067 0 0 0 167 164 159 255 
3.0019 0.8574851 4.137663 0 0 0 155 147 136 255 
3.361223 1.008811 3.904249 0 0 0 171 158 149 255 
3.435158 1.060756 3.889518 0 0 0 112 95 79 255 
3.487417 1.194165 3.717349 0 0 0 128 115 99 255 
3.521979 1.692101 3.448179 0 0 0 172 166 155 255 
3.574054 0.7062702 4.042369 0 0 0 95 78 68 255 
3.647406 0.7119546 4.036942 0 0 0 111 96 77 255 
3.899106 0.7445294 4.058125 0 0 0 149 141 130 255 
3.686589 0.8103248 3.977528 0 0 0 168 160 147 255 
3.685695 0.8051815 4.015701 0 0 0 107 90 80 255 
3.718591 0.8482979 3.947168 0 0 0 162 152 140 255 
3.773736 1.250154 3.764177 0 0 0 152 144 133 255 
3.7998 1.258347 3.768984 0 0 0 132 124 113 255 
4.1087 1.559829 3.451305 0 0 0 152 136 123 255 
-0.104494 0.4869556 4.525547 0 0 0 187 180 175 255 
4.031161 0.7893419 4.050759 0 0 0 97 89 78 255 
3.79405 1.355709 3.734097 0 0 0 156 147 138 255 
-0.7231766 1.603065 3.659508 0 0 0 145 138 132 255 
2.340377 1.711292 3.350325 0 0 0 135 125 116 255 
2.100298 0.6436116 4.271533 0 0 0 124 107 91 255 
3.800005 1.257685 3.768852 0 0 0 132 124 113 255 
-0.6678435 0.7396479 4.396849 0 0 0 186 179 173 255 
-2.008788 0.0801557 4.814106 0 0 0 204 200 199 255 
-1.735368 0.8461431 4.078371 0 0 0 149 140 133 255 
-1.869207 2.913538 2.48554 0 0 0 173 172 170 255 
-0.7165102 0.1419154 4.629272 0 0 0 198 197 195 255 
-0.7269376 0.6733181 4.438638 0 0 0 211 206 202 255 
0.9579411 0.1527292 4.451698 0 0 0 135 118 110 255 
0.9953046 0.9425622 4.058915 0 0 0 207 200 194 255 
1.25404 0.4377117 4.442621 0 0 0 151 139 127 255 
-2.004347 0.0785095 4.811286 0 0 0 204 200 199 255 
3.860553 1.389515 3.668524 0 0 0 152 144 133 255 
4.031161 0.7893419 4.050759 0 0 0 97 89 78 255 
1.589864 0.7653574 4.234663 0 0 0 119 104 86 255 
1.633185 0.4045008 4.518823 0 0 0 124 112 100 255 
2.815244 0.8018161 4.325921 0 0 0 167 162 158 255 
2.858629 0.8008001 4.312163 0 0 0 174 171 166 255 
-1.495454 2.226425 3.097265 0 0 0 148 148 146 255 
3.161915 3.061528 2.191505 0 0 0 0 0 0 255 
3.197134 0.8545321 4.149407 0 0 0 155 145 135 255 
3.216526 0.8506899 4.151963 0 0 0 160 151 142 255 
3.421015 1.990555 3.274908 0 0 0 106 93 77 255 
3.44516 1.109885 3.82845 0 0 0 125 109 93 255 
3.631325 1.994573 3.25695 0 0 0 123 109 96 255 
3.628922 1.915485 3.317573 0 0 0 107 97 87 255 
2.525683 0.8268867 4.288349 0 0 0 92 85 79 255 
3.725471 0.808436 3.964466 0 0 0 118 105 89 255 
3.806487 1.39469 3.64182 0 0 0 137 121 105 255 
3.820235 1.401807 3.687608 0 0 0 105 91 77 255 
3.963077 0.7065614 4.052891 0 0 0 121 112 103 255 
4.006229 0.7590436 4.076644 0 0 0 103 94 87 255 
4.040455 0.9580016 3.937464 0 0 0 99 83 68 255 
4.041158 0.5343459 4.056922 0 0 0 115 99 86 255 
4.032389 0.480828 4.115903 0 0 0 73 57 42 255 
4.070138 0.9849851 3.877747 0 0 0 133 117 101 255 
4.041513 0.8320988 4.064824 0 0 0 111 101 91 255 
2.479115 0.7294071 4.355636 0 0 0 113 104 97 255 
2.482302 0.7287776 4.315042 0 0 0 142 135 127 255 
2.622976 0.7275341 4.373623 0 0 0 147 136 124 255 
2.621447 0.8109835 4.330827 0 0 0 88 83 77 255 
2.60061 3.098755 2.098864 0 0 0 164 145 130 255 
2.357791 0.8711144 4.075881 0 0 0 154 140 129 255 
1.698391 0.9266099 4.043644 0 0 0 120 104 91 255 
2.5665 0.8114048 4.316139 0 0 0 73 68 62 255 
2.80824 0.8324791 4.258701 0 0 0 177 173 164 255 
2.239963 3.060213 2.167173 0 0 0 151 135 122 255 
2.802531 0.7750291 4.344131 0 0 0 132 124 121 255 
2.37715 1.449409 3.700831 0 0 0 130 120 110 255 
-1.142023 0.7126773 4.250597 0 0 0 126 119 111 255 
2.362717 0.8670243 4.069625 0 0 0 154 140 129 255 
1.18971 0.3513377 4.399734 0 0 0 133 119 108 255 
3.837308 1.43524 3.645589 0 0 0 146 130 115 255 
-0.5487358 0.0961011 4.647561 0 0 0 179 178 176 255 
3.587502 1.901491 3.36447 0 0 0 96 83 75 255 
0.7658857 2.721385 3.301888 0 0 0 145 136 131 255 
1.212013 0.3415746 4.374586 0 0 0 133 119 108 255 
0.5169076 1.689631 3.911648 0 0 0 172 164 161 255 
1.889 -0.7069125 5.319908 0 0 0 76 63 55 255 
0.9075088 3.727762 1.640058 0 0 0 137 129 118 255 
0.9732338 0.08693467 4.498358 0 0 0 139 125 116 255 
1.550992 0.8294641 4.134897 0 0 0 190 186 179 255 
3.765646 1.598145 3.529541 0 0 0 118 104 93 255 
4.070138 0.9849851 3.877747 0 0 0 133 117 101 255 
-0.5212324 0.4766448 4.514857 0 0 0 187 180 174 255 
-0.5582887 0.3632812 4.626796 0 0 0 160 153 147 255 
-0.548657 0.09613006 4.647752 0 0 0 179 178 176 255 
-0.7395887 -0.07287893 4.984646 0 0 0 168 164 161 255 
3.71576 1.51537 3.585461 0 0 0 107 94 85 255 
-0.9865922 -0.02956603 4.928946 0 0 0 175 171 168 255 
-1.44076 0.6261828 4.495611 0 0 0 186 183 178 255 
3.48802 1.074773 3.893523 0 0 0 121 105 89 255 
0.7896626 -0.5345942 5.115798 0 0 0 123 110 104 255 
3.418884 1.180552 3.72368 0 0 0 130 116 105 255 
1.509243 0.4387535 4.444313 0 0 0 198 192 185 255 
-0.4793134 -0.1616495 4.996139 0 0 0 155 147 144 255 
4.011238 0.852074 4.040109 0 0 0 88 76 64 255 
1.513532 0.4990577 4.400281 0 0 0 170 160 151 255 
-0.9799697 1.511864 3.809908 0 0 0 129 122 116 255 
-0.9043821 -0.3506978 5.173497 0 0 0 183 171 171 255 
-0.4164357 0.6156654 4.242552 0 0 0 168 161 153 255 
-2.545949 -0.05759487 5.123718 0 0 0 137 135 134 255 
-1.507567 1.910999 3.232142 0 0 0 189 187 188 255 
-0.8674001 0.2963884 4.586295 0 0 0 167 162 158 255 
0.8078492 2.02247 3.531927 0 0 0 144 161 153 255 
-0.6815974 0.1339652 4.635407 0 0 0 156 155 153 255 
-0.606216 0.1601921 4.613788 0 0 0 187 183 182 255 
-0.6420121 0.1522044 4.680589 0 0 0 190 189 187 255 
-0.4843503 0.2781302 4.557156 0 0 0 196 191 187 255 
-0.60412 0.8907856 4.137959 0 0 0 197 189 187 255 
-0.1995235 0.004263769 4.676446 0 0 0 156 152 151 255 
-0.1263088 0.06677065 4.712726 0 0 0 191 190 188 255 
0.05488609 -0.03427116 4.686341 0 0 0 217 215 216 255 
-0.3046756 1.021001 4.164014 0 0 0 139 125 116 255 
0.8844948 0.2551408 4.376855 0 0 0 171 164 161 255 
0.9558851 0.2964761 4.369586 0 0 0 143 133 124 255 
0.9406253 0.8713679 4.113213 0 0 0 190 184 178 255 
0.9427502 0.3776199 4.343746 0 0 0 158 149 142 255 
1.104941 0.4569888 4.250823 0 0 0 179 170 161 255 
1.18709 0.3260274 4.424658 0 0 0 118 105 97 255 
0.8672229 2.02078 3.541228 0 0 0 93 86 72 255 
1.245752 0.3441249 4.428764 0 0 0 152 142 133 255 
1.350453 0.3234001 4.446074 0 0 0 138 120 108 255 
1.311051 0.8788074 4.124896 0 0 0 192 184 179 255 
1.433932 0.3724415 4.463443 0 0 0 127 111 98 255 
1.406981 0.4887972 4.414528 0 0 0 147 134 126 255 
1.404581 0.6797314 4.299751 0 0 0 164 148 136 255 
1.45517 0.7455295 4.255537 0 0 0 143 126 118 255 
1.54518 0.4043685 4.476152 0 0 0 162 148 139 255 
1.618851 1.038978 3.919113 0 0 0 151 137 126 255 
1.611481 0.4199506 4.49726 0 0 0 126 112 99 255 
1.645302 0.4331477 4.500946 0 0 0 120 107 98 255 
1.645674 0.3066477 4.624751 0 0 0 130 116 107 255 
1.652697 0.4270716 4.580046 0 0 0 164 155 148 255 
1.734538 3.008406 2.417526 0 0 0 164 151 135 255 
1.681896 0.4144829 4.55912 0 0 0 200 193 185 255 
1.909304 0.328647 4.570983 0 0 0 166 159 153 255 
1.980237 1.30075 3.877455 0 0 0 170 167 158 255 
2.020928 0.4312661 4.481028 0 0 0 176 163 154 255 
2.03432 0.4736409 4.477661 0 0 0 136 117 109 255 
2.198909 2.145788 3.097429 0 0 0 151 137 124 255 
2.139702 0.5705552 4.393155 0 0 0 118 100 86 255 
2.485734 0.8755353 4.184581 0 0 0 128 114 101 255 
2.584112 0.7594947 4.346334 0 0 0 145 140 134 255 
2.688403 0.7565778 4.362053 0 0 0 148 141 131 255 
2.703197 0.8157464 4.327313 0 0 0 106 101 95 255 
2.889486 1.039312 4.042842 0 0 0 160 143 129 255 
2.863045 0.7823197 4.277651 0 0 0 139 136 131 255 
2.982485 1.03137 4.030395 0 0 0 161 152 143 255 
3.139845 0.7859144 4.249887 0 0 0 126 116 106 255 
3.421848 0.4497228 4.220226 0 0 0 115 103 89 255 
3.462747 1.07325 3.868638 0 0 0 121 105 89 255 
3.64919 1.903305 3.329047 0 0 0 130 120 108 255 
3.62829 1.245277 3.726152 0 0 0 138 125 108 255 
3.621578 0.6383938 4.09608 0 0 0 173 161 149 255 
3.643163 0.6970098 4.028934 0 0 0 154 141 132 255 
3.736219 0.785138 3.964428 0 0 0 126 112 99 255 
3.929042 1.84562 3.29946 0 0 0 116 102 89 255 
3.855293 0.8066986 4.016927 0 0 0 131 118 102 255 
3.856949 0.7770185 4.034682 0 0 0 148 138 123 255 
3.909995 1.459682 3.617455 0 0 0 138 122 109 255 
3.91964 0.7280387 4.13699 0 0 0 151 141 132 255 
-1.135835 2.811606 2.601725 0 0 0 202 198 197 255 
-1.342125 1.24023 3.898229 0 0 0 115 106 99 255 
-1.95613 0.02603653 4.876059 0 0 0 208 204 203 255 
-1.406403 0.5711504 4.494576 0 0 0 203 199 196 255 
-1.398312 0.6512057 4.427144 0 0 0 156 151 145 255 
-0.9716344 0.810446 4.310318 0 0 0 135 128 122 255 
-0.6625026 0.1284993 4.714097 0 0 0 203 202 200 255 
1.598215 0.2595049 4.601715 0 0 0 123 107 92 255 
1.727561 0.9008285 4.198553 0 0 0 113 93 82 255 
1.78294 1.497705 3.77183 0 0 0 110 105 101 255 
1.909579 0.3299631 4.569972 0 0 0 166 159 153 255 
2.032359 1.339015 3.828793 0 0 0 118 109 100 255 
2.376718 0.8796855 4.067732 0 0 0 122 108 99 255 
2.570189 0.7359034 4.359591 0 0 0 156 149 139 255 
3.462747 1.07325 3.868638 0 0 0 121 105 89 255 
3.543603 0.6841223 4.092885 0 0 0 148 131 121 255 
3.829307 0.7738257 4.001535 0 0 0 121 109 95 255 
4.160765 3.22146 2.204807 0 0 0 115 102 94 255 
-2.718061 0.1398014 4.886661 0 0 0 148 139 134 255 
-0.5420755 0.6843013 4.431103 0 0 0 186 181 178 255 
-0.2047709 0.6895462 4.392992 0 0 0 148 144 141 255 
-2.70867 -0.08197648 5.08885 0 0 0 174 166 163 255 
-2.528655 -0.02352971 5.070054 0 0 0 200 196 195 255 
1.068436 0.3157136 4.391479 0 0 0 128 118 109 255 
-1.9674 0.5814297 4.537913 0 0 0 192 187 184 255 
-1.430301 0.1100668 4.922649 0 0 0 146 137 130 255 
-0.382597 0.05056099 4.664921 0 0 0 150 148 149 255 
-0.8297766 1.566632 3.772627 0 0 0 138 133 129 255 
-0.6352028 0.8537405 4.23407 0 0 0 168 163 160 255 
-0.5629502 0.8822773 4.145028 0 0 0 188 180 177 255 
0.8986965 0.3834366 4.360463 0 0 0 136 128 125 255 
0.1176839 0.04659707 4.637146 0 0 0 159 158 156 255 
1.013512 -0.5614302 5.045847 0 0 0 114 97 87 255 
-0.1572379 1.573218 3.799995 0 0 0 150 139 133 255 
-0.01796537 3.577226 1.886704 0 0 0 203 196 190 255 
0.8974819 0.07057966 4.468834 0 0 0 199 192 186 255 
0.8535358 0.2706392 4.454253 0 0 0 201 193 190 255 
0.9148553 0.2720832 4.378305 0 0 0 211 206 202 255 
0.9671642 0.08826964 4.486992 0 0 0 187 174 168 255 
0.9694028 0.2794002 4.373989 0 0 0 133 120 111 255 
2.80818 0.9335901 4.13997 0 0 0 119 109 97 255 
0.9621969 0.8846288 4.100572 0 0 0 213 204 197 255 
1.210925 0.1161534 4.572938 0 0 0 149 140 135 255 
0.8773546 2.020223 3.61066 0 0 0 134 122 110 255 
1.324703 0.3860326 4.478383 0 0 0 133 116 106 255 
1.347363 0.4230153 4.42015 0 0 0 145 131 120 255 
1.43156 0.6356891 4.284722 0 0 0 104 87 72 255 
1.480301 3.029282 2.395387 0 0 0 171 158 139 255 
1.509474 0.4542975 4.42886 0 0 0 187 182 171 255 
1.523653 0.3385354 4.565029 0 0 0 146 128 115 255 
1.547293 0.4239942 4.460415 0 0 0 176 165 159 255 
-0.839794 0.3218279 4.58003 0 0 0 162 157 153 255 
1.317453 -0.5652679 5.141746 0 0 0 124 108 98 255 
1.564911 0.312368 4.567999 0 0 0 117 98 84 255 
1.57132 0.5698234 4.381286 0 0 0 175 165 155 255 
1.57872 0.7529659 4.241473 0 0 0 177 164 148 255 
1.602619 0.4179966 4.489636 0 0 0 170 162 151 255 
1.599402 0.4074545 4.541328 0 0 0 188 176 164 255 
1.603913 0.7222354 4.293029 0 0 0 202 192 180 255 
1.62881 0.4142131 4.516674 0 0 0 127 113 102 255 
-0.7278383 1.651999 3.571166 0 0 0 110 104 98 255 
3.84659 0.7803435 4.022503 0 0 0 169 158 140 255 
1.66174 2.970221 2.472336 0 0 0 173 159 146 255 
1.632509 0.3971175 4.553409 0 0 0 153 143 133 255 
1.661125 0.5057966 4.42176 0 0 0 198 191 185 255 
1.649162 0.4135316 4.52181 0 0 0 189 179 169 255 
1.667149 0.2491834 4.631337 0 0 0 134 120 110 255 
1.684379 0.9254548 4.089068 0 0 0 168 154 141 255 
1.670416 0.2743136 4.623894 0 0 0 120 106 97 255 
1.01054 3.684359 1.819797 0 0 0 103 80 83 255 
1.818879 1.126275 3.939819 0 0 0 139 124 113 255 
1.835367 0.2715236 4.619131 0 0 0 198 191 183 255 
1.877481 1.005635 4.153277 0 0 0 112 98 89 255 
1.900759 0.9906313 4.154743 0 0 0 154 144 135 255 
2.025998 0.59935 4.246838 0 0 0 182 172 162 255 
1.961719 1.324613 3.865546 0 0 0 180 176 167 255 
1.954076 1.036803 4.113561 0 0 0 134 124 112 255 
1.99411 1.365808 3.820582 0 0 0 133 127 115 255 
1.978343 1.052794 4.088728 0 0 0 139 129 117 255 
2.031264 0.3571994 4.515982 0 0 0 193 183 173 255 
2.062944 0.2881099 4.589046 0 0 0 135 123 111 255 
-0.9184411 1.354918 3.891979 0 0 0 131 122 115 255 
2.075557 0.5028831 4.423933 0 0 0 130 112 98 255 
2.153353 1.29993 3.814433 0 0 0 165 156 147 255 
2.353878 0.6915467 4.328194 0 0 0 181 169 157 255 
1.81327 0.9228683 4.180575 0 0 0 115 106 99 255 
2.556755 0.764924 4.394746 0 0 0 96 93 86 255 
2.582168 0.7449882 4.365831 0 0 0 163 159 147 255 
1.547451 0.4373997 4.449203 0 0 0 141 131 121 255 
2.658151 0.7770983 4.338388 0 0 0 63 58 52 255 
2.759017 1.169308 3.846107 0 0 0 144 132 116 255 
-1.993962 1.664468 3.367794 0 0 0 140 131 124 255 
2.923793 1.030579 3.695908 0 0 0 177 159 147 255 
2.78859 0.7685145 4.322394 0 0 0 119 111 109 255 
2.953043 0.7475231 4.270359 0 0 0 146 142 133 255 
2.977864 0.7992896 4.207474 0 0 0 186 177 170 255 
-0.7883006 0.6315467 4.456858 0 0 0 206 198 195 255 
3.128613 0.8111804 4.180828 0 0 0 168 155 146 255 
3.193609 0.6720734 4.197719 0 0 0 188 180 169 255 
3.202645 0.7981362 4.146321 0 0 0 110 97 88 255 
3.222337 0.7667522 4.186491 0 0 0 176 168 157 255 
3.540523 2.009142 3.228284 0 0 0 117 101 90 255 
3.591802 1.184857 3.776977 0 0 0 114 98 83 255 
3.699471 0.7741103 3.991036 0 0 0 145 133 119 255 
3.765654 1.06387 3.836573 0 0 0 111 101 91 255 
3.781172 1.356056 3.742055 0 0 0 92 83 73 255 
3.784049 1.34196 3.75895 0 0 0 109 99 89 255 
3.883999 0.7946908 3.978979 0 0 0 66 53 44 255 
4.073368 0.9467865 3.901742 0 0 0 141 129 117 255 
4.050566 0.6532395 4.108161 0 0 0 172 166 153 255 
0.8240148 0.1882417 4.508916 0 0 0 150 143 137 255 
1.210925 0.1161534 4.572938 0 0 0 149 140 135 255 
1.347363 0.4230153 4.42015 0 0 0 145 131 120 255 
1.556753 0.3089556 4.557957 0 0 0 145 127 113 255 
1.602543 0.4179612 4.489541 0 0 0 170 162 151 255 
1.691057 0.9208898 4.080787 0 0 0 168 154 141 255 
1.670286 0.4551879 4.521396 0 0 0 109 95 91 255 
1.886483 0.9980589 3.991443 0 0 0 131 115 100 255 
1.877481 1.005635 4.153277 0 0 0 112 98 89 255 
2.031264 0.3571994 4.515982 0 0 0 193 183 173 255 
2.031264 0.3571994 4.515982 0 0 0 193 183 173 255 
2.019867 1.272809 3.867185 0 0 0 177 172 166 255 
2.227967 3.060473 2.158034 0 0 0 170 152 138 255 
2.544891 0.7755659 4.415941 0 0 0 96 93 86 255 
2.784697 0.7721708 4.329643 0 0 0 119 111 109 255 
2.862568 0.8172361 4.288292 0 0 0 125 121 112 255 
2.953043 0.7475231 4.270359 0 0 0 146 142 133 255 
3.602892 1.235699 3.727692 0 0 0 142 129 113 255 
3.740273 0.6883686 4.031219 0 0 0 171 159 147 255 
3.830901 1.370361 3.664335 0 0 0 130 119 107 255 
3.972462 0.5914815 4.144755 0 0 0 166 154 142 255 
-1.039579 2.15931 3.2052 0 0 0 139 136 135 255 
3.466427 3.676297 1.637402 0 0 0 143 135 132 255 
-1.514671 1.694716 3.361936 0 0 0 157 152 148 255 
-2.457333 0.8152352 3.892595 0 0 0 144 134 125 255 
-2.620347 -0.02534494 5.023198 0 0 0 194 191 186 255 
-2.390261 -0.04864339 5.193361 0 0 0 143 141 142 255 
-1.983031 -0.02671906 4.874536 0 0 0 215 211 210 255 
-1.945746 -0.02885848 4.862825 0 0 0 176 172 171 255 
-1.767102 0.5369212 4.566003 0 0 0 118 115 110 255 
-1.480112 0.5088537 4.542658 0 0 0 158 154 151 255 
-1.476588 0.6642235 4.411367 0 0 0 178 169 162 255 
-1.222034 0.5306383 4.478627 0 0 0 169 165 162 255 
-1.15019 0.8169101 4.369267 0 0 0 181 176 167 255 
-1.003809 1.152915 3.951212 0 0 0 137 132 128 255 
-0.8118196 0.5462022 4.547331 0 0 0 160 153 147 255 
-1.596194 0.5344944 4.532383 0 0 0 153 148 142 255 
1.657739 0.4035639 4.610832 0 0 0 200 193 186 255 
2.643823 0.7192534 4.270216 0 0 0 76 71 67 255 
-1.858752 0.5918643 4.522934 0 0 0 135 123 123 255 
2.969556 1.068001 4.007739 0 0 0 148 138 129 255 
3.509207 1.268321 3.623824 0 0 0 151 139 127 255 
3.725229 0.7959902 3.974998 0 0 0 159 145 132 255 
1.724618 0.7688565 4.247443 0 0 0 204 197 187 255 
1.776087 1.192901 3.82788 0 0 0 185 173 161 255 
1.761124 0.4741729 4.457972 0 0 0 150 137 128 255 
1.921585 2.862401 2.440655 0 0 0 186 177 168 255 
1.968742 0.828455 4.020304 0 0 0 118 111 105 255 
1.877008 1.437824 3.799515 0 0 0 160 159 157 255 
1.930292 1.002943 4.093324 0 0 0 113 96 88 255 
2.171848 3.080645 2.127928 0 0 0 170 157 144 255 
-1.185752 0.01967047 4.932549 0 0 0 171 166 163 255 
1.986572 0.4911597 4.453281 0 0 0 184 171 162 255 
2.017682 1.339502 3.832818 0 0 0 169 162 154 255 
2.120822 0.6089676 4.287188 0 0 0 108 90 76 255 
2.10304 0.4556412 4.438093 0 0 0 187 173 162 255 
2.427019 0.7971799 4.378458 0 0 0 85 78 72 255 
2.457407 0.7981856 4.315536 0 0 0 118 111 101 255 
2.514652 0.6796615 4.391436 0 0 0 128 118 108 255 
2.530153 0.6783077 4.375803 0 0 0 179 171 160 255 
2.529998 0.7427955 4.346003 0 0 0 205 196 191 255 
2.684541 0.8236408 4.259468 0 0 0 81 76 70 255 
2.718402 0.8270956 4.411757 0 0 0 167 159 156 255 
2.81945 0.8375247 4.258179 0 0 0 102 98 89 255 
2.815145 0.7714203 4.341753 0 0 0 168 161 155 255 
2.890227 1.203012 3.919569 0 0 0 140 130 121 255 
2.886992 1.131353 3.995445 0 0 0 116 94 80 255 
2.938262 0.7840827 4.247291 0 0 0 187 180 172 255 
2.9439 1.136468 4.021278 0 0 0 183 174 166 255 
3.000158 0.8070279 4.21303 0 0 0 98 88 79 255 
3.436454 0.394803 4.219494 0 0 0 83 71 61 255 
3.486091 1.148412 3.850292 0 0 0 117 101 85 255 
3.548059 0.6850644 4.110157 0 0 0 196 186 174 255 
3.594746 0.6914834 4.0446 0 0 0 125 116 99 255 
3.637159 1.299397 3.673316 0 0 0 141 128 111 255 
3.788543 1.263342 3.762364 0 0 0 170 163 152 255 
3.791698 1.289359 3.748814 0 0 0 162 154 143 255 
3.86271 0.5368817 4.156148 0 0 0 195 183 171 255 
3.948815 1.155291 3.799248 0 0 0 104 92 80 255 
1.626945 0.6601765 4.337124 0 0 0 141 132 125 255 
1.585989 0.3266537 4.645546 0 0 0 176 160 147 255 
1.611125 0.6310558 4.346199 0 0 0 191 182 175 255 
1.660581 0.9834903 3.97894 0 0 0 124 109 100 255 
1.59675 0.8038513 4.187579 0 0 0 116 105 92 255 
1.543359 1.522529 3.693133 0 0 0 187 171 156 255 
1.587238 0.8672336 4.088739 0 0 0 205 197 189 255 
1.531377 0.5957989 4.37234 0 0 0 199 185 176 255 
1.521629 0.4044157 4.47908 0 0 0 180 165 158 255 
1.45914 0.6390573 4.329396 0 0 0 199 190 183 255 
1.457702 0.7525442 4.222775 0 0 0 127 114 105 255 
1.453538 0.76082 4.191463 0 0 0 133 123 114 255 
1.249608 0.4252817 4.494054 0 0 0 135 120 113 255 
1.838566 1.515312 3.700411 0 0 0 148 135 126 255 
1.223476 1.163478 3.907507 0 0 0 158 149 140 255 
1.254707 0.3676479 4.449601 0 0 0 206 197 190 255 
1.257758 0.1213808 4.568865 0 0 0 203 194 187 255 
0.836279 2.03001 3.603871 0 0 0 114 104 94 255 
1.177127 0.3025442 4.444902 0 0 0 177 166 160 255 
1.096775 0.1024804 4.588229 0 0 0 141 132 127 255 
0.9612341 0.9085704 4.08637 0 0 0 166 159 151 255 
1.077543 0.4613848 4.248199 0 0 0 201 190 184 255 
0.867283 0.8324473 4.157517 0 0 0 214 207 201 255 
0.9287988 0.3290292 4.45696 0 0 0 98 86 76 255 
0.569231 1.352664 4.03555 0 0 0 182 175 169 255 
0.480542 0.7972473 4.236744 0 0 0 143 139 138 255 
0.2889143 0.8902669 4.07551 0 0 0 209 205 202 255 
0.08034392 0.9175975 4.209234 0 0 0 186 181 177 255 
-0.1100046 0.5297534 4.508148 0 0 0 166 162 159 255 
-0.1757203 0.5607698 4.514461 0 0 0 209 205 202 255 
-0.3274831 0.439323 4.538422 0 0 0 161 154 148 255 
-0.7681342 1.54935 3.805041 0 0 0 184 179 176 255 
-0.3676378 0.0900751 4.638041 0 0 0 127 123 122 255 
-0.6354261 0.8625891 4.210941 0 0 0 165 160 157 255 
-0.08044855 0.04964749 4.651464 0 0 0 123 122 120 255 
0.8080431 0.3317461 4.387867 0 0 0 132 128 119 255 
1.036511 0.3363191 4.334279 0 0 0 140 132 120 255 
1.53297 0.7526146 4.216363 0 0 0 145 138 132 255 
1.697279 0.4700869 4.490244 0 0 0 113 101 94 255 
1.733178 0.9125469 4.197297 0 0 0 139 126 117 255 
1.841522 1.00438 4.019499 0 0 0 152 136 121 255 
-0.5931332 2.103889 3.292766 0 0 0 159 151 148 255 
1.921846 2.86182 2.440397 0 0 0 186 177 168 255 
1.980281 1.512367 3.681791 0 0 0 154 144 132 255 
2.05777 0.5967677 4.296941 0 0 0 172 155 140 255 
2.945652 1.134268 4.019735 0 0 0 183 174 166 255 
2.994745 1.081075 4.000076 0 0 0 143 134 127 255 
2.997819 0.8281053 4.202731 0 0 0 184 176 165 255 
3.423841 0.8404389 4.007901 0 0 0 196 184 172 255 
3.548128 1.288033 3.629181 0 0 0 116 104 90 255 
3.531963 1.144916 3.759477 0 0 0 161 145 130 255 
0.7269264 2.889137 2.861943 0 0 0 135 134 132 255 
1.033466 0.9107839 4.05875 0 0 0 0 0 0 255 
-0.4147634 0.09878787 4.634831 0 0 0 153 152 150 255 
-0.5042431 0.9665213 4.114089 0 0 0 152 142 133 255 
-0.724182 1.37646 3.927171 0 0 0 184 177 171 255 
-1.289571 0.7172948 4.442131 0 0 0 173 169 166 255 
0.9790611 0.1466093 4.469784 0 0 0 135 121 112 255 
1.460762 0.8907143 4.092973 0 0 0 191 181 169 255 
-0.7232286 1.375981 3.926598 0 0 0 184 177 171 255 
-1.236497 0.7015179 4.401911 0 0 0 173 169 166 255 
-0.4639572 1.554512 3.774744 0 0 0 69 58 52 255 
-1.232036 0.02910052 4.937132 0 0 0 166 161 158 255 
-0.2950082 -0.8859582 5.473954 0 0 0 125 113 101 255 
-1.316551 0.6564984 4.302114 0 0 0 187 178 171 255 
-0.813417 2.297238 3.111811 0 0 0 108 100 97 255 
2.526548 0.8246087 4.287941 0 0 0 92 85 79 255 
-0.4857188 0.6613331 4.44875 0 0 0 163 158 154 255 
0.1937801 0.6802828 4.309287 0 0 0 194 193 190 255 
1.998609 1.303998 3.870993 0 0 0 118 114 111 255 
0.7514834 0.1421816 4.580532 0 0 0 164 159 155 255 
-1.279838 1.567147 3.56816 0 0 0 136 126 116 255 
2.663974 0.7568292 4.284719 0 0 0 75 70 64 255 
2.422783 2.716577 2.424807 0 0 0 184 172 160 255 
3.449018 3.142167 2.023583 0 0 0 117 98 81 255 
3.913829 0.8201432 4.022693 0 0 0 87 73 64 255 
-1.606336 1.457502 3.729564 0 0 0 182 171 169 255 
3.880227 2.848144 2.304989 0 0 0 125 107 87 255 
3.80598 2.734431 2.40617 0 0 0 114 95 80 255 
-1.962006 2.292857 2.946187 0 0 0 184 178 180 255 
3.120515 3.177735 1.84845 0 0 0 122 103 88 255 
3.783407 2.601913 2.690679 0 0 0 123 106 90 255 
3.873781 1.01391 3.798158 0 0 0 162 152 140 255 
-1.628118 2.23355 3.076061 0 0 0 205 200 196 255 
3.783407 2.601913 2.690679 0 0 0 123 106 90 255 
3.936139 2.813305 2.330716 0 0 0 122 101 84 255 
-2.152276 0.4394405 4.579939 0 0 0 149 140 135 255 
4.014252 0.7730038 4.138137 0 0 0 111 102 93 255 
-1.317084 2.228609 3.121313 0 0 0 132 128 126 255 
3.311281 1.657625 3.449115 0 0 0 153 135 121 255 
2.924163 0.7722853 4.302441 0 0 0 141 136 130 255 
1.435935 -0.9045701 5.296958 0 0 0 139 122 112 255 
4.163555 1.721917 3.255632 0 0 0 167 155 139 255 
-1.012337 2.777374 2.542398 0 0 0 171 167 166 255 
3.947837 1.085708 3.735094 0 0 0 148 135 126 255 
2.686729 0.8078134 4.317928 0 0 0 172 167 161 255 
4.064353 0.7070901 4.296253 0 0 0 145 141 129 255 
-1.149283 0.6271787 4.543299 0 0 0 161 156 153 255 
2.823086 1.662838 3.423555 0 0 0 149 136 127 255 
1.273036 0.3220274 4.499145 0 0 0 141 131 122 255 
3.001151 1.074419 3.989495 0 0 0 143 134 127 255 
1.710546 -0.247538 4.902095 0 0 0 138 128 119 255 
1.383003 1.602739 3.646272 0 0 0 210 203 197 255 
2.165499 0.6664094 4.328359 0 0 0 126 114 102 255 
1.88211 0.7119534 4.246195 0 0 0 177 176 174 255 
1.457858 0.5327539 4.384257 0 0 0 188 188 188 255 
2.722163 0.1897258 4.61507 0 0 0 158 149 142 255 
1.420696 1.284254 3.820173 0 0 0 170 161 154 255 
-0.6756983 1.054001 4.03524 0 0 0 191 187 184 255 
0.9863576 0.3419411 4.314949 0 0 0 148 141 138 255 
1.240835 0.9087709 4.093339 0 0 0 165 158 152 255 
2.955515 -0.02469784 4.959402 0 0 0 136 123 115 255 
3.502611 1.909536 3.29652 0 0 0 138 124 111 255 
1.169416 0.9903347 4.023282 0 0 0 170 165 161 255 
-0.7430528 0.9345504 4.107471 0 0 0 139 138 136 255 
2.189082 0.04188287 4.699365 0 0 0 165 158 150 255 
