ply
format ascii 1.0
comment VCGLIB generated
element vertex 934
property float x
property float y
property float z
property float nx
property float ny
property float nz
property uchar red
property uchar green
property uchar blue
property uchar alpha
element face 0
property list uchar int vertex_indices
end_header
-0.4802216 -0.06006836 5.009292 0 0 0 100 89 71 255 
-1.490455 2.961668 2.448173 0 0 0 149 145 144 255 
-0.4656718 -0.08146609 5.017915 0 0 0 142 133 116 255 
-0.5183265 0.9900292 4.09365 0 0 0 142 132 123 255 
-0.761842 0.9710215 4.072101 0 0 0 124 117 111 255 
-0.5524934 1.606471 3.673119 0 0 0 118 106 97 255 
0.08440463 0.9156814 4.220677 0 0 0 130 123 115 255 
-1.437026 2.30595 2.993596 0 0 0 162 152 150 255 
-0.5966249 2.030862 3.391018 0 0 0 178 174 173 255 
-0.9558777 2.387945 2.864046 0 0 0 159 151 148 255 
0.6651879 1.90997 3.772234 0 0 0 138 133 127 255 
-0.4778381 2.445597 3.013069 0 0 0 175 168 162 255 
-1.154226 2.751927 2.616934 0 0 0 206 204 205 255 
-1.173003 2.829536 2.58348 0 0 0 155 153 154 255 
1.127515 2.392371 3.293211 0 0 0 0 0 0 255 
0.9950941 2.13408 3.192341 0 0 0 0 0 0 255 
0.664124 0.7485933 1.921005 0 0 0 0 0 0 255 
0.5360231 2.011642 2.750083 0 0 0 0 0 0 255 
0.3049178 1.078946 2.216412 0 0 0 186 197 197 255 
0.2604375 0.9806179 1.944279 0 0 0 139 93 126 255 
0.6401514 0.9898692 2.410475 0 0 0 125 66 86 255 
3.172294 3.149663 1.958414 0 0 0 142 135 125 255 
0.4477392 0.8072687 2.157926 0 0 0 169 187 194 255 
0.3015819 0.9310421 1.826721 0 0 0 133 78 120 255 
-0.3557414 0.5505501 4.514316 0 0 0 147 140 132 255 
0.2705385 1.016948 2.008307 0 0 0 146 80 128 255 
-1.033657 0.6979322 4.420382 0 0 0 180 173 167 255 
-0.3999219 0.06787459 4.666 0 0 0 104 91 82 255 
-1.782602 0.8682916 4.047966 0 0 0 132 125 119 255 
-1.922157 0.9345327 4.045097 0 0 0 150 142 139 255 
-1.504949 2.257459 3.056098 0 0 0 190 185 181 255 
-1.494754 0.635582 4.439174 0 0 0 111 102 95 255 
-1.566555 0.670221 4.314892 0 0 0 145 138 130 255 
-1.262637 0.6996354 4.398935 0 0 0 155 146 141 255 
-1.132681 0.8470606 4.209315 0 0 0 148 133 122 255 
-1.027903 0.9595623 4.069837 0 0 0 115 105 103 255 
-1.78033 1.482006 3.617272 0 0 0 111 102 95 255 
-1.21584 2.191556 3.157019 0 0 0 156 152 151 255 
-0.9566889 2.387581 2.863803 0 0 0 159 151 148 255 
-0.6222725 2.406551 2.978497 0 0 0 183 173 171 255 
-1.172972 2.828806 2.583717 0 0 0 155 153 154 255 
0.3024971 1.79287 2.857466 0 0 0 160 115 154 255 
0.3012439 1.791227 2.85745 0 0 0 160 115 154 255 
0.6308161 0.8111611 2.217481 0 0 0 113 53 77 255 
-1.898862 1.488234 3.65454 0 0 0 113 104 97 255 
-1.216928 0.9675148 4.050439 0 0 0 166 159 151 255 
-0.1656084 0.1967571 4.587378 0 0 0 138 124 111 255 
-0.7987253 0.7967774 4.380197 0 0 0 145 139 132 255 
-0.3330031 -0.005293668 4.782861 0 0 0 140 130 118 255 
-1.331282 0.6967135 4.386237 0 0 0 172 166 163 255 
-0.6406711 0.1057506 4.673511 0 0 0 120 108 94 255 
-0.5494863 0.05755207 4.754727 0 0 0 110 93 83 255 
-0.4837993 -0.02930044 4.97865 0 0 0 101 89 73 255 
-1.216161 0.3827653 4.554627 0 0 0 173 170 161 255 
-1.374701 0.5268118 4.519661 0 0 0 176 170 158 255 
-1.740589 0.7089069 4.268375 0 0 0 177 174 167 255 
-1.580023 0.6450314 4.406247 0 0 0 182 178 175 255 
0.6467242 0.902942 2.296704 0 0 0 116 65 82 255 
-0.5490512 0.05787661 4.754988 0 0 0 110 93 83 255 
-0.31551 -0.004173499 4.778613 0 0 0 140 130 118 255 
-1.480962 0.818563 4.124949 0 0 0 130 121 112 255 
-0.1668504 0.1949759 4.584885 0 0 0 138 124 111 255 
-1.792292 1.432381 3.751009 0 0 0 146 137 130 255 
-0.6110795 0.05595567 4.723554 0 0 0 105 91 80 255 
-1.601782 1.481529 3.686134 0 0 0 128 119 114 255 
-1.279802 1.565699 3.567284 0 0 0 114 103 97 255 
-0.9907891 1.553275 3.724092 0 0 0 129 121 118 255 
-0.7685508 1.581277 3.790926 0 0 0 135 127 124 255 
-1.057291 2.285996 3.085453 0 0 0 163 155 152 255 
0.6559108 1.890815 3.816348 0 0 0 157 152 149 255 
0.3279097 2.274574 3.408516 0 0 0 224 173 214 255 
-0.9839007 2.919194 2.481643 0 0 0 171 167 166 255 
0.1355294 2.819934 2.820651 0 0 0 124 119 116 255 
0.6472666 0.9034762 2.297037 0 0 0 116 65 82 255 
0.7079964 1.846639 3.38809 0 0 0 172 99 116 255 
0.3249763 2.210851 3.366673 0 0 0 229 168 212 255 
-0.8707975 2.072755 3.27683 0 0 0 135 130 127 255 
0.7189687 2.019933 3.586108 0 0 0 159 94 112 255 
-0.8438732 1.567258 3.783936 0 0 0 87 83 80 255 
0.3222343 2.275607 3.426069 0 0 0 125 74 121 255 
-0.06824762 0.9804673 4.17674 0 0 0 148 141 135 255 
0.3641281 2.642723 3.448917 0 0 0 174 169 166 255 
-1.123831 2.788236 2.608888 0 0 0 194 192 193 255 
0.3268578 2.262852 3.45993 0 0 0 222 163 209 255 
-0.4329722 2.401102 3.136245 0 0 0 167 162 157 255 
-0.6237187 2.385451 3.024108 0 0 0 168 161 153 255 
0.4442661 2.156455 3.71364 0 0 0 141 140 138 255 
0.4253397 2.045077 3.501863 0 0 0 143 171 187 255 
0.65426 1.887181 3.815029 0 0 0 157 152 149 255 
0.4917458 2.110573 3.771598 0 0 0 159 155 154 255 
-0.4613164 2.11735 3.33123 0 0 0 190 181 176 255 
-1.374992 2.322629 2.869947 0 0 0 203 195 192 255 
-1.503373 2.24156 3.075264 0 0 0 176 172 171 255 
0.5470741 0.8421891 4.185194 0 0 0 174 164 154 255 
-0.8997875 1.751219 3.436811 0 0 0 164 160 157 255 
0.5830533 0.6990823 4.253429 0 0 0 138 128 118 255 
-0.7093693 1.394709 3.920125 0 0 0 150 147 140 255 
-1.134159 1.757604 3.377474 0 0 0 164 159 155 255 
-0.4465495 1.512803 3.864378 0 0 0 122 117 113 255 
-0.7381929 1.533585 3.825081 0 0 0 139 134 131 255 
-0.04876244 0.8763646 4.246325 0 0 0 134 124 115 255 
-0.8933956 1.476162 3.846664 0 0 0 112 102 100 255 
-0.5634333 0.9892107 4.07833 0 0 0 153 143 134 255 
-0.1628093 1.061224 4.159348 0 0 0 101 91 82 255 
-0.7821938 0.947388 4.088573 0 0 0 147 140 134 255 
-1.601597 1.47852 3.684711 0 0 0 128 119 114 255 
-0.7329621 0.8822685 4.162407 0 0 0 165 158 152 255 
-0.7916852 0.9107279 4.1286 0 0 0 136 127 120 255 
-1.372737 1.334589 3.858902 0 0 0 120 115 112 255 
-1.858032 1.510288 3.577103 0 0 0 147 138 129 255 
-1.844066 1.475223 3.64003 0 0 0 104 95 88 255 
-0.9711643 0.8226237 4.338931 0 0 0 147 138 133 255 
-1.554082 0.6487908 4.398409 0 0 0 141 134 126 255 
-1.695766 0.6903188 4.323195 0 0 0 149 146 139 255 
-0.5521443 2.318357 3.143099 0 0 0 170 169 167 255 
-0.7230078 1.789407 3.466475 0 0 0 103 98 94 255 
-1.556393 2.162186 3.143453 0 0 0 150 148 149 255 
-0.9813562 1.090415 3.985034 0 0 0 131 128 123 255 
-0.8963189 0.8867146 4.191978 0 0 0 160 152 141 255 
-0.5263578 0.6666465 4.438743 0 0 0 121 110 106 255 
-0.8654833 0.7915733 4.375292 0 0 0 169 164 158 255 
-0.9653826 0.5886545 4.205537 0 0 0 174 169 165 255 
-1.144332 0.7784714 4.340603 0 0 0 100 93 85 255 
0.2845795 1.1899 2.172979 0 0 0 208 152 194 255 
-0.2993892 -0.02412226 4.832845 0 0 0 101 87 78 255 
-0.1962062 -0.09930341 4.954141 0 0 0 96 80 67 255 
0.8296899 3.146497 2.181282 0 0 0 139 138 136 255 
2.05165 1.613534 3.51144 0 0 0 177 168 161 255 
-0.1409986 -0.1091388 4.946727 0 0 0 107 95 83 255 
0.280651 1.122957 2.113984 0 0 0 53 32 47 255 
3.53301 1.944658 3.334254 0 0 0 112 107 101 255 
0.07920323 3.614652 1.77216 0 0 0 183 179 178 255 
0.8294387 3.145696 2.181767 0 0 0 139 138 136 255 
2.349059 2.342906 3.041193 0 0 0 139 130 123 255 
1.384722 1.258081 3.841622 0 0 0 161 154 146 255 
-1.442544 2.17099 3.147677 0 0 0 161 161 161 255 
0.3714066 1.902268 3.238069 0 0 0 66 85 99 255 
-0.5997655 1.444988 3.916192 0 0 0 99 95 91 255 
0.7303571 3.682227 1.72596 0 0 0 147 136 129 255 
0.6651573 0.7450951 4.222631 0 0 0 187 183 180 255 
0.4605335 0.7384537 1.851354 0 0 0 170 188 192 255 
1.038343 2.139246 3.703296 0 0 0 162 155 149 255 
1.280722 1.637406 3.60528 0 0 0 184 180 177 255 
-0.4548227 1.426272 3.89339 0 0 0 124 120 117 255 
-0.9250673 1.520109 3.796181 0 0 0 108 103 97 255 
-0.7702227 0.7722771 4.359921 0 0 0 158 151 141 255 
-0.3644977 1.169484 4.01795 0 0 0 114 105 96 255 
-1.057751 0.7356986 4.391888 0 0 0 176 172 161 255 
0.3434381 2.012276 3.366171 0 0 0 173 195 208 255 
-0.9855906 1.000705 4.024999 0 0 0 159 152 144 255 
0.3320192 2.044061 3.273949 0 0 0 201 223 238 255 
-0.6203882 0.7847787 4.361822 0 0 0 96 87 82 255 
4.259863 2.954079 2.386642 0 0 0 179 171 168 255 
3.949313 2.715628 2.630259 0 0 0 156 148 145 255 
-0.6227894 1.663032 3.595645 0 0 0 120 116 113 255 
-0.2313862 1.528594 3.887516 0 0 0 121 116 110 255 
0.8637002 3.377525 2.039215 0 0 0 184 183 181 255 
0.695572 1.75532 3.839657 0 0 0 176 172 169 255 
-1.363259 1.233984 3.89964 0 0 0 166 159 151 255 
-0.7539819 0.28404 4.562291 0 0 0 121 112 105 255 
-1.362712 1.239891 3.90268 0 0 0 166 159 151 255 
1.628181 1.604551 3.664616 0 0 0 149 140 131 255 
0.6410426 1.564989 3.058892 0 0 0 142 84 109 255 
0.4552212 0.8604704 4.200956 0 0 0 184 175 168 255 
-0.1073261 1.527189 3.867743 0 0 0 117 112 108 255 
-0.6425217 1.703061 3.530887 0 0 0 170 165 161 255 
0.0824124 0.8715981 4.234923 0 0 0 171 167 160 255 
0.4580335 1.704828 3.161823 0 0 0 59 77 99 255 
0.03669368 0.9372221 4.203544 0 0 0 163 154 145 255 
-0.7915869 0.9331704 4.113728 0 0 0 165 156 147 255 
0.5781772 1.232 2.729577 0 0 0 169 98 128 255 
-0.1073261 1.527189 3.867743 0 0 0 117 112 108 255 
-1.266179 0.8399419 4.152625 0 0 0 121 112 105 255 
-1.266448 0.8390672 4.151345 0 0 0 121 112 105 255 
-1.250494 0.7843997 4.265902 0 0 0 169 160 145 255 
-1.130644 0.7703997 4.366836 0 0 0 112 105 99 255 
-1.641587 1.462074 3.721153 0 0 0 99 91 88 255 
1.507315 2.130947 3.393841 0 0 0 125 121 112 255 
-1.602737 1.617439 3.419083 0 0 0 124 117 111 255 
-1.104243 1.396501 3.703425 0 0 0 114 109 105 255 
-1.26558 0.6756077 4.43569 0 0 0 108 101 95 255 
0.2869045 1.574227 2.613615 0 0 0 138 80 126 255 
-0.6284149 1.599178 3.721784 0 0 0 121 111 101 255 
0.866978 3.101267 2.241319 0 0 0 186 182 179 255 
-0.7915801 1.77791 3.436857 0 0 0 103 98 95 255 
-0.8451702 1.74445 3.453675 0 0 0 166 163 158 255 
-0.1867368 0.5937496 4.499195 0 0 0 113 102 96 255 
-1.63526 1.654982 3.378834 0 0 0 155 148 142 255 
-0.5473731 0.7739612 4.359158 0 0 0 147 138 129 255 
-1.072407 1.089614 3.975213 0 0 0 142 135 127 255 
-0.5055473 0.09153591 4.639723 0 0 0 155 145 136 255 
-0.8912653 0.7576612 4.391562 0 0 0 136 129 122 255 
0.270303 1.075365 2.060038 0 0 0 151 104 151 255 
0.2753201 1.179786 2.176287 0 0 0 174 122 168 255 
0.275327 1.221749 2.197361 0 0 0 248 174 220 255 
0.8036162 3.118991 2.201161 0 0 0 167 166 164 255 
2.061666 1.298212 3.871388 0 0 0 179 172 166 255 
1.660736 1.325593 3.84401 0 0 0 183 180 175 255 
1.267869 0.8325938 4.136746 0 0 0 180 175 171 255 
-0.4002778 1.231764 4.011199 0 0 0 120 111 104 255 
-1.75788 0.6512327 4.310195 0 0 0 134 122 108 255 
-1.428518 0.6340857 4.438456 0 0 0 156 149 139 255 
0.252412 1.069298 1.916927 0 0 0 167 204 212 255 
-0.3127435 1.122859 4.050882 0 0 0 159 151 140 255 
4.206058 1.780866 3.302716 0 0 0 129 118 112 255 
-0.7692484 1.627713 3.60464 0 0 0 155 146 139 255 
0.2282763 0.4725164 4.40624 0 0 0 143 129 118 255 
-1.739214 1.435331 3.747943 0 0 0 139 132 124 255 
-1.372497 1.448034 3.745293 0 0 0 152 147 143 255 
-0.7301963 1.018293 4.046173 0 0 0 163 153 143 255 
-1.740734 1.439495 3.750037 0 0 0 139 132 124 255 
-1.222654 0.8392543 4.153843 0 0 0 169 160 151 255 
0.4231831 0.3527175 4.416188 0 0 0 128 115 106 255 
0.2233275 0.9729718 4.147444 0 0 0 144 135 126 255 
-0.5353208 2.101464 3.320695 0 0 0 153 144 139 255 
-1.833456 1.267282 3.868544 0 0 0 168 159 152 255 
-0.5406263 1.657331 3.620047 0 0 0 163 158 154 255 
-0.540438 1.657553 3.620273 0 0 0 163 158 154 255 
1.064878 3.606572 1.897108 0 0 0 183 179 176 255 
-1.841604 1.485333 3.642638 0 0 0 115 106 97 255 
-1.841347 1.484021 3.642606 0 0 0 115 106 97 255 
0.2757127 1.176079 2.140826 0 0 0 250 172 222 255 
-1.778106 1.611378 3.412267 0 0 0 118 109 104 255 
-0.7190484 1.477217 3.870175 0 0 0 137 132 126 255 
0.29223 1.11626 2.170076 0 0 0 180 124 173 255 
2.925009 2.360702 2.870211 0 0 0 147 139 136 255 
-1.245577 0.5790475 4.472739 0 0 0 0 0 0 255 
0.2836274 1.399536 2.340009 0 0 0 204 150 192 255 
0.2856779 1.244237 2.292519 0 0 0 247 171 221 255 
0.2901673 1.182584 2.254599 0 0 0 175 127 170 255 
0.290079 1.111758 2.119784 0 0 0 0 0 0 255 
0.2914313 1.160305 2.225203 0 0 0 187 130 175 255 
-1.666485 0.6131489 4.423453 0 0 0 167 164 157 255 
-1.23455 0.2153292 4.668258 0 0 0 101 91 82 255 
-1.135145 0.6447466 4.457494 0 0 0 148 141 135 255 
-0.4879302 2.961064 2.562004 0 0 0 153 152 150 255 
-1.841346 1.483976 3.64246 0 0 0 115 106 97 255 
-1.208547 0.9509214 4.072466 0 0 0 143 134 125 255 
-1.002392 0.863965 4.249728 0 0 0 166 160 150 255 
-0.8636264 0.8293987 4.339783 0 0 0 113 104 99 255 
-1.382225 1.388551 3.820671 0 0 0 141 136 132 255 
-1.001717 1.414278 3.864099 0 0 0 160 153 145 255 
-1.306107 1.547463 3.589769 0 0 0 159 150 141 255 
-0.5754476 0.899209 4.13316 0 0 0 110 101 94 255 
-0.7186436 1.478072 3.870552 0 0 0 137 132 126 255 
-0.9477714 1.593244 3.669585 0 0 0 156 151 139 255 
-0.4851649 1.500311 3.866036 0 0 0 123 118 114 255 
-0.4648671 1.610693 3.712615 0 0 0 126 116 107 255 
-0.2832761 1.561954 3.787849 0 0 0 167 158 151 255 
-0.6041912 2.081751 3.332828 0 0 0 179 178 174 255 
-0.7818654 2.339803 3.00901 0 0 0 177 169 166 255 
0.7293637 1.747176 3.834334 0 0 0 182 178 175 255 
-0.3772408 2.924296 2.587896 0 0 0 197 196 194 255 
-0.2374221 2.873933 2.639826 0 0 0 195 195 195 255 
0.3679422 1.733069 3.080118 0 0 0 184 207 223 255 
0.5116565 1.521516 3.006547 0 0 0 175 186 186 255 
0.7464802 3.116548 2.225711 0 0 0 187 186 184 255 
0.2870633 1.521711 2.580757 0 0 0 129 71 119 255 
3.652547 1.809125 3.425283 0 0 0 174 171 166 255 
0.2773469 1.411512 2.426675 0 0 0 246 179 230 255 
0.2561208 0.9909874 1.859773 0 0 0 202 202 208 255 
2.203157 1.939603 3.237638 0 0 0 171 166 160 255 
0.6289728 1.967839 3.527601 0 0 0 130 95 99 255 
-1.19286 2.256046 3.117754 0 0 0 193 189 188 255 
-0.3073761 0.6465936 4.473602 0 0 0 127 118 111 255 
-1.853374 3.641369 1.887021 0 0 0 145 145 145 255 
-1.577178 1.485631 3.653204 0 0 0 142 138 127 255 
0.2687478 1.107423 2.049848 0 0 0 240 172 219 255 
0.2849061 1.12011 2.145253 0 0 0 240 170 220 255 
0.9534829 1.478223 2.647527 0 0 0 132 78 101 255 
2.220926 2.158188 3.094871 0 0 0 160 155 151 255 
0.3005454 1.525962 2.656544 0 0 0 190 136 185 255 
0.6494653 3.089403 2.270358 0 0 0 167 162 159 255 
0.3944687 1.9275 2.590813 0 0 0 165 163 164 255 
0.2886324 1.68391 2.677205 0 0 0 210 174 210 255 
0.5627656 2.972806 2.517178 0 0 0 185 180 176 255 
1.148576 2.860168 2.905284 0 0 0 222 236 245 255 
-0.4513435 3.052343 2.295727 0 0 0 170 166 165 255 
1.768337 0.9178128 4.184567 0 0 0 126 119 111 255 
0.325516 2.036518 3.236333 0 0 0 189 138 176 255 
-0.4431159 2.849177 2.645922 0 0 0 203 201 202 255 
0.6288209 1.93144 3.491922 0 0 0 141 97 100 255 
1.299508 0.9124207 4.105931 0 0 0 155 145 136 255 
-0.9370161 2.319732 3.033399 0 0 0 166 157 152 255 
-0.8708006 1.8845 3.363325 0 0 0 182 179 172 255 
-0.01581166 1.102265 4.04765 0 0 0 176 169 161 255 
-0.04757894 1.086411 4.060802 0 0 0 140 126 117 255 
0.1138867 0.8374169 4.260539 0 0 0 175 169 163 255 
-0.5610982 1.541156 3.828158 0 0 0 157 144 135 255 
0.07584953 0.4463316 4.507272 0 0 0 152 142 132 255 
-0.5772674 0.9997337 4.071145 0 0 0 125 116 109 255 
-0.4595381 0.6681252 4.445727 0 0 0 159 149 140 255 
-1.565086 1.440458 3.758279 0 0 0 115 110 106 255 
-1.508996 1.377915 3.8148 0 0 0 158 153 147 255 
-1.906174 1.409155 3.784823 0 0 0 127 118 109 255 
-1.331989 0.6912234 4.391395 0 0 0 169 162 152 255 
-1.205692 0.2424285 4.63426 0 0 0 104 94 84 255 
-1.29588 0.3189931 4.611186 0 0 0 105 95 85 255 
-1.298343 0.3080628 4.620255 0 0 0 133 123 114 255 
-1.65509 0.6306029 4.355698 0 0 0 129 117 103 255 
-1.19276 2.256339 3.117796 0 0 0 193 189 188 255 
-0.3073761 0.6465936 4.473602 0 0 0 127 118 111 255 
-1.577415 1.485645 3.6529 0 0 0 142 138 127 255 
-1.554362 0.5692188 4.450943 0 0 0 167 157 147 255 
0.6147292 2.971292 2.513766 0 0 0 159 154 151 255 
0.5627656 2.972806 2.517178 0 0 0 185 180 176 255 
0.1789873 2.778266 2.971605 0 0 0 128 123 120 255 
-1.207242 2.303767 3.059793 0 0 0 146 139 133 255 
-0.3068631 1.398749 3.926666 0 0 0 147 140 130 255 
-1.07042 1.616979 3.532681 0 0 0 127 116 112 255 
-1.561449 1.516804 3.569351 0 0 0 133 122 116 255 
-1.577768 1.254204 3.87545 0 0 0 171 166 162 255 
4.518771 3.383126 2.18183 0 0 0 69 65 62 255 
-1.197646 0.7060184 4.413806 0 0 0 140 132 125 255 
-1.238274 0.7545633 4.324873 0 0 0 132 121 112 255 
-1.336906 0.7937558 4.182365 0 0 0 166 159 149 255 
-1.896487 1.465829 3.693027 0 0 0 150 139 133 255 
-1.379025 0.8800786 4.095685 0 0 0 137 128 119 255 
-1.762545 1.400229 3.795426 0 0 0 118 109 102 255 
-1.648216 1.377803 3.800783 0 0 0 148 139 132 255 
-0.9092171 0.6819669 4.433743 0 0 0 168 162 150 255 
-1.771586 1.487411 3.630077 0 0 0 112 104 93 255 
-2.085517 3.594753 1.76618 0 0 0 130 129 124 255 
-1.684469 1.490951 3.636539 0 0 0 148 141 133 255 
-0.8903101 0.8548216 4.296525 0 0 0 44 39 33 255 
-0.6933297 0.701553 4.4212 0 0 0 157 150 140 255 
-1.660822 1.507499 3.595358 0 0 0 140 133 125 255 
-1.097282 0.9627733 4.06086 0 0 0 139 130 122 255 
-0.7171392 0.8132886 4.341707 0 0 0 169 163 151 255 
-1.061933 1.077034 3.987832 0 0 0 136 127 120 255 
-1.580503 1.566291 3.466125 0 0 0 166 162 153 255 
-1.518752 1.540801 3.500496 0 0 0 122 112 102 255 
-0.8321229 0.9719476 4.063953 0 0 0 170 160 151 255 
-0.3658299 0.6904873 4.439833 0 0 0 149 141 130 255 
-0.3739109 0.7070501 4.419292 0 0 0 167 157 147 255 
-0.4961218 0.8600183 4.181531 0 0 0 158 151 141 255 
0.1541323 0.4546588 4.470004 0 0 0 118 105 96 255 
-0.02432646 0.8975186 4.226444 0 0 0 161 154 146 255 
-1.042423 1.781268 3.39663 0 0 0 158 153 149 255 
3.97174 1.824019 3.382875 0 0 0 141 134 128 255 
-0.5485616 1.574666 3.76141 0 0 0 143 134 125 255 
-0.5912484 1.638454 3.627653 0 0 0 123 114 107 255 
-0.9377341 1.861009 3.344902 0 0 0 177 170 164 255 
0.2903837 0.8221359 4.260373 0 0 0 162 157 151 255 
-0.5304531 1.722046 3.577861 0 0 0 174 169 163 255 
0.4845265 0.7618302 4.267381 0 0 0 146 137 130 255 
0.493299 0.9058096 4.15988 0 0 0 160 150 140 255 
0.651575 0.7887174 4.201694 0 0 0 178 171 165 255 
0.3236274 2.442057 3.537628 0 0 0 171 133 174 255 
0.3203579 2.291233 3.425011 0 0 0 131 77 126 255 
0.9127414 1.594762 3.873458 0 0 0 161 155 151 255 
0.3622834 2.068174 3.415531 0 0 0 168 177 176 255 
0.3228271 2.234062 3.38645 0 0 0 184 130 179 255 
0.3757488 2.798234 3.097459 0 0 0 143 140 135 255 
1.031618 2.062228 3.116964 0 0 0 173 191 193 255 
0.3005439 1.715318 2.828608 0 0 0 243 187 227 255 
0.294909 1.559499 2.658896 0 0 0 248 176 224 255 
-0.8985654 1.105457 3.987445 0 0 0 104 95 86 255 
0.301957 1.74155 2.856771 0 0 0 241 190 227 255 
1.691368 1.475417 3.821058 0 0 0 120 117 112 255 
-0.2539313 1.474408 3.896035 0 0 0 114 111 106 255 
-0.02432646 0.8975186 4.226444 0 0 0 161 154 146 255 
-1.569942 1.517205 3.548306 0 0 0 144 134 128 255 
-1.74369 1.52013 3.553079 0 0 0 148 139 130 255 
-1.74369 1.52013 3.553079 0 0 0 148 139 130 255 
-1.648357 1.381981 3.802722 0 0 0 148 139 132 255 
-1.987681 1.274867 3.898208 0 0 0 136 127 118 255 
-1.283669 0.2875479 4.627422 0 0 0 117 107 97 255 
0.1365045 0.9225826 4.217586 0 0 0 169 162 157 255 
-1.998951 0.7360527 4.139773 0 0 0 147 133 122 255 
-1.680284 0.5949531 4.456272 0 0 0 140 124 108 255 
-1.760518 0.6517148 4.346653 0 0 0 124 108 93 255 
-1.709253 0.6368783 4.375784 0 0 0 161 153 142 255 
-1.083324 2.209002 3.152404 0 0 0 186 182 179 255 
-1.589316 0.5723808 4.471216 0 0 0 170 160 150 255 
-1.577657 0.5943788 4.433525 0 0 0 166 159 151 255 
-1.534762 0.5705202 4.478292 0 0 0 123 109 100 255 
-1.283015 0.2892241 4.628851 0 0 0 117 107 97 255 
-1.16997 0.2793811 4.603743 0 0 0 141 131 122 255 
0.07234595 3.234169 2.159691 0 0 0 160 155 152 255 
0.3019166 1.477753 2.632405 0 0 0 204 212 218 255 
-0.6966016 2.805983 2.639046 0 0 0 197 193 192 255 
0.9019372 3.079923 2.249487 0 0 0 187 182 178 255 
-0.5527733 0.8710558 4.155733 0 0 0 155 147 136 255 
0.6721272 3.540274 1.622679 0 0 0 160 156 155 255 
0.9237534 3.159306 2.160892 0 0 0 155 154 152 255 
0.3749311 2.199633 3.570356 0 0 0 151 156 162 255 
-1.33508 0.7538623 4.274933 0 0 0 153 141 129 255 
2.490611 1.761791 3.289503 0 0 0 153 148 142 255 
2.229288 2.261837 2.982027 0 0 0 149 144 140 255 
0.7779027 3.632183 1.882953 0 0 0 146 142 141 255 
-1.365956 1.506119 3.702193 0 0 0 127 117 108 255 
-1.581976 1.539473 3.513849 0 0 0 109 96 90 255 
0.6278521 0.948228 2.352171 0 0 0 179 111 136 255 
2.486613 1.759315 3.289312 0 0 0 153 148 142 255 
1.15063 1.019575 4.001958 0 0 0 170 161 154 255 
0.3138435 1.958403 3.080843 0 0 0 228 171 206 255 
-0.5889094 -0.1141113 4.995255 0 0 0 157 145 145 255 
0.4196075 1.823516 3.250522 0 0 0 171 190 199 255 
0.4948585 0.7731232 4.246006 0 0 0 184 175 168 255 
0.1209632 2.667001 3.183452 0 0 0 144 137 131 255 
0.5601667 1.965934 3.810472 0 0 0 171 170 167 255 
0.6165065 0.6872427 4.248519 0 0 0 157 150 142 255 
-0.6031932 0.8213927 4.307876 0 0 0 111 98 90 255 
-0.7719163 2.563781 2.759903 0 0 0 166 161 157 255 
-1.005972 2.22202 3.168842 0 0 0 166 162 159 255 
-1.301947 2.273194 3.048596 0 0 0 169 164 160 255 
-0.4414569 1.588631 3.731861 0 0 0 158 152 140 255 
-0.7720432 1.650127 3.570273 0 0 0 112 103 94 255 
-1.006004 1.765199 3.406464 0 0 0 129 122 116 255 
-0.09836813 1.02393 4.172873 0 0 0 102 91 85 255 
-0.5844447 1.407094 3.935959 0 0 0 108 103 98 255 
-1.198009 1.55548 3.626308 0 0 0 122 112 103 255 
-0.2255706 0.6342949 4.482539 0 0 0 113 103 93 255 
-1.397393 0.9123563 4.073527 0 0 0 170 161 154 255 
-1.409546 1.484962 3.721008 0 0 0 110 101 96 255 
-1.042153 0.9471319 4.081304 0 0 0 118 108 99 255 
-1.702557 1.427449 3.766772 0 0 0 147 140 132 255 
-0.9984994 0.7587188 4.392259 0 0 0 138 128 119 255 
-1.91206 1.487251 3.589319 0 0 0 119 109 100 255 
0.4447012 1.249625 4.038029 0 0 0 190 183 175 255 
-2.022588 1.430746 3.598228 0 0 0 147 138 129 255 
-2.001925 1.322061 3.830054 0 0 0 156 147 140 255 
-1.277869 0.7078514 4.387507 0 0 0 167 164 155 255 
-1.383585 0.699097 4.341026 0 0 0 140 131 121 255 
-1.370544 0.6854773 4.390668 0 0 0 121 112 105 255 
-1.375179 0.367529 4.607028 0 0 0 144 134 124 255 
-1.534651 0.552831 4.535241 0 0 0 166 156 144 255 
0.8804714 3.536204 2.037108 0 0 0 0 0 0 255 
-1.701295 0.6419969 4.35128 0 0 0 141 131 121 255 
-1.700873 0.642005 4.350994 0 0 0 141 131 121 255 
-1.500681 0.4654196 4.587319 0 0 0 131 117 108 255 
-1.705696 0.6279486 4.399601 0 0 0 166 157 147 255 
-1.699383 0.623544 4.412851 0 0 0 111 102 93 255 
-1.786155 0.6551255 4.316618 0 0 0 128 119 102 255 
-1.736828 0.6317236 4.398465 0 0 0 161 157 145 255 
-0.7667461 0.8991765 4.138354 0 0 0 136 125 119 255 
-1.2316 1.499127 3.745434 0 0 0 124 115 108 255 
-1.613753 1.681639 3.37634 0 0 0 163 156 150 255 
-0.2260275 0.6336777 4.481976 0 0 0 113 103 93 255 
-0.05123074 0.403413 4.549236 0 0 0 133 120 111 255 
-1.231304 1.562711 3.58859 0 0 0 161 151 141 255 
-0.485141 0.8765509 4.163773 0 0 0 162 155 147 255 
-1.432798 1.711943 3.368227 0 0 0 133 128 124 255 
-0.3145271 0.8331549 4.236302 0 0 0 115 106 97 255 
-0.2335634 1.037119 4.193112 0 0 0 167 159 148 255 
-0.2026409 1.011247 4.211242 0 0 0 124 114 105 255 
-0.7129887 1.33791 3.93715 0 0 0 157 154 147 255 
-0.8670144 1.616538 3.658422 0 0 0 150 141 132 255 
-0.831489 1.604836 3.677731 0 0 0 161 154 144 255 
-0.3446233 1.237572 3.995195 0 0 0 125 112 104 255 
-0.09802906 1.024371 4.174227 0 0 0 102 91 85 255 
-0.6061485 1.587168 3.748627 0 0 0 140 130 121 255 
0.2250008 0.4826944 4.407459 0 0 0 127 117 105 255 
-0.331852 1.406958 3.923584 0 0 0 148 141 133 255 
0.2629951 0.4566543 4.410097 0 0 0 132 120 108 255 
-0.2029619 1.140006 4.019913 0 0 0 123 110 101 255 
-1.416285 1.496829 3.685279 0 0 0 113 104 95 255 
-0.1582729 1.152065 4.004112 0 0 0 121 111 102 255 
0.2998564 0.4671455 4.382705 0 0 0 173 165 154 255 
1.77741 1.388328 3.843728 0 0 0 122 118 115 255 
-0.9103439 1.816579 3.385396 0 0 0 172 169 164 255 
-0.0423974 0.6839123 4.349769 0 0 0 122 109 101 255 
-0.4411437 1.588696 3.732682 0 0 0 158 152 140 255 
-0.2201719 1.437476 3.906439 0 0 0 120 113 107 255 
0.1756077 0.9943056 4.141417 0 0 0 137 124 113 255 
0.2585726 0.9036062 4.206264 0 0 0 132 122 113 255 
-0.1095161 1.525287 3.862616 0 0 0 117 112 108 255 
-0.892202 2.29337 3.122427 0 0 0 191 186 182 255 
-0.9328437 0.7536066 4.393166 0 0 0 126 121 113 255 
-0.8465724 2.298906 3.12036 0 0 0 163 155 152 255 
0.5923271 0.7054246 4.25106 0 0 0 155 146 139 255 
0.6154245 0.6861316 4.247993 0 0 0 157 150 142 255 
0.1461079 0.8675559 4.246762 0 0 0 193 184 179 255 
0.5372365 0.9011692 4.136304 0 0 0 189 184 178 255 
0.4035029 2.195966 3.712579 0 0 0 151 151 149 255 
0.8772604 0.8621323 4.130176 0 0 0 191 186 180 255 
0.333621 2.215877 3.42817 0 0 0 178 121 175 255 
1.845476 2.823482 2.518284 0 0 0 184 183 178 255 
0.6967731 1.979555 3.668863 0 0 0 164 159 155 255 
1.512109 0.7384008 4.266652 0 0 0 149 142 132 255 
-0.6475981 0.7916244 4.363179 0 0 0 141 130 124 255 
-0.3665941 2.845134 2.665061 0 0 0 203 201 202 255 
-0.3055808 2.838046 2.67736 0 0 0 200 200 200 255 
1.930455 1.015279 4.160578 0 0 0 124 115 108 255 
1.759637 1.513748 3.86366 0 0 0 171 170 166 255 
2.037444 1.098603 4.05715 0 0 0 131 122 115 255 
0.3068365 1.860405 3.003532 0 0 0 228 171 212 255 
0.5331306 1.602493 3.096167 0 0 0 131 137 137 255 
2.439507 1.016323 3.962421 0 0 0 136 131 125 255 
2.37387 1.502832 3.70369 0 0 0 177 172 168 255 
-1.203294 0.7181435 4.396591 0 0 0 103 94 85 255 
0.8441743 0.8645487 4.122569 0 0 0 162 157 153 255 
-1.697392 0.5899122 4.475424 0 0 0 164 157 146 255 
-1.799147 0.6489912 4.33945 0 0 0 132 123 108 255 
-1.735778 0.6361477 4.401094 0 0 0 161 157 145 255 
-1.659359 0.5806731 4.480454 0 0 0 133 123 111 255 
-1.88641 0.6876582 4.202121 0 0 0 148 136 124 255 
-1.452811 0.3681848 4.641094 0 0 0 157 153 143 255 
-1.691617 0.611124 4.432355 0 0 0 132 123 108 255 
2.11273 1.743874 3.544271 0 0 0 150 142 139 255 
-1.606526 0.5577635 4.491122 0 0 0 169 162 148 255 
-1.704479 0.6320465 4.387794 0 0 0 138 128 116 255 
-1.618579 0.5781845 4.464961 0 0 0 174 164 154 255 
-1.712141 0.6434435 4.347919 0 0 0 169 162 152 255 
-1.73221 0.6523193 4.321507 0 0 0 164 162 150 255 
-1.56841 0.5714102 4.481413 0 0 0 124 111 102 255 
-1.750571 0.673696 4.265588 0 0 0 158 154 142 255 
-0.5786116 -0.4295019 5.201513 0 0 0 170 159 157 255 
-1.703166 0.6547768 4.298222 0 0 0 137 127 118 255 
-1.375323 0.3679847 4.608207 0 0 0 144 134 124 255 
-1.537778 0.5770636 4.469018 0 0 0 167 158 146 255 
-1.327722 0.3489248 4.60576 0 0 0 106 96 86 255 
-1.272923 0.2929097 4.624895 0 0 0 140 130 121 255 
-1.20205 0.2746915 4.613181 0 0 0 100 90 80 255 
-1.177841 0.2701638 4.607358 0 0 0 104 94 84 255 
-1.755512 0.8125635 4.086073 0 0 0 152 145 137 255 
-1.736945 0.807784 4.099275 0 0 0 154 147 139 255 
-1.183817 0.3100298 4.588135 0 0 0 149 141 130 255 
-1.435405 0.663527 4.38866 0 0 0 157 149 138 255 
0.2626841 0.9074612 1.884691 0 0 0 158 102 143 255 
-1.708681 0.8331202 4.09951 0 0 0 157 149 138 255 
-2.026294 1.29517 3.887853 0 0 0 176 171 165 255 
-1.123592 0.2870201 4.58492 0 0 0 105 95 85 255 
-1.000721 0.1741903 4.645516 0 0 0 118 105 97 255 
-0.9882482 0.1716286 4.645594 0 0 0 152 142 133 255 
-0.9502025 0.1317863 4.6718 0 0 0 126 113 104 255 
2.437723 1.427166 3.754465 0 0 0 137 133 124 255 
-1.289222 0.6728225 4.42894 0 0 0 118 108 99 255 
-1.293607 0.6810232 4.419146 0 0 0 155 148 140 255 
-0.9742899 0.2012582 4.623358 0 0 0 125 116 111 255 
-1.913513 1.330592 3.854612 0 0 0 140 131 124 255 
-2.074222 1.392241 3.655193 0 0 0 147 138 129 255 
-1.765319 1.191377 3.907305 0 0 0 151 143 132 255 
-1.203294 0.7181435 4.396591 0 0 0 103 94 85 255 
-1.961442 1.435653 3.697853 0 0 0 120 111 104 255 
-2.022588 1.430746 3.598228 0 0 0 147 138 129 255 
-1.026225 0.5793586 4.466253 0 0 0 178 169 160 255 
-1.155065 0.7774894 4.354172 0 0 0 140 134 127 255 
-1.896267 2.908873 2.467076 0 0 0 185 183 184 255 
-1.938584 1.462613 3.594113 0 0 0 118 109 100 255 
0.5759647 1.350156 2.826088 0 0 0 163 168 164 255 
-1.702725 1.427145 3.766694 0 0 0 147 140 132 255 
-0.7270262 0.4198108 4.517006 0 0 0 156 143 134 255 
-1.638464 1.427305 3.771068 0 0 0 154 147 141 255 
-1.759775 1.506259 3.580866 0 0 0 107 96 90 255 
-1.611527 1.472848 3.689661 0 0 0 103 94 87 255 
-0.869367 0.862896 4.294362 0 0 0 150 144 137 255 
-0.5297633 0.3837663 4.535601 0 0 0 146 134 122 255 
-1.517403 1.466945 3.723037 0 0 0 118 109 102 255 
-1.428595 1.422769 3.794565 0 0 0 133 132 127 255 
-0.1804271 1.05924 4.178133 0 0 0 137 126 122 255 
-1.212968 1.12885 3.953517 0 0 0 166 157 148 255 
-1.078652 0.9861714 4.057532 0 0 0 126 119 109 255 
-0.7675979 0.8210686 4.332141 0 0 0 161 152 142 255 
-1.030906 0.9410468 4.086936 0 0 0 162 153 144 255 
-0.541652 0.6645264 4.440896 0 0 0 122 113 108 255 
-2.166225 1.02892 4.002499 0 0 0 149 140 131 255 
-1.79068 0.6516654 4.324107 0 0 0 157 148 136 255 
-1.759559 0.6515749 4.332989 0 0 0 150 138 124 255 
-1.063633 0.04292412 4.919234 0 0 0 85 75 65 255 
-1.540315 0.5772194 4.456685 0 0 0 140 127 118 255 
-1.418883 0.5186895 4.526738 0 0 0 138 126 118 255 
-2.086894 1.182839 3.933063 0 0 0 139 130 121 255 
-2.048333 1.149984 3.944611 0 0 0 153 144 135 255 
-1.833892 0.8927963 4.029397 0 0 0 138 130 119 255 
-2.066531 1.314553 3.809819 0 0 0 157 151 139 255 
-1.905679 1.207225 3.921992 0 0 0 147 136 130 255 
-1.378193 0.6862062 4.368278 0 0 0 160 152 141 255 
-1.856232 1.205598 3.914336 0 0 0 145 137 130 255 
-1.264402 0.6848913 4.423066 0 0 0 106 99 93 255 
-1.806268 1.199483 3.925033 0 0 0 163 156 150 255 
-1.281601 0.7243704 4.364537 0 0 0 136 128 117 255 
-1.73655 1.230181 3.893934 0 0 0 139 132 124 255 
-0.9951714 0.5963029 4.462234 0 0 0 176 172 161 255 
-1.891576 1.489301 3.665282 0 0 0 114 104 95 255 
-1.607391 1.205738 3.895478 0 0 0 147 140 134 255 
-1.724732 1.41221 3.778728 0 0 0 103 96 90 255 
-1.921466 1.499724 3.568879 0 0 0 117 108 99 255 
-1.882812 1.496909 3.590162 0 0 0 119 109 99 255 
-1.051211 0.8290193 4.284441 0 0 0 165 161 152 255 
-1.720732 1.462413 3.715917 0 0 0 104 97 89 255 
-1.70779 1.465733 3.705909 0 0 0 113 106 100 255 
-1.218351 0.919423 4.083188 0 0 0 176 169 159 255 
-1.727103 1.483483 3.655366 0 0 0 113 106 98 255 
-1.739656 1.4901 3.61662 0 0 0 117 107 97 255 
-1.202629 0.9692163 4.052332 0 0 0 123 114 107 255 
-1.210522 0.9899872 4.031218 0 0 0 164 160 151 255 
0.3065185 1.700121 2.860476 0 0 0 213 205 226 255 
-1.707768 1.555459 3.4658 0 0 0 156 147 140 255 
-0.5747281 0.7084138 4.418638 0 0 0 155 148 142 255 
-0.5591545 0.7097304 4.418699 0 0 0 116 109 101 255 
-1.495333 1.507372 3.628968 0 0 0 119 109 100 255 
-1.307293 1.462908 3.779767 0 0 0 103 98 92 255 
-1.054833 1.128231 3.964339 0 0 0 122 111 105 255 
-0.7720165 0.8823739 4.17637 0 0 0 135 123 111 255 
-0.4238695 0.6610688 4.45753 0 0 0 165 156 147 255 
-0.6632797 0.8697166 4.196075 0 0 0 134 122 110 255 
-0.5312028 0.8390904 4.239219 0 0 0 163 155 145 255 
-0.3214606 0.7166891 4.400535 0 0 0 110 96 85 255 
-1.091021 1.570928 3.656759 0 0 0 154 147 139 255 
-0.9450935 1.587435 3.671121 0 0 0 158 153 139 255 
-0.8612505 1.593055 3.705671 0 0 0 161 154 146 255 
-0.1671802 1.051547 4.179595 0 0 0 112 102 93 255 
0.06443881 0.632676 4.33734 0 0 0 171 163 152 255 
-1.0688 1.760839 3.395935 0 0 0 140 133 127 255 
-0.0498359 0.9875911 4.175672 0 0 0 157 146 140 255 
-1.20582 2.171085 3.166587 0 0 0 194 194 194 255 
-0.5240001 1.612313 3.688884 0 0 0 121 111 101 255 
-0.9917956 2.118721 3.224948 0 0 0 181 177 176 255 
0.3242819 0.8538836 4.249086 0 0 0 127 118 111 255 
-0.6578737 2.027636 3.380431 0 0 0 190 189 185 255 
0.2504147 1.243293 4.047259 0 0 0 160 152 149 255 
-1.044581 2.425115 2.820838 0 0 0 165 160 157 255 
0.3307058 2.32571 3.467795 0 0 0 229 162 213 255 
0.3367266 2.690849 3.354239 0 0 0 134 127 121 255 
1.000391 1.656121 3.784932 0 0 0 150 140 131 255 
0.4414404 1.812208 3.2616 0 0 0 164 184 195 255 
1.461598 0.9778972 3.968451 0 0 0 147 138 129 255 
-0.2149585 2.939236 2.529002 0 0 0 154 150 147 255 
0.341874 1.721752 3.000846 0 0 0 169 191 201 255 
0.3019726 1.640993 2.781772 0 0 0 203 152 197 255 
2.065384 2.132846 3.161252 0 0 0 138 133 127 255 
0.5914022 3.523951 1.961104 0 0 0 167 166 164 255 
1.33928 2.98832 2.368255 0 0 0 172 169 164 255 
1.13595 3.629424 1.829184 0 0 0 150 146 143 255 
3.651852 1.941318 3.334378 0 0 0 157 151 145 255 
0.2795221 1.181431 2.194597 0 0 0 160 96 143 255 
-1.289329 0.3129266 4.614193 0 0 0 107 94 86 255 
-1.810974 1.150768 3.93556 0 0 0 135 126 117 255 
0.1870217 0.9060896 4.232949 0 0 0 127 120 114 255 
-0.837907 0.8984992 4.166667 0 0 0 136 123 114 255 
-1.469338 1.453933 3.750344 0 0 0 96 93 88 255 
-1.810859 1.15028 3.935489 0 0 0 135 126 117 255 
-1.231121 0.6014399 4.48251 0 0 0 153 140 132 255 
-1.289329 0.3129266 4.614193 0 0 0 107 94 86 255 
0.2751701 1.18677 2.167737 0 0 0 133 86 131 255 
0.2879008 1.235869 2.242042 0 0 0 139 85 134 255 
0.6157247 1.132486 2.582232 0 0 0 177 104 134 255 
0.2815444 1.414867 2.470792 0 0 0 129 71 119 255 
1.28678 3.454269 2.002921 0 0 0 171 167 164 255 
0.9251304 3.542722 1.953846 0 0 0 170 169 167 255 
2.002924 1.457654 3.724821 0 0 0 168 161 153 255 
1.880532 1.522674 3.651178 0 0 0 136 125 116 255 
1.593254 1.704475 3.55591 0 0 0 187 182 178 255 
1.992742 1.293398 3.910438 0 0 0 135 131 127 255 
0.5406634 1.650287 3.158921 0 0 0 168 172 170 255 
0.3469674 1.755963 3.037738 0 0 0 152 162 171 255 
-0.7334251 2.942398 2.517395 0 0 0 183 182 180 255 
1.187604 0.9929933 4.031885 0 0 0 163 154 147 255 
0.5315216 0.3052368 4.50754 0 0 0 190 178 178 255 
1.253345 0.9310257 4.09875 0 0 0 155 146 141 255 
-0.7105349 2.850939 2.610132 0 0 0 171 169 170 255 
1.478665 0.6873495 4.307646 0 0 0 153 149 138 255 
0.971831 1.476788 3.896371 0 0 0 184 179 175 255 
0.3310142 2.325991 3.467824 0 0 0 229 162 213 255 
0.3273053 2.351803 3.534391 0 0 0 222 154 203 255 
0.3306109 2.340711 3.549346 0 0 0 219 158 202 255 
-0.3904998 2.427533 3.121604 0 0 0 142 132 130 255 
-0.3085744 2.373753 3.19733 0 0 0 158 154 151 255 
0.4588444 2.08103 3.80456 0 0 0 160 159 155 255 
0.3416225 2.20771 3.742003 0 0 0 172 170 171 255 
-1.043032 2.370822 2.874138 0 0 0 164 156 153 255 
-0.5992403 2.074077 3.352741 0 0 0 160 156 153 255 
-1.02755 2.317985 3.037658 0 0 0 185 180 176 255 
0.2511082 1.243426 4.047804 0 0 0 160 152 149 255 
0.4662549 0.7539604 4.259976 0 0 0 156 147 140 255 
-0.6947144 2.082972 3.339086 0 0 0 189 188 184 255 
-0.65587 2.035251 3.382182 0 0 0 190 189 185 255 
0.3485007 0.8985782 4.199709 0 0 0 158 146 136 255 
0.3756947 0.8588592 4.232265 0 0 0 138 128 121 255 
-0.3914002 1.616214 3.678592 0 0 0 176 169 163 255 
-0.9443688 2.067543 3.251359 0 0 0 132 131 129 255 
-0.7664186 1.806604 3.430774 0 0 0 133 128 124 255 
-0.1208085 1.302568 3.939312 0 0 0 175 170 164 255 
-0.2306066 1.474755 3.891147 0 0 0 145 142 137 255 
-1.178984 2.161199 3.167105 0 0 0 199 198 196 255 
-0.680087 1.65699 3.569796 0 0 0 95 90 86 255 
0.2001842 0.8074647 4.269742 0 0 0 167 160 152 255 
-0.5265229 1.608542 3.687056 0 0 0 121 111 101 255 
-0.7326663 -0.1016888 5.044239 0 0 0 183 171 171 255 
0.1147504 0.9428269 4.211925 0 0 0 139 130 123 255 
-0.3843711 1.533367 3.810003 0 0 0 154 145 136 255 
0.004270152 1.011191 4.133522 0 0 0 167 158 149 255 
-0.1543281 1.138857 4.014524 0 0 0 155 145 135 255 
-1.247081 2.191753 3.149245 0 0 0 167 166 164 255 
0.3509468 0.3822718 4.435512 0 0 0 159 147 135 255 
-0.9008874 1.72881 3.44118 0 0 0 126 121 118 255 
-0.3556689 1.501477 3.865203 0 0 0 127 118 109 255 
-1.388256 2.268738 3.065971 0 0 0 158 153 149 255 
-0.6900894 1.63612 3.621224 0 0 0 151 142 133 255 
-0.1506614 1.116722 4.050979 0 0 0 125 111 100 255 
-0.07800899 1.036803 4.122324 0 0 0 127 115 105 255 
0.2932139 0.417488 4.432606 0 0 0 166 156 146 255 
0.08507095 0.8461789 4.255117 0 0 0 159 150 143 255 
-0.0499947 0.9866536 4.176371 0 0 0 157 146 140 255 
-0.6055117 1.593121 3.734236 0 0 0 110 93 83 255 
-0.9614275 1.713145 3.457952 0 0 0 162 157 151 255 
-1.357904 2.207275 3.130655 0 0 0 186 182 181 255 
-0.7103373 1.608147 3.693378 0 0 0 116 106 97 255 
0.1898253 0.4470048 4.449421 0 0 0 160 152 141 255 
-0.1671802 1.051547 4.179595 0 0 0 112 102 93 255 
-0.5813351 1.528242 3.849147 0 0 0 120 107 98 255 
-0.4494223 1.29526 3.986351 0 0 0 131 127 118 255 
-0.4351999 1.214498 4.023537 0 0 0 163 156 146 255 
-1.067072 0.9555358 4.077572 0 0 0 164 155 146 255 
-0.2970878 1.078568 4.15226 0 0 0 124 110 101 255 
-0.8562832 1.592891 3.724365 0 0 0 112 103 96 255 
-0.9432002 1.590355 3.672047 0 0 0 158 153 139 255 
-0.6902207 1.358467 3.934549 0 0 0 118 113 107 255 
-0.1125339 0.6378513 4.425461 0 0 0 119 105 94 255 
-0.882798 1.51535 3.819269 0 0 0 98 92 88 255 
-0.5811484 1.013125 4.062123 0 0 0 160 151 142 255 
-1.090487 1.571754 3.656827 0 0 0 154 147 139 255 
-1.215471 1.575713 3.57317 0 0 0 148 139 132 255 
-0.6389433 0.9968121 4.060878 0 0 0 165 158 149 255 
-1.012573 1.541974 3.76819 0 0 0 102 94 91 255 
-0.1321356 0.5815703 4.483624 0 0 0 160 147 138 255 
-1.000074 1.528301 3.788407 0 0 0 101 94 86 255 
-0.4897928 0.8548403 4.197486 0 0 0 129 114 107 255 
-1.380106 1.577124 3.480344 0 0 0 155 148 140 255 
-0.2517751 0.6955907 4.416904 0 0 0 121 108 99 255 
-0.2086769 0.6233594 4.480277 0 0 0 141 132 125 255 
-1.033056 1.419002 3.853542 0 0 0 162 155 147 255 
-0.3979229 0.7532685 4.374156 0 0 0 157 146 136 255 
-0.1602053 0.3313177 4.556274 0 0 0 156 142 133 255 
-0.6635304 0.8686826 4.195337 0 0 0 134 122 110 255 
-0.7455235 0.8889607 4.158206 0 0 0 137 124 116 255 
-1.298977 1.498445 3.735035 0 0 0 118 109 104 255 
-0.4214125 0.6634948 4.460284 0 0 0 165 156 147 255 
-0.9403436 1.018926 4.023981 0 0 0 166 161 155 255 
-0.6224417 0.821229 4.304556 0 0 0 149 141 134 255 
-0.5589716 0.7629603 4.378972 0 0 0 128 120 109 255 
-1.007274 1.052368 4.01115 0 0 0 157 157 145 255 
-0.5081233 0.6646907 4.447338 0 0 0 117 106 100 255 
-0.559078 0.709895 4.419064 0 0 0 116 109 101 255 
-1.465062 1.499514 3.662884 0 0 0 144 137 127 255 
-0.5643969 0.6856169 4.431225 0 0 0 118 111 103 255 
-1.155233 1.100118 3.972487 0 0 0 96 87 82 255 
-1.380584 1.411013 3.798468 0 0 0 145 142 137 255 
-1.658254 1.513008 3.558741 0 0 0 154 145 138 255 
-1.236301 1.184068 3.925974 0 0 0 156 151 145 255 
-1.66505 1.520235 3.555373 0 0 0 112 103 94 255 
0.4453303 1.687008 3.125548 0 0 0 160 182 196 255 
-1.315658 1.265977 3.887121 0 0 0 158 151 145 255 
0.3449209 1.619484 2.310502 0 0 0 142 142 144 255 
-1.432136 1.406437 3.805169 0 0 0 147 144 137 255 
-1.093032 0.9376649 4.084906 0 0 0 160 152 141 255 
-1.534594 1.450556 3.738757 0 0 0 109 102 94 255 
-1.728996 1.517848 3.560513 0 0 0 121 112 103 255 
-1.468913 2.136201 3.169418 0 0 0 148 144 144 255 
-1.598277 1.455306 3.732631 0 0 0 161 156 152 255 
-1.406564 1.21857 3.898012 0 0 0 177 168 161 255 
-1.435576 1.253687 3.882302 0 0 0 173 168 162 255 
-1.739656 1.4901 3.61662 0 0 0 117 107 97 255 
-1.898285 1.532943 3.464943 0 0 0 123 114 107 255 
-0.5907153 0.2577401 4.571482 0 0 0 131 121 111 255 
-1.70436 1.471308 3.689469 0 0 0 133 126 118 255 
-1.83143 1.505234 3.594704 0 0 0 113 103 94 255 
-1.810769 1.498615 3.618806 0 0 0 116 107 98 255 
-1.51003 1.249551 3.887446 0 0 0 133 122 116 255 
-1.7202 1.462419 3.71609 0 0 0 104 97 89 255 
-1.05138 0.8287547 4.284187 0 0 0 165 161 152 255 
-1.433125 1.067938 3.96478 0 0 0 180 175 169 255 
-1.890288 1.502718 3.589319 0 0 0 150 141 132 255 
-1.72415 1.410952 3.777822 0 0 0 103 96 90 255 
-1.969686 1.493849 3.535677 0 0 0 120 110 100 255 
-1.680301 1.350015 3.829325 0 0 0 160 156 147 255 
-1.738173 1.399871 3.7901 0 0 0 113 104 99 255 
-1.891514 1.488956 3.66497 0 0 0 114 104 95 255 
-1.016497 0.6200638 4.462718 0 0 0 141 132 124 255 
-1.858334 1.438758 3.745332 0 0 0 130 121 114 255 
-1.944136 1.449121 3.66598 0 0 0 154 145 138 255 
-1.675392 1.204884 3.904207 0 0 0 173 166 160 255 
-1.095356 0.7018054 4.423041 0 0 0 132 123 116 255 
-1.23878 0.773415 4.280375 0 0 0 169 160 145 255 
-1.591629 1.053121 3.971676 0 0 0 147 139 128 255 
-1.081168 0.6227834 4.458381 0 0 0 146 137 130 255 
-1.877539 1.378759 3.822203 0 0 0 151 144 138 255 
-1.878158 1.330013 3.854105 0 0 0 126 117 110 255 
-1.806268 1.199483 3.925033 0 0 0 163 156 150 255 
-1.141305 0.5405849 4.492013 0 0 0 175 167 156 255 
-1.252748 0.6925414 4.412868 0 0 0 128 121 115 255 
-0.9940197 1.318004 3.894193 0 0 0 165 155 145 255 
-1.288954 0.7083385 4.380951 0 0 0 169 164 158 255 
-1.578873 0.8460504 4.094903 0 0 0 142 132 123 255 
-1.367756 0.7060822 4.329861 0 0 0 143 133 121 255 
-1.397684 0.696916 4.328668 0 0 0 176 170 158 255 
-1.27277 0.6263278 4.470298 0 0 0 163 154 147 255 
-0.4991359 1.494568 3.887173 0 0 0 107 99 93 255 
-2.040626 1.337888 3.808653 0 0 0 163 156 148 255 
-1.697773 0.8906834 4.065629 0 0 0 136 123 114 255 
-0.7656357 2.967889 2.438395 0 0 0 166 161 157 255 
-2.062593 1.351363 3.806311 0 0 0 137 128 119 255 
-1.039015 0.1936475 4.632375 0 0 0 111 101 91 255 
-1.400319 0.6823158 4.391204 0 0 0 121 111 102 255 
-1.920382 0.9074767 4.015058 0 0 0 185 176 169 255 
-1.30908 0.5215285 4.517464 0 0 0 139 124 113 255 
-1.403054 0.5859287 4.478765 0 0 0 164 155 148 255 
-2.099247 1.242765 3.905153 0 0 0 141 132 125 255 
-2.056698 1.176965 3.935621 0 0 0 151 142 133 255 
-2.048333 1.149984 3.944611 0 0 0 153 144 135 255 
0.418227 1.778793 3.192403 0 0 0 176 203 214 255 
-1.647621 0.6727036 4.25949 0 0 0 142 132 123 255 
-2.086984 1.186157 3.935096 0 0 0 139 130 121 255 
-1.563753 0.5996487 4.434615 0 0 0 145 132 123 255 
-1.641909 0.6366693 4.353659 0 0 0 158 149 139 255 
-1.748782 0.684709 4.227456 0 0 0 137 123 112 255 
-1.56855 0.576274 4.471398 0 0 0 160 150 138 255 
-1.527339 0.538981 4.525892 0 0 0 125 112 103 255 
-1.763093 0.6719545 4.260558 0 0 0 123 110 101 255 
-1.063633 0.04292412 4.919234 0 0 0 85 75 65 255 
-1.723209 0.6504028 4.325172 0 0 0 132 122 112 255 
-1.598807 0.5677369 4.479249 0 0 0 170 160 148 255 
-1.759851 0.6560487 4.32372 0 0 0 122 108 95 255 
-1.758815 0.6517533 4.332699 0 0 0 150 138 124 255 
-1.529876 0.4860179 4.573405 0 0 0 137 124 115 255 
-1.68183 0.6144175 4.433566 0 0 0 165 161 150 255 
-1.79068 0.6516654 4.324107 0 0 0 157 148 136 255 
-1.668743 0.5831864 4.486744 0 0 0 155 147 136 255 
-1.683848 0.5926602 4.483739 0 0 0 126 113 104 255 
-1.782767 0.6357827 4.399261 0 0 0 162 154 143 255 
0.9438335 1.829721 3.72632 0 0 0 175 172 167 255 
0.0589669 0.5854905 4.386799 0 0 0 126 114 102 255 
-0.7415729 0.6081602 4.467322 0 0 0 136 125 118 255 
-2.066525 1.25394 3.900861 0 0 0 136 127 120 255 
-1.325924 0.3560934 4.59868 0 0 0 138 128 118 255 
-1.781902 0.6487769 4.32865 0 0 0 161 154 138 255 
-1.781866 0.6492652 4.329191 0 0 0 161 154 138 255 
-0.3707997 0.3084655 4.56205 0 0 0 137 124 115 255 
0.4596545 0.8799295 2.208438 0 0 0 161 180 187 255 
0.2772359 1.100715 2.074004 0 0 0 213 154 202 255 
0.2758021 1.214676 2.218698 0 0 0 227 159 206 255 
0.2730208 1.270018 2.27249 0 0 0 145 90 139 255 
1.310269 3.577028 1.820742 0 0 0 149 146 141 255 
1.029652 3.601633 1.909893 0 0 0 179 178 174 255 
2.065135 2.260084 2.923162 0 0 0 138 131 125 255 
0.9519227 1.837681 2.685677 0 0 0 0 0 0 255 
-1.36746 0.6471612 4.446381 0 0 0 161 153 142 255 
0.3450003 3.034679 2.233371 0 0 0 167 163 160 255 
0.3075899 1.600982 2.762644 0 0 0 182 177 188 255 
0.3520954 1.549004 2.832018 0 0 0 172 192 203 255 
0.7907769 2.988932 2.530926 0 0 0 186 182 179 255 
0.6331424 2.980839 2.500439 0 0 0 148 143 140 255 
0.3883421 1.580997 2.938262 0 0 0 82 103 122 255 
0.01240435 3.195196 2.258773 0 0 0 176 172 171 255 
0.6313893 1.563859 3.079903 0 0 0 164 108 133 255 
0.2022999 2.96532 2.461092 0 0 0 172 168 166 255 
0.3458881 1.673012 2.955387 0 0 0 61 80 98 255 
1.87737 1.486984 3.733443 0 0 0 110 101 96 255 
0.5566646 1.598997 3.108362 0 0 0 127 127 127 255 
0.3700575 1.672429 3.008665 0 0 0 67 91 115 255 
0.2983395 1.893629 2.922885 0 0 0 201 154 196 255 
1.921535 1.271004 3.904101 0 0 0 163 160 156 255 
0.2002751 2.914719 2.620934 0 0 0 180 176 173 255 
0.5231976 1.642607 3.142673 0 0 0 148 157 156 255 
-0.4138257 3.044135 2.309152 0 0 0 197 196 194 255 
1.620794 1.596021 3.723663 0 0 0 144 135 128 255 
0.002782613 2.896632 2.574979 0 0 0 186 182 179 255 
-0.1870951 2.935512 2.501108 0 0 0 152 148 145 255 
0.5459498 1.705471 3.219208 0 0 0 127 129 124 255 
0.522894 1.703184 3.214501 0 0 0 122 127 122 255 
-0.1870442 2.917423 2.561634 0 0 0 181 177 174 255 
-0.5468823 3.008225 2.366448 0 0 0 157 153 152 255 
0.5351458 1.734537 3.251997 0 0 0 153 159 159 255 
-1.351003 0.6763927 4.412824 0 0 0 132 122 113 255 
0.1473492 2.831531 2.797699 0 0 0 133 128 125 255 
-0.3225845 2.944669 2.539058 0 0 0 178 177 175 255 
-0.4044396 2.958032 2.498711 0 0 0 149 145 143 255 
0.4008421 1.809282 3.210289 0 0 0 45 62 78 255 
0.3998879 1.825049 3.225063 0 0 0 62 83 100 255 
-0.5981134 2.988501 2.422933 0 0 0 162 158 155 255 
-1.325035 0.6836578 4.416917 0 0 0 160 153 143 255 
0.4260554 1.853143 3.294376 0 0 0 47 61 70 255 
-0.3209226 2.855408 2.663278 0 0 0 193 191 192 255 
0.4470512 1.851586 3.312933 0 0 0 157 177 186 255 
1.398372 0.9068127 4.064057 0 0 0 144 135 126 255 
-0.4864582 2.907949 2.604595 0 0 0 132 130 131 255 
1.047982 1.641825 3.754388 0 0 0 149 140 132 255 
0.4797579 1.890317 3.389852 0 0 0 154 177 190 255 
1.167457 1.09718 3.954054 0 0 0 173 166 160 255 
-0.6748527 2.946579 2.53209 0 0 0 142 140 141 255 
1.358621 0.879096 4.116795 0 0 0 136 126 117 255 
-1.270659 0.6408331 4.46126 0 0 0 156 150 138 255 
-0.6453517 2.91583 2.5752 0 0 0 140 140 140 255 
0.3189519 2.218856 3.282233 0 0 0 181 138 183 255 
0.3273485 2.103718 3.336796 0 0 0 184 192 204 255 
1.020865 1.538618 3.844216 0 0 0 175 170 164 255 
-1.625871 0.8672195 4.078563 0 0 0 166 157 150 255 
-0.7668779 2.869955 2.584598 0 0 0 145 143 144 255 
-0.7778537 0.4069383 4.518775 0 0 0 126 116 107 255 
-0.3627604 2.5264 2.906247 0 0 0 165 160 156 255 
0.894527 1.831003 3.762048 0 0 0 158 153 149 255 
0.9910867 1.471921 3.900753 0 0 0 164 159 155 255 
-1.072716 0.8206021 4.297356 0 0 0 161 154 147 255 
-0.969322 0.7697973 4.384414 0 0 0 128 121 114 255 
-0.9503941 0.7434456 4.396202 0 0 0 141 132 125 255 
-1.726489 1.456138 3.72311 0 0 0 141 132 125 255 
-0.8806607 0.6603689 4.441079 0 0 0 128 119 110 255 
-0.8571824 0.6276362 4.457997 0 0 0 180 172 163 255 
-1.007637 0.8083027 4.336737 0 0 0 94 86 83 255 
-0.9678951 0.7845078 4.373315 0 0 0 174 167 159 255 
-1.733216 1.467864 3.709085 0 0 0 115 108 100 255 
-1.346248 1.038713 3.99955 0 0 0 134 125 118 255 
-1.755329 1.483848 3.663231 0 0 0 147 140 132 255 
-0.5144023 0.0944517 4.655916 0 0 0 178 171 163 255 
-1.361288 1.055685 3.981512 0 0 0 115 105 96 255 
-1.26073 0.9445469 4.063941 0 0 0 141 131 125 255 
-0.9172094 0.7689003 4.386441 0 0 0 175 171 162 255 
-1.216932 0.6421521 4.458106 0 0 0 142 137 128 255 
-1.597745 1.394071 3.799833 0 0 0 160 151 142 255 
-1.370401 1.086329 3.965545 0 0 0 168 159 150 255 
-0.8057342 2.347768 2.987248 0 0 0 151 142 133 255 
-1.425846 1.170922 3.920326 0 0 0 153 144 137 255 
-0.8925329 0.7794273 4.38355 0 0 0 134 127 119 255 
-1.511051 1.322954 3.845739 0 0 0 142 135 127 255 
-1.671395 1.460914 3.70399 0 0 0 141 134 126 255 
-1.650076 1.456581 3.725071 0 0 0 124 117 111 255 
-0.9596383 0.8395825 4.315725 0 0 0 143 134 127 255 
-0.8827346 0.785659 4.382736 0 0 0 128 121 113 255 
-1.497637 1.324054 3.85214 0 0 0 134 127 119 255 
-1.615415 1.442694 3.751081 0 0 0 114 109 105 255 
-1.696495 1.476291 3.66985 0 0 0 147 140 132 255 
-1.816266 1.517382 3.546644 0 0 0 108 100 89 255 
-1.455194 1.280329 3.872894 0 0 0 132 125 115 255 
-1.443624 1.276924 3.879624 0 0 0 167 160 152 255 
-0.9632949 -0.4139527 5.190564 0 0 0 154 147 139 255 
-1.276513 1.031731 4.000473 0 0 0 145 138 132 255 
-1.615238 1.453141 3.730988 0 0 0 131 128 123 255 
-1.129906 0.8918461 4.117459 0 0 0 132 120 108 255 
-0.9818326 0.8547074 4.264275 0 0 0 128 118 109 255 
-1.225525 0.9910579 4.037747 0 0 0 161 158 149 255 
-1.581223 1.429485 3.751231 0 0 0 144 139 135 255 
-0.9660624 0.8584525 4.2699 0 0 0 113 104 95 255 
