ply
format ascii 1.0
comment Created by CloudCompare v2.11 alpha (Anoia)
comment Created 2025/12/9 16:18
obj_info Generated by CloudCompare!
element vertex 1459
property float x
property float y
property float z
property float scalar_Scalar_field
end_header
0.401038 -0.305874 -0.0193764 6 
0.403181 -0.307978 -0.0196094 7 
0.404134 -0.308915 -0.0191334 9 
0.403878 -0.308668 -0.0179474 7 
0.405139 -0.309907 -0.0176434 10 
0.404124 -0.308915 -0.0160204 9 
0.406865 -0.311605 -0.0165614 8 
0.404472 -0.309264 -0.0141534 9 
0.405483 -0.310257 -0.0136954 8 
0.402812 -0.307642 -0.0111484 7 
0.405024 -0.309814 -0.0113674 7 
0.407365 -0.312112 -0.0116484 11 
0.406955 -0.311713 -0.0103814 6 
0.405986 -0.310767 -0.00880944 9 
0.404317 -0.309134 -0.00685643 9 
0.407005 -0.311772 -0.00730643 7 
0.406852 -0.311626 -0.00619044 8 
0.408802 -0.313541 -0.00621742 9 
0.408752 -0.313495 -0.00515443 11 
0.408856 -0.3136 -0.00417543 11 
0.409581 -0.314314 -0.00352843 15 
0.409479 -0.314218 -0.00243943 12 
0.407579 -0.312358 -0.000399429 9 
0.409071 -0.313824 -0.000156436 7 
0.408868 -0.313629 0.000981566 14 
0.409336 -0.31409 0.00176757 12 
0.409546 -0.3143 0.00268957 12 
0.410742 -0.315476 0.00310357 10 
0.411423 -0.316147 0.00378757 13 
0.410337 -0.315084 0.00537458 18 
0.410187 -0.314941 0.00648057 17 
0.410296 -0.315051 0.00745357 14 
0.409528 -0.314301 0.00886658 16 
0.41062 -0.315375 0.00934757 21 
0.410524 -0.315284 0.0104226 20 
0.410479 -0.315244 0.0114706 21 
0.411162 -0.315916 0.0121616 22 
0.410651 -0.315419 0.0134356 20 
0.412691 -0.317423 0.0134726 22 
0.41067 -0.315443 0.0154736 24 
0.41099 -0.315761 0.0163426 24 
0.41204 -0.316794 0.0168656 27 
0.411426 -0.316195 0.0181806 26 
0.412375 -0.317128 0.0187566 22 
0.413906 -0.318633 0.0190646 22 
0.412398 -0.317157 0.0207926 20 
0.413404 -0.318147 0.0213496 28 
0.413626 -0.318369 0.0222716 26 
0.41301 -0.317768 0.0235766 23 
0.413915 -0.318659 0.0241876 27 
0.413038 -0.317801 0.0256066 25 
0.414945 -0.319675 0.0257726 29 
0.414537 -0.319278 0.0269786 31 
0.413292 -0.31806 0.0285516 33 
0.414252 -0.319005 0.0291476 33 
0.413691 -0.318458 0.0304136 33 
0.415076 -0.319819 0.0308296 37 
0.414513 -0.31927 0.0320936 36 
0.415163 -0.319911 0.0328336 38 
0.41571 -0.320451 0.0336196 34 
0.415358 -0.320109 0.0347896 35 
0.41543 -0.320183 0.0357776 33 
0.415186 -0.319946 0.0368976 35 
0.415734 -0.320488 0.0376866 35 
0.415596 -0.320355 0.0387606 36 
0.415037 -0.31981 0.0400056 23 
0.416433 -0.321183 0.0404526 15 
0.416243 -0.321 0.0415456 7 
0.509665 -0.412633 0.00504157 6 
0.408915 -0.313818 0.0464956 7 
0.447851 -0.352011 0.0320806 7 
0.44045 -0.344756 0.0360906 7 
0.468812 -0.372578 0.0260916 7 
0.513851 -0.416759 0.00976257 8 
0.359711 -0.265571 0.0703586 10 
0.35925 -0.265121 0.0713906 19 
0.359885 -0.265747 0.0720056 18 
0.358294 -0.26419 0.0734586 14 
0.35233 -0.258342 0.0765316 20 
0.349044 -0.255121 0.0785806 38 
0.347357 -0.253468 0.0800246 50 
0.34507 -0.251228 0.0816776 55 
0.343973 -0.250155 0.0828866 59 
0.342413 -0.248626 0.0842556 66 
0.342008 -0.248232 0.0852036 76 
0.340071 -0.246334 0.0866906 74 
0.33885 -0.245139 0.0879166 85 
0.338456 -0.244756 0.0888466 90 
0.337771 -0.244086 0.0898746 91 
0.336345 -0.242689 0.0911516 88 
0.33551 -0.241872 0.0922204 93 
0.335288 -0.241657 0.0930773 93 
0.334811 -0.241192 0.0940177 104 
0.334368 -0.24076 0.0949439 105 
0.334563 -0.240953 0.0956574 104 
0.333298 -0.239715 0.0968475 109 
0.332861 -0.239288 0.0977625 121 
0.332457 -0.238895 0.098664 119 
0.331898 -0.238349 0.0996122 123 
0.331717 -0.238173 0.100438 122 
0.331348 -0.237814 0.101321 111 
0.330857 -0.237335 0.102239 101 
0.330122 -0.236616 0.103229 96 
0.330468 -0.236958 0.103886 95 
0.330043 -0.236543 0.104776 101 
0.329989 -0.236492 0.105553 109 
0.330181 -0.236683 0.106256 113 
0.329696 -0.23621 0.107159 125 
0.329704 -0.236221 0.107915 131 
0.329805 -0.236322 0.108644 126 
0.329813 -0.236332 0.1094 123 
0.329546 -0.236073 0.110233 117 
0.329463 -0.235994 0.111012 114 
0.329595 -0.236125 0.111731 115 
0.32936 -0.235897 0.112552 127 
0.3294 -0.235939 0.113295 123 
0.329319 -0.235861 0.114072 113 
0.329635 -0.236174 0.114741 110 
0.329707 -0.236247 0.115476 115 
0.329933 -0.236471 0.11617 128 
0.329975 -0.236515 0.116913 131 
0.329955 -0.236498 0.117672 126 
0.33009 -0.236632 0.118391 128 
0.33044 -0.236978 0.119057 127 
0.330545 -0.237083 0.119784 139 
0.330773 -0.23731 0.120482 148 
0.331497 -0.238023 0.121059 156 
0.331262 -0.237794 0.121871 162 
0.33174 -0.238266 0.122512 167 
0.332376 -0.238892 0.123118 169 
0.332764 -0.239276 0.123784 170 
0.333028 -0.239537 0.12448 168 
0.333105 -0.239615 0.12522 171 
0.333371 -0.239878 0.125918 175 
0.334109 -0.240605 0.126512 173 
0.334566 -0.241056 0.127171 174 
0.334676 -0.241167 0.127907 175 
0.335072 -0.241558 0.128582 180 
0.335788 -0.242263 0.129191 182 
0.336124 -0.242594 0.129884 177 
0.336588 -0.243053 0.130551 174 
0.336862 -0.243324 0.131259 170 
0.33749 -0.243943 0.131896 176 
0.33796 -0.244406 0.132569 171 
0.339245 -0.24567 0.133083 178 
0.339818 -0.246235 0.133741 183 
0.340198 -0.24661 0.13444 181 
0.340446 -0.246856 0.135165 180 
0.340926 -0.24733 0.135847 180 
0.341707 -0.248098 0.136477 182 
0.342625 -0.249002 0.137086 180 
0.343012 -0.249384 0.137793 181 
0.343602 -0.249966 0.138467 181 
0.344397 -0.250749 0.139109 177 
0.345129 -0.25147 0.139764 178 
0.345797 -0.252128 0.140435 181 
0.347429 -0.253732 0.140949 184 
0.347796 -0.254095 0.141677 177 
0.349241 -0.255516 0.142234 174 
0.350138 -0.256399 0.142885 169 
0.351394 -0.257634 0.143485 170 
0.353411 -0.259617 0.143975 162 
0.353722 -0.259925 0.14473 170 
0.355008 -0.26119 0.145344 162 
0.357331 -0.263473 0.145814 144 
0.358538 -0.264659 0.146455 135 
0.359567 -0.265672 0.147126 140 
0.361393 -0.267468 0.147694 151 
0.363815 -0.269848 0.148191 164 
0.365963 -0.271959 0.148736 171 
0.367083 -0.273061 0.149425 176 
0.36892 -0.274867 0.150028 162 
0.37062 -0.276538 0.150659 150 
0.372297 -0.278188 0.1513 129 
0.373625 -0.279495 0.151991 97 
0.440569 -0.345217 0.145084 101 
0.440848 -0.345495 0.146079 127 
0.440535 -0.34519 0.14714 148 
0.441172 -0.345819 0.148097 153 
0.439499 -0.344179 0.149301 152 
0.439072 -0.343764 0.150367 156 
0.439884 -0.344565 0.151307 156 
0.439341 -0.344034 0.152383 160 
0.438624 -0.343334 0.153473 157 
0.438848 -0.343557 0.154471 158 
0.43925 -0.343955 0.155455 156 
0.438477 -0.343199 0.156543 158 
0.438176 -0.342907 0.157587 156 
0.437935 -0.342673 0.158624 154 
0.437054 -0.341811 0.159711 160 
0.43699 -0.341752 0.16073 164 
0.436985 -0.341751 0.161745 166 
0.436343 -0.341123 0.162805 165 
0.435761 -0.340555 0.163857 166 
0.435528 -0.340329 0.164883 165 
0.435354 -0.340161 0.165903 163 
0.43495 -0.339768 0.166937 171 
0.434376 -0.339207 0.167978 167 
0.434377 -0.339212 0.168985 163 
0.433863 -0.338711 0.170018 166 
0.433581 -0.338436 0.171037 166 
0.43387 -0.338724 0.172027 166 
0.43245 -0.337332 0.173096 167 
0.432285 -0.337173 0.174104 166 
0.431498 -0.336404 0.175136 166 
0.43111 -0.336026 0.176149 161 
0.4314 -0.336314 0.177136 166 
0.431465 -0.336381 0.178131 171 
0.431023 -0.33595 0.179142 169 
0.430695 -0.335631 0.180148 169 
0.430369 -0.335314 0.181152 175 
0.430156 -0.335108 0.182152 177 
0.430113 -0.335069 0.183147 179 
0.429734 -0.3347 0.184147 177 
0.429189 -0.334168 0.185148 176 
0.428646 -0.333638 0.186146 179 
0.427995 -0.333002 0.187142 181 
0.427624 -0.33264 0.188133 177 
0.427364 -0.332388 0.189122 179 
0.427272 -0.3323 0.190109 179 
0.427125 -0.332159 0.191096 183 
0.426813 -0.331856 0.192081 177 
0.426723 -0.331771 0.193066 179 
0.426469 -0.331524 0.194049 181 
0.425831 -0.330901 0.195026 177 
0.424978 -0.330067 0.195997 178 
0.42413 -0.329237 0.196964 175 
0.423882 -0.328996 0.197938 175 
0.423906 -0.329023 0.198916 177 
0.423606 -0.328732 0.199887 173 
0.423037 -0.328175 0.200849 171 
0.422632 -0.327781 0.201813 179 
0.422497 -0.327652 0.202784 183 
0.421933 -0.327101 0.203739 184 
0.421533 -0.326711 0.204698 184 
0.421134 -0.326322 0.205654 186 
0.420683 -0.325882 0.206607 186 
0.420128 -0.32534 0.207552 186 
0.420106 -0.325321 0.20852 184 
0.419766 -0.32499 0.209472 179 
0.419321 -0.324556 0.210417 179 
0.419195 -0.324436 0.211378 180 
0.419124 -0.324369 0.212341 182 
0.418524 -0.323783 0.213272 185 
0.418401 -0.323665 0.21423 187 
0.417333 -0.322619 0.215125 189 
0.417056 -0.32235 0.216068 191 
0.416675 -0.321978 0.217004 189 
0.416399 -0.321711 0.217945 187 
0.415969 -0.321291 0.218873 187 
0.415644 -0.320975 0.219807 188 
0.415476 -0.320813 0.220753 191 
0.415412 -0.320754 0.221707 193 
0.415142 -0.320491 0.222643 189 
0.413996 -0.319368 0.223499 189 
0.413523 -0.318907 0.224411 185 
0.413566 -0.318952 0.22537 187 
0.412789 -0.318192 0.22625 186 
0.412679 -0.318087 0.227192 189 
0.412928 -0.318335 0.228171 190 
0.412718 -0.318131 0.229103 188 
0.411998 -0.317426 0.229979 184 
0.41123 -0.316675 0.230847 181 
0.411429 -0.316874 0.23182 186 
0.411426 -0.316874 0.232771 190 
0.410562 -0.316027 0.23362 187 
0.410307 -0.31578 0.234539 188 
0.410003 -0.315484 0.23545 186 
0.409952 -0.315437 0.236393 185 
0.409549 -0.315044 0.237289 185 
0.409047 -0.314554 0.238171 185 
0.408998 -0.314509 0.239112 185 
0.408499 -0.314022 0.239991 183 
0.407852 -0.313389 0.240847 181 
0.408155 -0.313689 0.241834 186 
0.408258 -0.313794 0.242795 181 
0.407714 -0.313262 0.243661 182 
0.40742 -0.312977 0.244563 182 
0.407675 -0.31323 0.245546 178 
0.406044 -0.311631 0.246239 180 
0.405952 -0.311543 0.247167 179 
0.40591 -0.311505 0.248102 178 
0.405918 -0.311516 0.249045 177 
0.405138 -0.310753 0.249859 178 
0.405148 -0.310765 0.250801 177 
0.404912 -0.310536 0.251702 177 
0.40404 -0.309683 0.252492 181 
0.403905 -0.309552 0.253407 183 
0.403575 -0.309231 0.254287 186 
0.403343 -0.309006 0.255184 185 
0.403063 -0.308735 0.256071 184 
0.403028 -0.308703 0.257002 183 
0.402653 -0.308337 0.257869 183 
0.402716 -0.308402 0.258819 183 
0.402828 -0.308515 0.259779 183 
0.402213 -0.307914 0.260597 180 
0.402665 -0.308361 0.261625 182 
0.402246 -0.307952 0.262479 183 
0.402457 -0.308162 0.263461 185 
0.401266 -0.306995 0.264153 185 
0.400803 -0.306543 0.264993 180 
0.400822 -0.306564 0.265933 180 
0.401033 -0.306775 0.266915 181 
0.400813 -0.306561 0.267804 182 
0.400641 -0.306395 0.268704 185 
0.39999 -0.305759 0.269496 182 
0.399772 -0.305548 0.270383 181 
0.399603 -0.305384 0.27128 183 
0.399435 -0.305222 0.272177 182 
0.398885 -0.304685 0.272984 180 
0.398671 -0.304477 0.273869 187 
0.398315 -0.30413 0.274718 188 
0.398482 -0.304297 0.275693 188 
0.397653 -0.303486 0.276426 188 
0.397726 -0.30356 0.277378 187 
0.397752 -0.303589 0.278319 191 
0.397589 -0.303432 0.279213 188 
0.397144 -0.302997 0.280034 187 
0.397124 -0.30298 0.280963 188 
0.396492 -0.302362 0.281733 187 
0.395723 -0.301609 0.282464 188 
0.395377 -0.301272 0.283304 193 
0.395172 -0.301074 0.284181 196 
0.395062 -0.300968 0.285083 193 
0.394859 -0.300771 0.285959 201 
0.394796 -0.300712 0.286874 201 
0.394734 -0.300654 0.287789 203 
0.393187 -0.299137 0.288285 200 
0.392757 -0.298717 0.289091 200 
0.392558 -0.298525 0.289963 202 
0.391993 -0.297972 0.290727 195 
0.391567 -0.297556 0.29153 195 
0.391188 -0.297186 0.292345 192 
0.390537 -0.296549 0.293078 195 
0.390616 -0.29663 0.294027 194 
0.390513 -0.296532 0.294922 197 
0.390002 -0.296032 0.295692 195 
0.389628 -0.295668 0.296502 197 
0.38903 -0.295082 0.297241 197 
0.388884 -0.294942 0.298119 194 
0.38883 -0.294892 0.299027 190 
0.388731 -0.294797 0.29992 191 
0.387374 -0.293466 0.300407 185 
0.387142 -0.293241 0.301254 187 
0.387179 -0.29328 0.302189 187 
0.38668 -0.292793 0.302947 189 
0.386941 -0.293053 0.303956 187 
0.38631 -0.292435 0.304667 190 
0.38577 -0.291907 0.305407 189 
0.385898 -0.292036 0.306372 184 
0.385627 -0.291772 0.307201 185 
0.384471 -0.290639 0.307723 184 
0.384246 -0.29042 0.308564 183 
0.384198 -0.290376 0.309467 185 
0.384106 -0.290289 0.310355 187 
0.383971 -0.290159 0.311228 183 
0.383134 -0.289338 0.311847 177 
0.382781 -0.288995 0.312639 179 
0.382299 -0.288523 0.313382 178 
0.382123 -0.288353 0.314235 178 
0.381816 -0.288054 0.31504 181 
0.381554 -0.2878 0.315861 176 
0.38125 -0.287503 0.316665 175 
0.381033 -0.287292 0.317501 180 
0.380427 -0.2867 0.318188 175 
0.380816 -0.287086 0.319256 173 
0.380514 -0.286792 0.320058 175 
0.38004 -0.286329 0.320792 168 
0.380344 -0.28663 0.32183 170 
0.380562 -0.286847 0.322837 170 
0.380348 -0.28664 0.323673 165 
0.380135 -0.286433 0.324509 163 
0.380571 -0.286864 0.325607 159 
0.380185 -0.286488 0.326373 160 
0.380535 -0.286835 0.32744 161 
0.380756 -0.287056 0.328456 163 
0.380414 -0.286722 0.329241 156 
0.380159 -0.286475 0.33006 161 
0.380946 -0.287251 0.331317 162 
0.3813 -0.287602 0.332396 160 
0.381176 -0.287483 0.333274 161 
0.380835 -0.28715 0.334059 158 
0.381103 -0.287417 0.335106 150 
0.380893 -0.287214 0.335947 157 
0.380858 -0.287182 0.336864 155 
0.381346 -0.287665 0.338013 156 
0.381093 -0.287419 0.338836 151 
0.381451 -0.287775 0.339931 154 
0.381724 -0.288046 0.340991 151 
0.381515 -0.287843 0.341836 155 
0.381657 -0.287986 0.342839 154 
0.382107 -0.288431 0.343985 155 
0.381592 -0.287928 0.34469 158 
0.381954 -0.288287 0.3458 160 
0.381791 -0.28813 0.346667 157 
0.382464 -0.288794 0.347926 158 
0.382389 -0.288723 0.348837 156 
0.382534 -0.28887 0.349853 152 
0.382946 -0.289278 0.350998 150 
0.383271 -0.2896 0.352104 156 
0.383641 -0.289967 0.353234 142 
0.383612 -0.289942 0.354174 143 
0.383406 -0.289742 0.355028 154 
0.383111 -0.289455 0.355838 156 
0.383527 -0.289868 0.356999 148 
0.383455 -0.2898 0.35792 140 
0.383918 -0.290258 0.359108 139 
0.383891 -0.290235 0.360055 131 
0.383999 -0.290343 0.361069 128 
0.384152 -0.290497 0.362109 133 
0.384439 -0.290783 0.363218 126 
0.384638 -0.290982 0.364285 121 
0.384479 -0.290828 0.365169 122 
0.384678 -0.291027 0.366239 123 
0.384654 -0.291006 0.367194 120 
0.384585 -0.290942 0.368127 124 
0.384922 -0.291276 0.369274 123 
0.384853 -0.291212 0.370209 125 
0.38474 -0.291104 0.37112 126 
0.384988 -0.29135 0.372226 125 
0.385192 -0.291554 0.37331 119 
0.385125 -0.291491 0.374249 124 
0.385329 -0.291695 0.375337 128 
0.385399 -0.291767 0.376353 121 
0.385741 -0.292106 0.37752 122 
0.385857 -0.292223 0.378565 119 
0.386383 -0.292744 0.37984 108 
0.385863 -0.292235 0.380533 106 
0.386618 -0.292982 0.381942 104 
0.38669 -0.293056 0.38297 103 
0.387267 -0.293627 0.384286 96 
0.3884 -0.294745 0.385924 97 
0.387507 -0.293869 0.386406 99 
0.387169 -0.293539 0.387204 103 
0.387704 -0.294069 0.388508 98 
0.387918 -0.294282 0.389628 101 
0.387902 -0.29427 0.390617 100 
0.388533 -0.294894 0.391987 100 
0.388796 -0.295156 0.393143 105 
0.388967 -0.295328 0.394248 104 
0.389139 -0.2955 0.395355 103 
0.389078 -0.295443 0.396325 103 
0.389484 -0.295846 0.397576 105 
0.389331 -0.295698 0.398492 103 
0.390019 -0.296379 0.399921 101 
0.389539 -0.295909 0.40064 105 
0.389948 -0.296315 0.401904 99 
0.390124 -0.296492 0.403027 100 
0.390818 -0.297178 0.404474 98 
0.39076 -0.297124 0.405457 100 
0.390138 -0.296515 0.406087 98 
0.390457 -0.296832 0.407307 88 
0.3904 -0.29678 0.408292 98 
0.390579 -0.296959 0.409428 103 
0.31006 -0.220746 0.0129436 4 
0.388934 -0.299268 -0.0389734 3 
0.390481 -0.300812 -0.0389794 4 
0.393097 -0.303419 -0.0396864 5 
1.41392 -1.31968 -0.716901 4 
0.40014 -0.310437 -0.0422484 3 
0.396073 -0.306392 -0.0385294 4 
0.226474 -0.137547 0.0723536 4 
0.395469 -0.305797 -0.0360534 5 
0.394055 -0.304392 -0.0341014 4 
0.397162 -0.307489 -0.0350674 5 
0.402436 -0.312743 -0.0374034 4 
0.39355 -0.3039 -0.0306844 6 
0.396256 -0.306597 -0.0313714 4 
0.397866 -0.308203 -0.0313524 6 
0.398401 -0.308739 -0.0306494 4 
0.401782 -0.312109 -0.0317254 5 
0.400471 -0.310807 -0.0298604 5 
0.398923 -0.309269 -0.0278574 5 
0.400606 -0.310948 -0.0278574 6 
0.399802 -0.310151 -0.0263214 7 
0.398362 -0.30872 -0.0244024 7 
0.401287 -0.311636 -0.0251474 7 
0.403548 -0.313891 -0.0254744 7 
0.398544 -0.308912 -0.0214134 6 
0.398245 -0.308617 -0.0202034 5 
0.398882 -0.309254 -0.0195534 5 
0.401361 -0.311727 -0.0199944 8 
0.399468 -0.309844 -0.0178394 8 
0.399712 -0.310091 -0.0169524 7 
0.402504 -0.312874 -0.0175554 6 
0.401848 -0.312225 -0.0161364 8 
0.400947 -0.31133 -0.0145804 8 
0.401493 -0.311878 -0.0138644 8 
0.405023 -0.315396 -0.0148564 7 
0.402793 -0.313179 -0.0125444 7 
0.400941 -0.311338 -0.0104604 11 
0.403799 -0.314187 -0.0110464 8 
0.403445 -0.313838 -0.00981343 10 
0.405677 -0.316064 -0.0100284 8 
0.405625 -0.316016 -0.00896143 8 
0.404101 -0.314501 -0.00708244 13 
0.40711 -0.317501 -0.00770644 11 
0.405117 -0.315519 -0.00557544 10 
0.404611 -0.315018 -0.00426743 13 
0.405526 -0.315934 -0.00373343 13 
0.40502 -0.315433 -0.00242843 11 
0.405632 -0.316046 -0.00172644 12 
0.405177 -0.315596 -0.000453431 13 
0.405995 -0.316413 0.000141573 12 
0.405083 -0.315508 0.00165257 13 
0.406206 -0.31663 0.00208957 12 
0.407336 -0.317759 0.00252857 11 
0.406623 -0.317052 0.00392957 11 
0.407396 -0.317825 0.00455857 17 
0.406021 -0.316459 0.00629358 16 
0.406078 -0.316519 0.00728957 20 
0.408802 -0.319236 0.00693057 18 
0.407984 -0.318424 0.00837457 17 
0.407426 -0.317871 0.00968256 18 
0.408203 -0.318649 0.0103196 21 
0.408108 -0.318557 0.0113936 20 
0.407039 -0.317496 0.0129466 22 
0.407611 -0.318069 0.0136876 18 
0.408751 -0.319207 0.0141536 21 
0.408348 -0.318809 0.0153736 22 
0.408152 -0.318617 0.0164916 20 
0.409813 -0.320275 0.0167166 23 
0.408121 -0.318593 0.0185476 24 
0.409058 -0.31953 0.0191236 28 
0.408503 -0.318981 0.0204066 24 
0.409753 -0.320229 0.0208406 24 
0.409921 -0.320399 0.0217846 30 
0.41014 -0.320621 0.0227046 30 
0.409894 -0.320379 0.0238386 30 
0.410063 -0.320551 0.0247816 29 
0.410336 -0.320826 0.0256776 30 
0.411078 -0.321568 0.0263616 29 
0.410989 -0.321482 0.0274226 30 
0.410588 -0.321087 0.0286206 30 
0.411488 -0.321986 0.0292406 31 
0.411713 -0.322213 0.0301606 35 
0.412252 -0.322754 0.0309446 36 
0.412426 -0.32293 0.0318886 37 
0.413335 -0.32384 0.0325156 39 
0.412776 -0.323285 0.0337776 34 
0.414427 -0.324933 0.0340926 37 
0.413601 -0.324114 0.0354656 33 
0.41362 -0.324137 0.0364776 30 
0.414961 -0.325475 0.0369366 16 
0.408882 -0.319422 0.0404836 9 
0.456769 -0.367136 0.0217226 5 
0.460975 -0.37133 0.0211336 6 
0.514547 -0.42471 0.000433576 6 
0.502428 -0.41264 0.00663957 6 
0.371671 -0.282362 0.0604216 5 
0.38686 -0.2975 0.0552746 7 
0.453221 -0.363623 0.0299356 8 
0.420481 -0.331005 0.0439396 8 
0.441413 -0.351865 0.0367936 8 
0.373256 -0.283956 0.0642946 8 
0.357494 -0.268254 0.0712476 10 
0.34866 -0.259454 0.0754686 11 
0.345362 -0.256171 0.0775456 23 
0.341935 -0.252758 0.0796536 37 
0.340786 -0.251616 0.0808926 51 
0.338818 -0.249657 0.0824276 54 
0.337465 -0.248312 0.0837256 56 
0.335964 -0.246819 0.0850696 59 
0.334479 -0.245342 0.0863996 59 
0.333712 -0.244579 0.0874626 66 
0.332726 -0.2436 0.0885996 69 
0.331906 -0.242785 0.0896716 78 
0.330997 -0.241882 0.0907696 83 
0.330437 -0.241326 0.0917408 88 
0.329787 -0.240681 0.0927398 97 
0.329387 -0.240285 0.0936489 104 
0.328558 -0.239461 0.0947011 101 
0.328624 -0.239529 0.0954472 113 
0.327953 -0.238863 0.0964389 115 
0.327408 -0.238322 0.0973849 113 
0.327108 -0.238026 0.0982468 114 
0.32681 -0.237731 0.0991063 113 
0.32612 -0.237045 0.10009 115 
0.325884 -0.236813 0.100924 108 
0.325589 -0.236522 0.101775 101 
0.324787 -0.235724 0.102784 109 
0.324585 -0.235525 0.103601 114 
0.324473 -0.235416 0.104388 116 
0.32448 -0.235425 0.105138 109 
0.324309 -0.235257 0.105941 108 
0.324257 -0.235208 0.106707 114 
0.324176 -0.23513 0.107481 127 
0.324154 -0.23511 0.108237 137 
0.324074 -0.235033 0.109009 143 
0.323964 -0.234925 0.109789 144 
0.323914 -0.234878 0.110551 143 
0.32413 -0.235096 0.111236 140 
0.323873 -0.234842 0.112055 143 
0.32412 -0.23509 0.112732 138 
0.324041 -0.235014 0.1135 137 
0.324555 -0.235529 0.114104 140 
0.324328 -0.235305 0.114912 141 
0.324339 -0.235318 0.115655 144 
0.324647 -0.235627 0.116318 146 
0.324628 -0.235611 0.117068 141 
0.324432 -0.235418 0.117864 139 
0.324503 -0.235491 0.11859 129 
0.324633 -0.235624 0.1193 122 
0.324764 -0.235757 0.120011 127 
0.325492 -0.236484 0.120572 140 
0.325624 -0.236618 0.121285 151 
0.325787 -0.236783 0.12199 161 
0.326039 -0.237037 0.122674 168 
0.326383 -0.237382 0.123337 169 
0.327271 -0.238269 0.123873 175 
0.327982 -0.238981 0.124454 181 
0.327996 -0.238997 0.125201 178 
0.328162 -0.239165 0.125912 183 
0.328055 -0.239061 0.126686 178 
0.328222 -0.23923 0.127397 179 
0.328755 -0.239764 0.128028 180 
0.329229 -0.240239 0.128674 182 
0.329398 -0.240409 0.129389 179 
0.330121 -0.241133 0.129985 180 
0.33023 -0.241243 0.130715 177 
0.330741 -0.241755 0.131361 180 
0.331658 -0.242672 0.131926 181 
0.33208 -0.243095 0.132596 180 
0.333195 -0.244209 0.133129 178 
0.333465 -0.24448 0.133835 183 
0.33383 -0.244847 0.134524 181 
0.334323 -0.245341 0.135189 181 
0.334595 -0.245615 0.135898 181 
0.33557 -0.24659 0.136477 183 
0.336778 -0.247796 0.137018 180 
0.337411 -0.24843 0.13767 184 
0.337755 -0.248776 0.138376 181 
0.338296 -0.249317 0.13905 184 
0.338937 -0.249958 0.139708 178 
0.339876 -0.250898 0.140318 180 
0.340558 -0.25158 0.140977 179 
0.341542 -0.252563 0.141588 178 
0.342533 -0.253554 0.142204 178 
0.343395 -0.254416 0.142845 177 
0.344535 -0.255555 0.143446 174 
0.34582 -0.25684 0.14403 177 
0.346669 -0.257688 0.144688 172 
0.348775 -0.25979 0.145161 169 
0.349605 -0.260621 0.145833 171 
0.350829 -0.261844 0.146452 169 
0.352135 -0.263149 0.147065 168 
0.353994 -0.265006 0.147608 165 
0.356537 -0.267543 0.148066 173 
0.35793 -0.268935 0.148692 172 
0.360162 -0.271164 0.149214 172 
0.363077 -0.274073 0.14966 174 
0.365618 -0.27661 0.150168 162 
0.36749 -0.278479 0.150772 143 
0.371431 -0.282412 0.151133 112 
0.439837 -0.350633 0.143815 99 
0.438869 -0.349672 0.14496 131 
0.437848 -0.348657 0.146106 143 
0.437244 -0.348057 0.147199 151 
0.437345 -0.348162 0.148213 153 
0.436803 -0.347624 0.149295 155 
0.436438 -0.347264 0.150355 159 
0.436483 -0.347312 0.151372 156 
0.436471 -0.347303 0.152395 154 
0.436518 -0.347353 0.153411 155 
0.436157 -0.346997 0.154466 157 
0.435682 -0.346525 0.155529 162 
0.435964 -0.34681 0.156523 156 
0.436305 -0.347154 0.157513 160 
0.435716 -0.346569 0.158581 161 
0.434549 -0.345409 0.159693 164 
0.434717 -0.34558 0.160695 166 
0.433789 -0.344657 0.161779 165 
0.433325 -0.344198 0.162825 164 
0.433093 -0.343969 0.163853 160 
0.433493 -0.344371 0.164836 165 
0.433089 -0.343972 0.165874 166 
0.432688 -0.343575 0.166909 168 
0.43246 -0.34335 0.167931 169 
0.432118 -0.343013 0.168959 171 
0.431721 -0.34262 0.169988 165 
0.431383 -0.342286 0.171011 166 
0.431728 -0.342633 0.171999 174 
0.431561 -0.342471 0.173013 172 
0.430659 -0.341573 0.174058 164 
0.430212 -0.341131 0.175079 164 
0.429599 -0.340523 0.176104 165 
0.4291 -0.340029 0.177122 168 
0.428828 -0.33976 0.17813 169 
0.428726 -0.339661 0.179131 167 
0.428512 -0.339451 0.180134 168 
0.428131 -0.339074 0.181141 170 
0.427474 -0.338422 0.182152 170 
0.427932 -0.338882 0.183137 173 
0.427499 -0.338454 0.18414 171 
0.426403 -0.337363 0.18515 174 
0.425975 -0.33694 0.186146 176 
0.426544 -0.33751 0.187131 184 
0.425842 -0.336812 0.188128 183 
0.425087 -0.336063 0.189121 191 
0.42516 -0.336139 0.190108 183 
0.424959 -0.335941 0.191096 184 
0.424539 -0.335526 0.192082 180 
0.424231 -0.335221 0.193067 179 
0.423869 -0.334863 0.194049 176 
0.42389 -0.334888 0.195034 179 
0.423531 -0.334532 0.196014 175 
0.423118 -0.334124 0.196991 176 
0.423033 -0.334042 0.197973 174 
0.422135 -0.33315 0.198935 175 
0.421998 -0.333016 0.199913 168 
0.4217 -0.332721 0.200885 171 
0.420918 -0.331945 0.201841 177 
0.42057 -0.3316 0.202807 181 
0.420276 -0.33131 0.203773 184 
0.420144 -0.331181 0.204744 186 
0.420012 -0.331053 0.205715 182 
0.419562 -0.330606 0.206671 185 
0.419112 -0.330161 0.207625 183 
0.418294 -0.329347 0.208559 186 
0.418061 -0.329118 0.209518 181 
0.417723 -0.328784 0.210471 182 
0.417439 -0.328504 0.211425 179 
0.417368 -0.328436 0.212391 183 
0.416928 -0.328001 0.213333 184 
0.41649 -0.327567 0.214273 182 
0.416107 -0.327187 0.215215 181 
0.415254 -0.32634 0.216123 185 
0.414667 -0.325756 0.217045 185 
0.4146 -0.325693 0.218003 189 
0.414743 -0.325838 0.218977 186 
0.414418 -0.325517 0.219915 185 
0.414146 -0.325249 0.220856 187 
0.413565 -0.324672 0.221769 188 
0.413399 -0.32451 0.222715 192 
0.413131 -0.324245 0.223652 187 
0.41271 -0.323828 0.224573 184 
0.412856 -0.323976 0.225547 185 
0.412282 -0.323407 0.22645 186 
0.412121 -0.323249 0.227393 186 
0.411755 -0.322888 0.228314 188 
0.410881 -0.322018 0.229179 191 
0.411488 -0.322627 0.230201 186 
0.410261 -0.321405 0.231022 181 
0.410104 -0.321252 0.231959 184 
0.409949 -0.3211 0.232895 187 
0.409389 -0.320545 0.233782 183 
0.409539 -0.320697 0.234754 181 
0.40878 -0.319943 0.235613 181 
0.407975 -0.319142 0.236463 185 
0.408126 -0.319296 0.237433 187 
0.407425 -0.318599 0.23829 187 
0.407126 -0.318304 0.239199 186 
0.407278 -0.318458 0.240169 188 
0.406781 -0.317966 0.241049 188 
0.406734 -0.317922 0.241991 185 
0.406191 -0.317382 0.24286 180 
0.405699 -0.316894 0.243735 179 
0.405159 -0.316359 0.2446 177 
0.405165 -0.316367 0.245546 179 
0.404283 -0.31549 0.246354 177 
0.404437 -0.315648 0.247323 179 
0.404691 -0.315904 0.248308 179 
0.404059 -0.315276 0.24915 181 
0.403577 -0.314798 0.250014 179 
0.403243 -0.314468 0.250901 176 
0.404038 -0.315264 0.25198 175 
0.403361 -0.314591 0.252807 181 
0.403372 -0.314605 0.253753 182 
0.402651 -0.313888 0.254567 184 
0.402858 -0.314098 0.255548 178 
0.402042 -0.313287 0.25634 176 
0.401521 -0.312769 0.257184 181 
0.401535 -0.312786 0.258127 180 
0.400389 -0.311645 0.258847 186 
0.400838 -0.312096 0.259874 180 
0.40066 -0.311922 0.260779 183 
0.400435 -0.3117 0.261673 186 
0.400258 -0.311527 0.262577 182 
0.400517 -0.311788 0.263571 185 
0.40039 -0.311664 0.264485 185 
0.40036 -0.311637 0.26542 186 
0.399897 -0.311178 0.266262 184 
0.399676 -0.310961 0.267155 186 
0.398976 -0.310265 0.267941 181 
0.398519 -0.309811 0.268778 181 
0.398492 -0.309787 0.269711 180 
0.398322 -0.309621 0.270611 183 
0.398344 -0.309646 0.271555 185 
0.398081 -0.309386 0.272432 186 
0.397818 -0.309127 0.273309 186 
0.397509 -0.308821 0.274174 189 
0.397723 -0.309038 0.275164 191 
0.397653 -0.30897 0.276087 189 
0.397203 -0.308524 0.276915 184 
0.397181 -0.308505 0.277849 189 
0.39716 -0.308487 0.278783 190 
0.396098 -0.30743 0.279453 189 
0.395559 -0.306895 0.280251 189 
0.395399 -0.306738 0.281146 188 
0.395145 -0.306487 0.282016 188 
0.394798 -0.306144 0.282861 189 
0.394733 -0.306082 0.28378 190 
0.394061 -0.305414 0.284534 188 
0.393019 -0.304377 0.285184 192 
0.392771 -0.304132 0.286049 192 
0.392616 -0.30398 0.286938 194 
0.392601 -0.303968 0.287867 197 
0.392308 -0.303679 0.288717 191 
0.391601 -0.302976 0.289447 194 
0.390484 -0.301864 0.290056 193 
0.391113 -0.302494 0.291169 195 
0.39 -0.301386 0.291773 197 
0.389988 -0.301377 0.292698 197 
0.389839 -0.301231 0.293583 196 
0.389599 -0.300994 0.29444 194 
0.389132 -0.300531 0.295227 189 
0.388531 -0.299934 0.295971 188 
0.387933 -0.299339 0.296713 188 
0.387517 -0.298927 0.297509 189 
0.387597 -0.29901 0.298461 191 
0.387183 -0.298599 0.299256 188 
0.386949 -0.298369 0.300108 187 
0.386627 -0.29805 0.30093 184 
0.386664 -0.29809 0.301869 188 
0.385806 -0.297236 0.302512 188 
0.385175 -0.296609 0.303228 187 
0.385035 -0.296472 0.304105 188 
0.384673 -0.296113 0.304907 186 
0.384357 -0.2958 0.305724 186 
0.384041 -0.295488 0.306539 184 
0.383948 -0.295398 0.307431 184 
0.383457 -0.294911 0.308184 187 
0.383101 -0.294558 0.308982 187 
0.382525 -0.293986 0.309701 187 
0.382215 -0.293679 0.310512 182 
0.381949 -0.293416 0.311338 182 
0.381815 -0.293286 0.312212 183 
0.381725 -0.293199 0.313101 183 
0.381156 -0.292633 0.313814 182 
0.380763 -0.292243 0.31459 184 
0.380284 -0.291768 0.315332 182 
0.379979 -0.291467 0.316138 178 
0.379158 -0.290649 0.316747 173 
0.378899 -0.290393 0.317567 177 
0.379071 -0.290569 0.318552 176 
0.379288 -0.290787 0.319557 171 
0.379159 -0.290662 0.320428 169 
0.378816 -0.290322 0.321215 170 
0.379292 -0.2908 0.322325 172 
0.37964 -0.291151 0.323388 171 
0.379599 -0.291114 0.324297 170 
0.379386 -0.290903 0.325136 171 
0.379303 -0.290823 0.326028 167 
0.379264 -0.290787 0.326939 164 
0.379398 -0.290924 0.327921 161 
0.379359 -0.290888 0.328833 164 
0.379538 -0.291069 0.329837 166 
0.37937 -0.290905 0.330696 163 
0.379289 -0.290827 0.331592 164 
0.379642 -0.291183 0.332674 164 
0.379823 -0.291366 0.333684 158 
0.380047 -0.291594 0.334715 158 
0.380186 -0.291735 0.335711 155 
0.379976 -0.291528 0.336555 151 
0.38029 -0.291845 0.33763 149 
0.380168 -0.291726 0.338514 148 
0.380221 -0.291782 0.339477 149 
0.38058 -0.292144 0.340578 144 
0.381204 -0.29277 0.341801 143 
0.380995 -0.292565 0.34265 154 
0.381006 -0.292579 0.343599 154 
0.380798 -0.292374 0.344448 160 
0.381161 -0.29274 0.345562 160 
0.380998 -0.292579 0.346432 159 
0.381054 -0.292639 0.347406 156 
0.381376 -0.292963 0.348506 159 
0.381566 -0.293156 0.349546 156 
0.381712 -0.293305 0.350568 151 
0.381638 -0.293234 0.351485 154 
0.381476 -0.293075 0.352359 151 
0.381756 -0.293358 0.353449 156 
0.381905 -0.29351 0.354477 155 
0.382142 -0.29375 0.35555 145 
0.382336 -0.293947 0.356604 141 
0.382665 -0.294278 0.357727 134 
0.382415 -0.294032 0.358563 139 
0.382923 -0.294542 0.35978 130 
0.38303 -0.294653 0.360797 132 
0.382781 -0.294407 0.361635 126 
0.3828 -0.294429 0.36261 127 
0.382909 -0.29454 0.363631 133 
0.383018 -0.294652 0.364655 130 
0.383306 -0.294944 0.365773 126 
0.383282 -0.294923 0.36673 122 
0.383258 -0.294902 0.367688 118 
0.383819 -0.295465 0.368956 114 
0.384156 -0.295805 0.370109 114 
0.383818 -0.29547 0.370904 119 
0.384427 -0.296082 0.372208 116 
0.383818 -0.295477 0.372857 119 
0.384248 -0.295909 0.374068 117 
0.384407 -0.296072 0.375135 117 
0.384839 -0.296507 0.376353 121 
0.385 -0.296671 0.377425 119 
0.385299 -0.296972 0.378575 112 
0.385233 -0.29691 0.379525 113 
0.384986 -0.296667 0.380374 108 
0.38556 -0.297243 0.381684 108 
0.385998 -0.297684 0.382923 104 
0.385797 -0.297486 0.3838 107 
0.385962 -0.297654 0.384887 101 
0.386449 -0.298144 0.386161 93 
0.386846 -0.298544 0.387387 93 
0.386737 -0.298439 0.388322 92 
0.386767 -0.298472 0.389339 91 
0.387074 -0.298782 0.390519 95 
0.387382 -0.299093 0.391703 92 
0.387552 -0.299266 0.392808 99 
0.387723 -0.29944 0.393915 101 
0.387895 -0.299615 0.395024 95 
0.388533 -0.300256 0.396417 91 
0.388053 -0.299779 0.397138 95 
0.388273 -0.300002 0.398282 92 
0.389148 -0.300881 0.399829 98 
0.389089 -0.300825 0.400809 102 
0.389077 -0.300816 0.401819 105 
0.388504 -0.300246 0.402481 103 
0.388727 -0.300472 0.403637 96 
0.389091 -0.300839 0.404884 96 
0.388893 -0.300644 0.40578 97 
0.389023 -0.300778 0.406884 97 
0.389248 -0.301007 0.40805 95 
0.389145 -0.300907 0.409009 96 
0.388948 -0.300713 0.409908 97 
0.454152 -0.370635 -0.0859064 4 
0.389733 -0.305494 -0.0411334 5 
0.391873 -0.307661 -0.0415354 4 
0.390426 -0.306202 -0.0395264 3 
0.392912 -0.308718 -0.0401464 4 
0.39795 -0.313817 -0.0424464 3 
0.154206 -0.0673101 0.116999 3 
0.388592 -0.304359 -0.0341844 4 
0.393792 -0.309622 -0.0365604 4 
0.39354 -0.309371 -0.0353554 3 
0.395039 -0.310889 -0.0352884 4 
0.393959 -0.309801 -0.0335494 4 
0.231063 -0.145054 0.0714566 4 
0.394623 -0.310479 -0.0318994 4 
0.392345 -0.308178 -0.0294114 4 
0.394511 -0.310373 -0.0297534 5 
0.392861 -0.308707 -0.0276774 7 
0.395667 -0.311548 -0.0284084 4 
0.398072 -0.313984 -0.0288734 6 
0.39585 -0.31174 -0.0264494 6 
0.397613 -0.313526 -0.0265044 7 
0.397114 -0.313025 -0.0251574 6 
0.395005 -0.310895 -0.0228274 5 
0.395536 -0.311436 -0.0221214 6 
0.397295 -0.313218 -0.0221584 9 
0.396652 -0.312571 -0.0207344 5 
0.398273 -0.314214 -0.0206774 7 
0.398318 -0.314263 -0.0196684 6 
0.399655 -0.315619 -0.0194294 9 
0.39762 -0.313564 -0.0171864 6 
0.401048 -0.317034 -0.0181754 7 
0.400844 -0.316831 -0.0170154 8 
0.399344 -0.315317 -0.0151014 11 
0.401239 -0.317238 -0.0151684 12 
0.402496 -0.318512 -0.0148564 10 
0.401888 -0.317901 -0.0134664 11 
0.403454 -0.319488 -0.0133244 10 
0.399039 -0.315026 -0.00977043 12 
0.40068 -0.316689 -0.00967142 10 
0.40355 -0.319596 -0.0102574 10 
0.40073 -0.316746 -0.00763743 12 
0.402034 -0.318068 -0.00733443 14 
0.401131 -0.317158 -0.00580043 12 
0.402035 -0.318076 -0.00527042 12 
0.401034 -0.317067 -0.00368943 13 
0.402541 -0.318595 -0.00348543 12 
0.404213 -0.32029 -0.00336244 14 
0.403606 -0.319679 -0.00200042 16 
0.403659 -0.319736 -0.000996429 17 
0.402803 -0.318873 0.00049257 16 
0.403615 -0.319698 0.00108857 15 
0.402861 -0.318938 0.00251656 13 
0.403774 -0.319866 0.00306257 16 
0.403021 -0.319107 0.00448458 14 
0.404392 -0.320497 0.00479658 14 
0.40278 -0.318869 0.00665857 18 
0.404708 -0.320823 0.00668958 18 
0.405529 -0.321657 0.00729657 18 
0.405484 -0.321615 0.00834857 21 
0.40549 -0.321625 0.00937357 20 
0.405039 -0.321171 0.0106276 22 
0.403729 -0.319849 0.0123076 20 
0.405105 -0.321245 0.0126436 22 
0.406032 -0.322186 0.0132086 28 
0.405173 -0.321321 0.0146556 22 
0.407023 -0.323195 0.0147736 23 
0.406827 -0.323 0.0158946 19 
0.406734 -0.32291 0.0169646 20 
0.406539 -0.322716 0.0180816 25 
0.406704 -0.322886 0.0190256 23 
0.406408 -0.32259 0.0201886 20 
0.40688 -0.323071 0.0209856 25 
0.406995 -0.32319 0.0219536 26 
0.406956 -0.323154 0.0229916 27 
0.407431 -0.323638 0.0237916 25 
0.408423 -0.324645 0.0243546 22 
0.408024 -0.324245 0.0255596 28 
0.409694 -0.325938 0.0258196 28 
0.409086 -0.325326 0.0271186 35 
0.409049 -0.325292 0.0281566 31 
0.410207 -0.326467 0.0286606 33 
0.40908 -0.32533 0.0301836 32 
0.410813 -0.327086 0.0304396 29 
0.411038 -0.327318 0.0313636 32 
0.411579 -0.327869 0.0321516 35 
0.411649 -0.327943 0.0331446 29 
0.410569 -0.326853 0.0346326 22 
0.412685 -0.328997 0.0347486 9 
0.302572 -0.217558 0.0823356 6 
0.575735 -0.494023 -0.0320454 7 
0.470631 -0.387654 0.0135436 7 
0.381113 -0.297057 0.0519616 6 
0.393714 -0.309814 0.0476966 6 
0.419077 -0.335487 0.0382636 5 
0.459242 -0.376142 0.0229236 7 
0.417708 -0.334108 0.0408926 6 
0.377336 -0.293249 0.0581386 6 
0.446065 -0.362816 0.0316336 8 
0.438879 -0.355546 0.0355946 7 
0.374109 -0.289991 0.0621646 8 
0.403386 -0.319628 0.0516446 8 
0.341499 -0.25699 0.0765986 15 
0.33887 -0.254331 0.0784246 28 
0.336453 -0.251888 0.0801546 32 
0.333981 -0.249387 0.0818916 50 
0.332123 -0.24751 0.0833836 56 
0.331109 -0.246486 0.0845506 60 
0.330071 -0.245438 0.0857206 65 
0.329135 -0.244493 0.0868466 70 
0.327805 -0.243149 0.0881106 66 
0.327714 -0.24306 0.0889186 66 
0.32649 -0.241823 0.0901316 71 
0.32552 -0.240843 0.0912476 89 
0.324437 -0.239749 0.0923978 90 
0.32411 -0.239421 0.0932764 91 
0.323456 -0.238761 0.0942663 102 
0.322954 -0.238255 0.0951998 109 
0.32275 -0.238052 0.0960279 116 
0.322459 -0.237759 0.0968843 111 
0.321814 -0.237109 0.0978574 117 
0.321349 -0.236641 0.0987665 125 
0.321032 -0.236322 0.0996235 122 
0.320746 -0.236035 0.100468 121 
0.320082 -0.235365 0.101434 113 
0.320118 -0.235403 0.10217 106 
0.319516 -0.234796 0.10311 92 
0.319032 -0.234309 0.104008 103 
0.318982 -0.234261 0.104767 118 
0.318903 -0.234183 0.105534 117 
0.318997 -0.234281 0.106247 115 
0.318832 -0.234116 0.107039 123 
0.318697 -0.233981 0.107821 128 
0.319021 -0.234312 0.108463 134 
0.318628 -0.233916 0.109321 139 
0.318636 -0.233928 0.110057 138 
0.318388 -0.233678 0.110868 131 
0.318397 -0.23369 0.111603 127 
0.318521 -0.233818 0.112304 122 
0.318617 -0.233917 0.113014 124 
0.318598 -0.233901 0.113756 120 
0.318952 -0.234262 0.114393 122 
0.318619 -0.233926 0.115222 127 
0.318859 -0.234172 0.115892 139 
0.318898 -0.234214 0.116617 143 
0.31911 -0.234431 0.117295 143 
0.319035 -0.234358 0.118051 138 
0.319651 -0.234983 0.118624 134 
0.319576 -0.23491 0.119379 134 
0.319877 -0.235217 0.120038 132 
0.320409 -0.235759 0.120638 137 
0.320277 -0.235627 0.121408 150 
0.320377 -0.23573 0.12212 156 
0.320796 -0.236157 0.122753 163 
0.320983 -0.236349 0.123444 168 
0.321725 -0.237103 0.124002 173 
0.32168 -0.23706 0.124751 176 
0.32187 -0.237254 0.125445 178 
0.322147 -0.237537 0.126118 179 
0.322778 -0.238179 0.126711 179 
0.322881 -0.238285 0.127428 181 
0.324079 -0.239501 0.127898 186 
0.324243 -0.239669 0.128604 184 
0.324377 -0.239808 0.129318 181 
0.324572 -0.240007 0.130019 181 
0.324886 -0.240327 0.130694 181 
0.325051 -0.240497 0.131403 178 
0.325667 -0.241123 0.132018 177 
0.326557 -0.242027 0.132579 179 
0.326997 -0.242475 0.133236 184 
0.327592 -0.24308 0.133864 184 
0.328158 -0.243656 0.134501 181 
0.328573 -0.244079 0.13517 183 
0.329298 -0.244815 0.135781 182 
0.329871 -0.245398 0.136424 180 
0.330665 -0.246204 0.137029 187 
0.331026 -0.246573 0.137718 184 
0.331827 -0.247386 0.138328 184 
0.332285 -0.247853 0.139003 186 
0.333157 -0.248738 0.139608 185 
0.33432 -0.249918 0.140165 182 
0.334723 -0.25033 0.14086 179 
0.3359 -0.251524 0.141425 177 
0.336437 -0.252071 0.142103 176 
0.337075 -0.252719 0.142768 180 
0.338173 -0.253833 0.14336 173 
0.339576 -0.255257 0.143909 171 
0.340527 -0.256223 0.144537 175 
0.341887 -0.257603 0.145106 176 
0.343259 -0.258995 0.145681 181 
0.3442 -0.259952 0.146326 175 
0.345492 -0.261262 0.146925 180 
0.346898 -0.26269 0.147514 175 
0.348599 -0.264415 0.148069 173 
0.350782 -0.266629 0.148565 168 
0.353106 -0.268986 0.149054 170 
0.356091 -0.272012 0.149467 174 
0.358648 -0.274605 0.149951 172 
0.360638 -0.276624 0.150521 154 
0.362578 -0.278592 0.151107 136 
0.365519 -0.281573 0.151581 104 
0.435036 -0.352001 0.144056 105 
0.43531 -0.352281 0.14505 134 
0.435059 -0.35203 0.146106 149 
0.434459 -0.351426 0.147199 152 
0.434677 -0.351649 0.1482 158 
0.43472 -0.351697 0.14922 151 
0.434066 -0.351038 0.150313 156 
0.433995 -0.350969 0.151342 155 
0.434099 -0.351077 0.152354 158 
0.433218 -0.350188 0.153462 162 
0.433497 -0.350474 0.154455 160 
0.433371 -0.35035 0.155487 162 
0.43342 -0.350403 0.156502 162 
0.433354 -0.350339 0.157528 163 
0.432943 -0.349926 0.158581 161 
0.432475 -0.349455 0.159637 158 
0.432182 -0.349162 0.160677 160 
0.431776 -0.348753 0.161723 162 
0.432059 -0.349043 0.162717 163 
0.431998 -0.348985 0.163736 160 
0.431023 -0.348 0.164817 161 
0.43085 -0.347828 0.16584 157 
0.430394 -0.347369 0.16688 162 
0.429769 -0.346739 0.167928 161 
0.4296 -0.346571 0.168946 165 
0.429772 -0.346749 0.169945 167 
0.429775 -0.346755 0.170953 168 
0.429269 -0.346245 0.171986 166 
0.428483 -0.345452 0.173029 167 
0.42815 -0.345118 0.174048 163 
0.42737 -0.344331 0.175084 162 
0.427209 -0.344171 0.176091 159 
0.426826 -0.343786 0.177106 167 
0.426332 -0.343289 0.178122 170 
0.425952 -0.342907 0.179132 168 
0.425906 -0.342864 0.180131 168 
0.426084 -0.343047 0.181124 169 
0.425595 -0.342555 0.182133 166 
0.425331 -0.34229 0.183135 172 
0.425122 -0.342082 0.184134 172 
0.42497 -0.341931 0.185131 173 
0.424985 -0.341949 0.186126 175 
0.424118 -0.341074 0.187129 176 
0.423914 -0.34087 0.188122 178 
0.423108 -0.340057 0.189118 184 
0.423839 -0.3408 0.190106 182 
0.423035 -0.339989 0.191097 182 
0.422235 -0.339181 0.192084 178 
0.42171 -0.338653 0.193068 175 
0.421677 -0.338622 0.194054 173 
0.421698 -0.338647 0.19504 177 
0.421395 -0.338343 0.196022 174 
0.421201 -0.338149 0.197004 172 
0.420629 -0.337573 0.197978 168 
0.420545 -0.337491 0.19896 165 
0.420301 -0.337246 0.199937 171 
0.419895 -0.336839 0.200908 172 
0.419116 -0.336053 0.201867 175 
0.418662 -0.335595 0.202832 179 
0.419225 -0.336169 0.20383 178 
0.418184 -0.335117 0.204771 177 
0.418427 -0.335366 0.205758 183 
0.417764 -0.334697 0.206708 182 
0.417051 -0.333978 0.207652 181 
0.416923 -0.333852 0.208621 178 
0.416215 -0.333137 0.209559 175 
0.416037 -0.332959 0.210522 180 
0.415701 -0.332622 0.211476 177 
0.41521 -0.332127 0.212419 182 
0.416191 -0.333126 0.21345 181 
0.414494 -0.331408 0.214314 182 
0.414216 -0.331129 0.215264 183 
0.4142 -0.331117 0.216232 185 
0.413508 -0.330418 0.21715 185 
0.413234 -0.330143 0.218097 185 
0.412909 -0.329817 0.219038 186 
0.413207 -0.330123 0.220028 187 
0.412936 -0.329851 0.220972 182 
0.411324 -0.32822 0.2218 184 
0.411468 -0.328369 0.222774 182 
0.411304 -0.328205 0.223722 188 
0.410781 -0.327679 0.224636 189 
0.410773 -0.327673 0.225596 187 
0.410458 -0.327357 0.226526 187 
0.410195 -0.327093 0.227461 188 
0.409423 -0.326314 0.22834 181 
0.408757 -0.325642 0.229228 184 
0.408702 -0.325589 0.230179 183 
0.408039 -0.324921 0.231061 185 
0.407733 -0.324613 0.231982 188 
0.40773 -0.324613 0.232936 185 
0.407475 -0.324358 0.233861 185 
0.407373 -0.324257 0.234803 187 
0.40717 -0.324055 0.235733 187 
0.406467 -0.323345 0.236597 184 
0.406117 -0.322993 0.237504 182 
0.405718 -0.322592 0.238404 184 
0.40547 -0.322344 0.239321 181 
0.406371 -0.32326 0.240398 181 
0.405575 -0.322455 0.241239 185 
0.40508 -0.321957 0.24212 179 
0.404191 -0.321059 0.24294 178 
0.40385 -0.320716 0.243838 179 
0.403608 -0.320474 0.24475 175 
0.403712 -0.320582 0.245714 178 
0.403719 -0.320592 0.246664 173 
0.402937 -0.319803 0.247488 177 
0.402945 -0.319813 0.248436 174 
0.402217 -0.319079 0.249263 174 
0.402079 -0.318942 0.250186 172 
0.401893 -0.318756 0.2511 173 
0.401805 -0.31867 0.252031 180 
0.40206 -0.318931 0.253022 179 
0.401387 -0.318252 0.253849 181 
0.40135 -0.318217 0.254788 180 
0.40146 -0.318332 0.255754 177 
0.401131 -0.318002 0.256639 178 
0.40095 -0.317821 0.257551 178 
0.400672 -0.317543 0.258444 178 
0.40025 -0.317118 0.259307 175 
0.400265 -0.317136 0.260255 176 
0.399797 -0.316664 0.261107 175 
0.399234 -0.316096 0.261937 176 
0.399154 -0.316018 0.262864 177 
0.399123 -0.31599 0.263801 180 
0.398756 -0.31562 0.264668 181 
0.398582 -0.315447 0.265574 181 
0.398313 -0.315177 0.266459 182 
0.397901 -0.314762 0.267312 183 
0.397777 -0.31464 0.268227 180 
0.397463 -0.314325 0.269099 178 
0.397007 -0.313865 0.269937 181 
0.396695 -0.313552 0.270807 180 
0.396717 -0.313577 0.271753 184 
0.396597 -0.313458 0.272667 190 
0.396288 -0.313147 0.273535 186 
0.396074 -0.312934 0.274425 181 
0.395861 -0.312721 0.275314 181 
0.395223 -0.312077 0.276098 185 
0.395296 -0.312154 0.277056 188 
0.39518 -0.312039 0.277968 197 
0.395112 -0.311973 0.278891 196 
0.394902 -0.311764 0.279779 191 
0.394883 -0.311746 0.280715 193 
0.394486 -0.311348 0.281552 188 
0.393575 -0.310427 0.282252 189 
0.392949 -0.309795 0.283023 186 
0.392978 -0.309827 0.283969 189 
0.392728 -0.309576 0.284839 190 
0.391595 -0.308431 0.285465 190 
0.392136 -0.308982 0.286551 191 
0.39087 -0.3077 0.287133 196 
0.39067 -0.307501 0.288011 195 
0.390195 -0.307022 0.288809 194 
0.389721 -0.306544 0.289606 194 
0.389753 -0.30658 0.290549 194 
0.388825 -0.305641 0.291209 196 
0.388857 -0.305677 0.292152 198 
0.388071 -0.304882 0.292848 197 
0.387741 -0.30455 0.293679 197 
0.387367 -0.304174 0.294496 191 
0.387084 -0.30389 0.295339 189 
0.386351 -0.30315 0.296041 189 
0.386792 -0.3036 0.297108 187 
0.386421 -0.303227 0.297922 191 
0.385603 -0.3024 0.29859 191 
0.38528 -0.302075 0.299415 190 
0.384959 -0.301752 0.300239 191 
0.384638 -0.30143 0.301061 190 
0.384496 -0.301289 0.301942 190 
0.384222 -0.301014 0.302779 193 
0.383859 -0.300649 0.303585 191 
0.384075 -0.300871 0.304586 191 
0.383137 -0.299922 0.305194 190 
0.383132 -0.299919 0.306119 190 
0.382773 -0.299558 0.306921 193 
0.382282 -0.299064 0.307677 187 
0.381882 -0.29866 0.308462 183 
0.381658 -0.298436 0.309308 185 
0.380997 -0.297768 0.309998 185 
0.381081 -0.297857 0.310953 179 
0.380292 -0.297059 0.311591 181 
0.380289 -0.297059 0.312514 180 
0.379938 -0.296706 0.31331 178 
0.379763 -0.296531 0.314169 176 
0.379414 -0.29618 0.314963 177 
0.379152 -0.295918 0.315788 177 
0.378676 -0.295437 0.316531 180 
0.378589 -0.295352 0.317422 178 
0.37833 -0.295092 0.318246 175 
0.378244 -0.295008 0.319136 172 
0.37777 -0.29453 0.319876 171 
0.377815 -0.294578 0.320817 168 
0.377859 -0.294626 0.321759 171 
0.377948 -0.294719 0.32272 169 
0.378123 -0.2949 0.323717 165 
0.37791 -0.294687 0.324558 163 
0.37787 -0.294649 0.32547 168 
0.378046 -0.294831 0.32647 156 
0.378137 -0.294926 0.327437 160 
0.378444 -0.295241 0.328496 158 
0.378623 -0.295425 0.329503 155 
0.378628 -0.295433 0.330438 159 
0.378721 -0.29553 0.331412 156 
0.37877 -0.295584 0.332368 159 
0.378995 -0.295814 0.333401 163 
0.379612 -0.296444 0.334606 165 
0.379184 -0.296012 0.335359 166 
0.378887 -0.295714 0.336168 166 
0.378678 -0.295505 0.337015 162 
0.379427 -0.296269 0.338288 159 
0.379218 -0.296059 0.339136 158 
0.380147 -0.297006 0.340497 155 
0.380158 -0.297019 0.341448 156 
0.379949 -0.29681 0.3423 154 
0.379697 -0.296557 0.343131 159 
0.379796 -0.296661 0.344124 152 
0.380467 -0.297345 0.345384 153 
0.380039 -0.296914 0.346135 154 
0.380448 -0.297332 0.347277 160 
0.380682 -0.297573 0.34834 160 
0.380696 -0.297589 0.349301 160 
0.380401 -0.297293 0.350114 151 
0.380283 -0.297176 0.351012 150 
0.381182 -0.298092 0.352403 150 
0.380489 -0.297392 0.353024 150 
0.381257 -0.298175 0.354358 150 
0.381007 -0.297924 0.355195 145 
0.381023 -0.297943 0.356163 144 
0.380774 -0.297694 0.357001 145 
0.381457 -0.29839 0.358305 141 
0.381653 -0.298592 0.359368 136 
0.381983 -0.29893 0.360501 135 
0.382136 -0.299089 0.361547 135 
0.3822 -0.299156 0.362549 132 
0.381951 -0.298907 0.36339 129 
0.382194 -0.299157 0.364486 127 
0.382349 -0.299317 0.365539 132 
0.382504 -0.299478 0.366593 132 
0.38284 -0.299822 0.367745 127 
0.382772 -0.299756 0.368685 119 
0.382614 -0.299598 0.369577 113 
0.382996 -0.29999 0.37076 113 
0.382974 -0.29997 0.371727 119 
0.383358 -0.300363 0.372915 118 
0.383698 -0.300712 0.374083 115 
0.383541 -0.300556 0.374981 118 
0.383294 -0.300308 0.375829 121 
0.383863 -0.300888 0.377129 110 
0.383843 -0.300871 0.378105 110 
0.383732 -0.300762 0.379031 110 
0.38394 -0.300976 0.380137 114 
0.384376 -0.301422 0.381374 112 
0.384403 -0.301453 0.382381 108 
0.38443 -0.301484 0.383391 108 
0.384778 -0.30184 0.384585 109 
0.384532 -0.301593 0.385439 105 
0.38534 -0.302417 0.386904 95 
0.385783 -0.30287 0.388163 99 
0.385813 -0.302904 0.389183 95 
0.385797 -0.302891 0.390177 97 
0.385643 -0.302738 0.39109 98 
0.386552 -0.303664 0.392636 94 
0.386121 -0.303229 0.393387 95 
0.386523 -0.303641 0.394636 96 
0.387253 -0.304385 0.396087 96 
0.38738 -0.304517 0.397178 97 
0.387413 -0.304555 0.398213 98 
0.387401 -0.304545 0.399222 102 
0.388184 -0.305344 0.400721 102 
0.38775 -0.304907 0.401473 99 
0.388208 -0.305374 0.402777 104 
0.387587 -0.304748 0.403412 98 
0.388233 -0.305407 0.404839 99 
0.388082 -0.305256 0.405769 99 
0.387743 -0.304916 0.406579 97 
0.387921 -0.3051 0.407718 94 
0.387537 -0.304712 0.408499 93 
0.387528 -0.304707 0.40952 96 
0.38813 -0.305321 0.410936 103 
0.387295 -0.308498 -0.0421774 4 
0.38597 -0.307141 -0.0402394 3 
0.386757 -0.307952 -0.0397404 5 
0.384602 -0.305742 -0.0372534 4 
0.38702 -0.308229 -0.0378514 3 
0.38971 -0.310996 -0.0386184 4 
0.386393 -0.307592 -0.0353724 3 
0.39036 -0.31167 -0.0369724 4 
0.392955 -0.314339 -0.0376444 6 
0.391013 -0.312348 -0.0353244 5 
0.389237 -0.310527 -0.0331254 5 
0.395813 -0.317286 -0.0363714 6 
0.390557 -0.31189 -0.0319164 6 
0.394664 -0.316112 -0.0335294 5 
0.392514 -0.313907 -0.0311044 5 
0.392217 -0.313605 -0.0298764 5 
0.396607 -0.318119 -0.0316314 6 
0.395859 -0.317353 -0.0301094 5 
0.399282 -0.320874 -0.0312204 7 
0.398672 -0.320251 -0.0297844 5 
0.391657 -0.313047 -0.0243564 9 
0.394215 -0.315678 -0.0249154 6 
0.394356 -0.315826 -0.0239664 6 
0.397201 -0.318753 -0.0246794 7 
0.396109 -0.317634 -0.0229684 8 
0.394196 -0.315672 -0.0207644 8 
0.394874 -0.316372 -0.0201434 10 
0.394675 -0.316171 -0.0189904 10 
0.395454 -0.316974 -0.0184254 8 
0.398462 -0.320069 -0.0191884 11 
0.396232 -0.317781 -0.0168224 9 
0.398903 -0.320529 -0.0173684 12 
0.396768 -0.318338 -0.0150724 10 
0.396274 -0.317834 -0.0137494 12 
0.396863 -0.318442 -0.0130614 9 
0.398246 -0.319867 -0.0128314 10 
0.39929 -0.320943 -0.0123984 9 
0.399089 -0.32074 -0.0112464 10 
0.398938 -0.320588 -0.0101254 10 
0.398838 -0.320489 -0.00903443 12 
0.399835 -0.321517 -0.00856543 7 
0.399586 -0.321264 -0.00739043 11 
0.398144 -0.319786 -0.00555143 10 
0.397306 -0.318928 -0.00405743 12 
0.39899 -0.320662 -0.00396443 12 
