0.434739,-0.0626278,0.0980761,193
0.434523,-0.0625709,0.0988604,192
0.433961,-0.0624194,0.0995613,192
0.434044,-0.0624442,0.100417,189
0.433781,-0.0623743,0.101188,187
0.433568,-0.0623181,0.101972,186
0.433801,-0.0623837,0.102866,180
0.433639,-0.0623413,0.103662,178
0.433526,-0.0623125,0.104471,181
0.434009,-0.0624463,0.105432,179
0.43355,-0.0623229,0.106154,181
0.433984,-0.0624435,0.107105,182
0.433973,-0.0624422,0.107942,184
0.43436,-0.0625498,0.108884,183
0.434448,-0.062576,0.10975,186
0.434289,-0.0625344,0.110551,189
0.434528,-0.0626017,0.111458,189
0.434619,-0.0626284,0.112327,185
0.43441,-0.0625735,0.113116,184
0.434701,-0.0626549,0.114041,184
0.434993,-0.0627366,0.114969,183
0.434836,-0.0626956,0.115773,181
0.434629,-0.062641,0.116563,181
0.434872,-0.0627095,0.11748,179
0.434816,-0.0626961,0.118314,182
0.43481,-0.0626965,0.119162,186
0.435055,-0.0627654,0.120083,186
0.435151,-0.0627935,0.120963,182
0.435197,-0.062808,0.121829,181
0.435293,-0.0628363,0.122711,178
0.435541,-0.062906,0.123639,174
0.435236,-0.0628248,0.124403,179
0.435385,-0.0628673,0.125303,178
0.435584,-0.0629236,0.12622,177
0.435783,-0.0629802,0.127138,177
0.435984,-0.063037,0.128058,177
0.436185,-0.0630939,0.12898,179
0.436185,-0.0630959,0.129841,178
0.436286,-0.0631255,0.130734,181
0.436439,-0.0631692,0.131644,180
0.436338,-0.0631438,0.132476,180
0.43639,-0.06316,0.133356,179
0.436443,-0.0631764,0.134238,178
0.436902,-0.0633038,0.135252,174
0.437057,-0.0633482,0.136169,175
0.436806,-0.0632817,0.136955,179
0.436861,-0.0632986,0.137842,172
0.437476,-0.0634686,0.138915,172
0.437736,-0.0635416,0.139872,175
0.437384,-0.0634475,0.140627,176
0.437695,-0.0635346,0.141604,179
0.437855,-0.0635802,0.142532,180
0.438015,-0.0636259,0.143462,178
0.438073,-0.0636438,0.144358,176
0.43767,-0.0635359,0.145095,172
0.43778,-0.063568,0.14601,175
0.438249,-0.0636982,0.147052,173
0.438104,-0.0636605,0.14788,167
0.438987,-0.0639038,0.149073,166
0.439099,-0.0639366,0.149995,164
0.439264,-0.0639837,0.150938,161
0.439585,-0.0640733,0.151938,161
0.439544,-0.0640642,0.152809,166
0.439142,-0.0639564,0.153549,162
0.440241,-0.0642588,0.154839,157
0.440357,-0.0642926,0.155771,154
0.440422,-0.0643124,0.156686,155
0.439915,-0.064176,0.157389,157
0.439151,-0.0639694,0.157994,161
0.440046,-0.064216,0.159222,161
0.440633,-0.0643784,0.160337,163
0.439971,-0.0641996,0.16098,156
0.43957,-0.0640921,0.161721,151
0.439793,-0.0641551,0.162702,152
0.439445,-0.0640621,0.163463,150
0.438838,-0.0638985,0.164123,147
0.438492,-0.0638059,0.164883,145
0.438353,-0.0637701,0.165724,144
0.438317,-0.0637625,0.166606,147
0.438024,-0.0636845,0.167386,141
0.438248,-0.0637477,0.168373,142
0.438058,-0.0636981,0.169195,138
0.438438,-0.063804,0.170248,137
0.438146,-0.0637262,0.17103,132
0.437854,-0.0636486,0.171811,132
0.438442,-0.0638114,0.172954,134
0.43841,-0.0638046,0.173843,135
0.437343,-0.0635152,0.174305,125
0.437466,-0.0635509,0.175258,126
0.437228,-0.0634879,0.176062,131
0.436938,-0.0634109,0.176844,135
0.436752,-0.0633622,0.17767,132
0.436412,-0.0632714,0.17843,127
0.436382,-0.0632652,0.179321,125
0.4363,-0.063245,0.180192,128
0.434987,-0.0628882,0.180531,128
0.434139,-0.0626587,0.181067,125
0.433499,-0.0624857,0.181691,124
0.433266,-0.0624241,0.182492,134
0.432983,-0.0623488,0.183271,129
0.433309,-0.0624402,0.184319,126
0.432773,-0.0622956,0.184986,127
0.431479,-0.0619442,0.185312,127
0.431199,-0.0618696,0.18609,123
0.431322,-0.0619054,0.187048,112
0.431748,-0.0620242,0.188146,107
0.432633,-0.0622682,0.189456,107
0.431441,-0.0619444,0.189819,97
0.431111,-0.0618563,0.190575,105
0.431489,-0.0619617,0.191657,107
0.43121,-0.0618875,0.192437,102
0.43083,-0.0617859,0.19317,103
0.430805,-0.061781,0.194068,98
0.413256,-0.0594582,-0.197356,8
0.414479,-0.0598021,-0.19708,10
0.411302,-0.0589159,-0.194646,5
0.412375,-0.0592179,-0.194297,7
0.414056,-0.0596901,-0.194239,7
0.414024,-0.0596833,-0.193349,7
0.416281,-0.0603164,-0.193559,5
0.415827,-0.0601915,-0.192462,7
0.415561,-0.0601192,-0.191459,8
0.415857,-0.0602041,-0.190724,8
0.41667,-0.0604335,-0.190233,8
0.416592,-0.0604137,-0.18932,10
0.415485,-0.060106,-0.187927,9
0.41457,-0.0598523,-0.186629,11
0.416453,-0.060381,-0.186633,9
0.417127,-0.0605715,-0.186072,11
0.417803,-0.0607626,-0.185509,10
0.417867,-0.0607826,-0.184665,10
0.417885,-0.0607895,-0.1838,9
0.419084,-0.061127,-0.183471,10
0.421485,-0.0618007,-0.183679,10
0.416623,-0.0604429,-0.180622,10
0.417017,-0.0605549,-0.179931,12
0.417223,-0.0606146,-0.179155,14
0.418371,-0.0609377,-0.178796,13
0.418154,-0.0608791,-0.177833,15
0.420161,-0.0614424,-0.177844,14
0.419184,-0.0611713,-0.176549,15
0.419819,-0.061351,-0.175957,11
0.420647,-0.0615845,-0.175446,12
0.418677,-0.0610356,-0.173732,13
0.419927,-0.0613872,-0.173402,19
0.420612,-0.0615809,-0.172827,15
0.420966,-0.0616819,-0.172111,17
0.420606,-0.0615833,-0.171093,15
0.421627,-0.0618711,-0.170656,17
0.42122,-0.061759,-0.16962,22
0.420956,-0.0616872,-0.168646,18
0.420171,-0.0614697,-0.16746,17
0.421714,-0.0619035,-0.167232,22
0.420595,-0.0615924,-0.165912,19
0.42114,-0.061747,-0.165274,22
0.422021,-0.0619953,-0.164769,25
0.422474,-0.0621242,-0.164089,25
0.422067,-0.0620124,-0.163065,26
0.422569,-0.0621547,-0.162404,26
0.422784,-0.062217,-0.161629,30
0.422187,-0.062052,-0.160534,31
0.423648,-0.0624627,-0.160247,30
0.423768,-0.0624985,-0.159434,29
0.423122,-0.0623196,-0.158324,25
0.423483,-0.0624225,-0.157605,33
0.423364,-0.0623915,-0.156702,30
0.42411,-0.0626021,-0.156129,32
0.424376,-0.0626787,-0.155373,35
0.424933,-0.0628364,-0.154725,37
0.424285,-0.0626572,-0.153625,31
0.425131,-0.0628958,-0.153084,32
0.425883,-0.0631083,-0.152505,32
0.424992,-0.0628612,-0.15132,34
0.425406,-0.0629789,-0.150616,39
0.425821,-0.063097,-0.149912,42
0.426042,-0.063161,-0.149137,43
0.425154,-0.0629143,-0.147962,41
0.426439,-0.063276,-0.147569,42
0.426129,-0.0631913,-0.146605,36
0.426934,-0.0634186,-0.146036,42
0.426818,-0.0633882,-0.145142,40
0.426994,-0.0634394,-0.14435,40
0.427753,-0.0636541,-0.143761,36
0.428028,-0.0637328,-0.143002,36
0.428351,-0.0638255,-0.14226,39
0.428627,-0.0639046,-0.1415,41
0.428805,-0.0639565,-0.140707,43
0.429278,-0.0640907,-0.140014,47
0.429604,-0.0641841,-0.13927,43
0.429538,-0.0641678,-0.138395,45
0.429571,-0.064179,-0.137553,45
0.429703,-0.0642177,-0.136744,51
0.429834,-0.0642566,-0.135936,52
0.431049,-0.0645987,-0.135479,50
0.430935,-0.0645689,-0.13459,51
0.431069,-0.0646082,-0.13378,54
0.431844,-0.0648274,-0.133176,58
0.431731,-0.0647977,-0.132288,53
0.431619,-0.0647682,-0.131401,51
0.432595,-0.0650437,-0.130855,53
0.433826,-0.0653903,-0.130386,53
0.433414,-0.065277,-0.129404,60
0.433501,-0.0653033,-0.128579,59
0.433538,-0.0653158,-0.127738,61
0.434125,-0.0654819,-0.127064,60
0.434063,-0.0654667,-0.126193,66
0.434251,-0.0655214,-0.125398,68
0.43469,-0.0656463,-0.124677,68
0.43518,-0.0657855,-0.123971,70
0.43522,-0.0657987,-0.123131,68
0.435611,-0.0659103,-0.122393,71
0.436306,-0.0661067,-0.121742,77
0.436447,-0.0661484,-0.120931,77
0.436589,-0.0661902,-0.120119,78
0.437085,-0.0663311,-0.119408,86
0.437279,-0.0663874,-0.118611,83
0.437879,-0.0665573,-0.117926,85
0.437668,-0.0665004,-0.117016,84
0.43761,-0.0664862,-0.116149,79
0.438009,-0.0665997,-0.115407,80
0.439069,-0.0668988,-0.114843,79
0.440084,-0.067185,-0.114263,85
0.439312,-0.0669707,-0.113203,85
0.439154,-0.0669284,-0.11231,83
0.439353,-0.0669861,-0.111512,82
0.440369,-0.067273,-0.110926,82
0.440314,-0.0672595,-0.11006,73
0.440413,-0.0672891,-0.109234,70
0.440307,-0.0672615,-0.108356,63
0.440304,-0.0672627,-0.107505,61
0.440251,-0.0672497,-0.106642,67
0.4403,-0.0672655,-0.105806,67
0.440913,-0.0674391,-0.105108,64
0.441065,-0.0674839,-0.104297,75
0.441424,-0.0675863,-0.103535,82
0.441886,-0.0677179,-0.102797,82
0.442556,-0.0679076,-0.102107,79
0.44385,-0.0682722,-0.101563,82
0.442609,-0.0679265,-0.10042,83
0.442869,-0.0680012,-0.0996309,86
0.442819,-0.0679893,-0.0987703,89
0.44308,-0.0680644,-0.0979812,92
0.443704,-0.0682412,-0.0972739,93
0.443915,-0.0683022,-0.0964719,101
0.443711,-0.0682472,-0.0955774,102
0.443405,-0.0681634,-0.0946616,106
0.443824,-0.0682828,-0.093906,97
0.443467,-0.0681847,-0.0929812,90
0.44337,-0.0681594,-0.092114,87
0.443221,-0.0681198,-0.0912368,88
0.442919,-0.068037,-0.0903282,86
0.44272,-0.0679833,-0.0894431,83
0.443812,-0.0682914,-0.0888257,85
0.443356,-0.0681654,-0.0878877,85
0.443365,-0.0681699,-0.0870463,87
0.443219,-0.0681312,-0.0861744,89
0.44323,-0.068136,-0.0853344,83
0.443034,-0.0680832,-0.0844544,80
0.442942,-0.0680594,-0.0835957,83
0.442851,-0.0680358,-0.082738,93
0.443275,-0.0681567,-0.0819795,89
0.443082,-0.0681045,-0.0811031,107
0.442787,-0.0680237,-0.0802088,109
0.443058,-0.0681016,-0.0794208,115
0.442866,-0.0680499,-0.0785477,120
0.443087,-0.0681138,-0.0777502,127
0.441974,-0.0678036,-0.0767135,129
0.441427,-0.0676524,-0.0757821,126
0.442416,-0.0679315,-0.0751218,125
0.441512,-0.0676801,-0.0741305,127
0.440918,-0.0675156,-0.0731962,133
0.440784,-0.0674799,-0.0723424,142
0.440295,-0.0673447,-0.0714301,144
0.439252,-0.0670542,-0.0704286,133
0.438919,-0.0669628,-0.0695476,131
0.438235,-0.0667731,-0.0686116,133
0.437355,-0.0665281,-0.0676473,132
0.437177,-0.06648,-0.0667974,130
0.436899,-0.0664042,-0.0659331,131
0.436424,-0.0662728,-0.0650399,135
0.436149,-0.0661977,-0.0641792,133
0.436073,-0.0661784,-0.0633498,132
0.4358,-0.0661036,-0.0624918,128
0.436123,-0.066196,-0.0617221,125
0.435157,-0.0659272,-0.0607663,130
0.435084,-0.0659087,-0.0599412,140
0.435012,-0.0658903,-0.0591167,145
0.435138,-0.0659275,-0.0583202,148
0.435066,-0.0659094,-0.0574967,146
0.435094,-0.0659191,-0.0566871,149
0.434433,-0.0657355,-0.0557866,146
0.433921,-0.065594,-0.0549085,147
0.434196,-0.065673,-0.0541336,144
0.433687,-0.065532,-0.0532588,148
0.433521,-0.0654875,-0.0524291,148
0.433699,-0.0655393,-0.0516423,147
0.433535,-0.0654951,-0.0508139,154
0.433665,-0.0655335,-0.0500213,157
0.433355,-0.0654485,-0.0491772,150
0.433242,-0.0654185,-0.048357,155
0.433373,-0.0654573,-0.0475652,159
0.433261,-0.0654276,-0.0467461,165
0.433002,-0.0653571,-0.0459118,163
0.432794,-0.0653005,-0.0450841,164
0.4321,-0.0651076,-0.0442065,160
0.431845,-0.065038,-0.043377,163
0.432173,-0.0651319,-0.0426077,166
0.432259,-0.0651579,-0.0418134,169
0.431908,-0.0650614,-0.0409765,177
0.432189,-0.0651421,-0.0402014,175
0.432179,-0.0651413,-0.0393983,172
0.431346,-0.0649095,-0.0385201,169
0.431096,-0.0648411,-0.0376976,174
0.431282,-0.064895,-0.0369144,176
0.43171,-0.065017,-0.0361514,180
0.431654,-0.0650033,-0.0353465,182
0.431212,-0.0648813,-0.0345104,178
0.430965,-0.0648138,-0.0336917,180
0.431491,-0.0649633,-0.0329345,184
0.430955,-0.0648147,-0.0320946,187
0.43018,-0.0645992,-0.0312394,188
0.429697,-0.0644654,-0.0304082,187
0.429024,-0.0642783,-0.0295659,187
0.429165,-0.0643198,-0.0287818,188
0.428781,-0.0642138,-0.0279625,189
0.428731,-0.0642019,-0.0271665,194
0.427636,-0.0638964,-0.0263053,196
0.427826,-0.0639515,-0.0255264,193
0.426878,-0.0636875,-0.0246802,198
0.427068,-0.0637427,-0.0239023,198
0.426644,-0.0636255,-0.0230901,197
0.426693,-0.0636411,-0.0223047,196
0.426224,-0.0635113,-0.0214929,196
0.426133,-0.0634875,-0.0207015,194
0.42623,-0.0635167,-0.0199194,196
0.42647,-0.0635858,-0.0191435,198
0.42638,-0.0635625,-0.0183525,200
0.426479,-0.0635922,-0.0175698,201
0.426344,-0.0635558,-0.0167775,196
0.426491,-0.0635991,-0.0159964,196
0.426639,-0.0636425,-0.0152149,196
0.426504,-0.0636066,-0.0144234,194
0.426135,-0.0635047,-0.013625,192
0.425955,-0.063456,-0.0128337,192
0.426718,-0.0636719,-0.0120695,193
0.426302,-0.0635572,-0.0112719,196
0.426171,-0.0635221,-0.0104827,200
0.426558,-0.0636326,-0.0097055,196
0.426521,-0.0636242,-0.00891834,193
0.426344,-0.0635763,-0.00812879,191
0.426356,-0.0635814,-0.00734305,196
0.427076,-0.0637854,-0.00656754,199
0.427373,-0.0638706,-0.00578398,198
0.426677,-0.0636771,-0.00498877,200
0.426361,-0.0635902,-0.00419954,200
0.426375,-0.063596,-0.00341379,200
0.426296,-0.0635756,-0.00262754,201
0.427587,-0.06394,-0.00184562,202
0.427177,-0.0638267,-0.00105702,199
0.426957,-0.0637668,-0.000269806,201
0.427068,-0.0637999,0.000517502,204
0.427323,-0.0638731,0.00130593,204
0.427246,-0.0638535,0.00209314,204
0.427217,-0.0638473,0.0028805,205
0.427047,-0.0638014,0.00366629,199
0.427209,-0.0638486,0.00445558,200
0.427276,-0.0638694,0.00524417,204
0.427155,-0.0638372,0.00603,202
0.427224,-0.0638583,0.00681885,207
0.427245,-0.0638662,0.00760708,200
0.427268,-0.0638744,0.00839546,203
0.427622,-0.0639758,0.00919194,205
0.427836,-0.0640375,0.00998619,202
0.427954,-0.0640727,0.0107787,205
0.427884,-0.0640548,0.0115661,200
0.428052,-0.0641037,0.0123609,203
0.42803,-0.0640994,0.01315,204
0.428389,-0.0642021,0.0139527,200
0.427892,-0.0640646,0.0147248,203
0.42849,-0.0642344,0.0155381,203
0.42828,-0.0641772,0.0163205,202
0.428261,-0.0641736,0.0171105,198
0.428099,-0.0641301,0.017894,201
0.428891,-0.0643543,0.0187219,207
0.430166,-0.0647144,0.0195766,209
0.430053,-0.0646844,0.0203657,209
0.429701,-0.0645872,0.0211419,205
0.429828,-0.064625,0.0219431,206
0.429717,-0.0645955,0.0227314,204
0.429798,-0.0646201,0.0235307,207
0.430023,-0.0646852,0.0243392,205
0.430105,-0.0647102,0.0251398,205
0.430043,-0.0646947,0.0259316,208
0.430079,-0.0647065,0.0267297,206
0.430499,-0.0648264,0.0275544,206
0.430487,-0.064825,0.0283506,207
0.43062,-0.0648642,0.0291573,205
0.431285,-0.0650529,0.0300041,207
0.43084,-0.0649298,0.0307694,206
0.431023,-0.0649831,0.031582,205
0.430966,-0.0649688,0.0323764,203
0.432459,-0.0653903,0.0332974,203
0.431481,-0.0651173,0.0340177,205
0.431764,-0.0651987,0.0348424,207
0.432875,-0.0655127,0.0357408,210
0.432771,-0.0654854,0.036535,207
0.432814,-0.0654993,0.0373425,210
0.432955,-0.0655408,0.0381595,207
0.43295,-0.0655413,0.0389635,209
0.433092,-0.0655832,0.0397819,211
0.433089,-0.065584,0.0405866,209
0.43333,-0.0656537,0.0414164,209
0.433327,-0.0656548,0.0422222,203
0.433765,-0.0657799,0.0430745,200
0.433421,-0.0656851,0.0438451,205
0.433763,-0.065783,0.0446893,206
0.433322,-0.0656609,0.0454484,203
0.433959,-0.0658418,0.0463276,204
0.434058,-0.0658715,0.0471478,202
0.434059,-0.0658737,0.0479573,206
0.43411,-0.0658899,0.048773,208
0.434456,-0.0659892,0.0496247,207
0.434312,-0.0659504,0.050418,208
0.435944,-0.0664112,0.051432,211
0.435651,-0.0663308,0.0522095,206
0.435854,-0.0663897,0.0530498,207
0.435562,-0.0663095,0.0538267,206
0.436014,-0.0664384,0.0547011,207
0.436467,-0.0665678,0.0555778,208
0.436474,-0.0665717,0.0563958,203
0.436532,-0.0665897,0.0572212,200
0.436789,-0.0666638,0.058075,203
0.436847,-0.0666822,0.0589021,202
0.436956,-0.0667148,0.0597369,203
0.437116,-0.0667615,0.0605799,201
0.437426,-0.0668506,0.0614462,203
0.437387,-0.0668416,0.0622617,209
0.437698,-0.0669311,0.0631307,212
0.43766,-0.0669224,0.0639475,208
0.438074,-0.0670406,0.0648348,203
0.438691,-0.0672158,0.0657561,200
0.438906,-0.0672783,0.0666162,198
0.439223,-0.0673694,0.0674939,201
0.439441,-0.0674325,0.0683569,195
0.439962,-0.0675811,0.0692716,192
0.439928,-0.0675734,0.0700957,195
0.440656,-0.06778,0.071049,190
0.441081,-0.0679014,0.0719538,188
0.441814,-0.0681096,0.072914,190
0.4425,-0.0683042,0.0738692,193
0.442571,-0.0683262,0.0747186,193
0.442745,-0.0683772,0.0755873,193
0.442972,-0.0684429,0.0764666,192
0.443045,-0.0684654,0.0773191,194
0.443841,-0.0686913,0.0783061,192
0.443451,-0.0685835,0.0790747,192
0.443526,-0.0686065,0.0799303,187
0.443808,-0.0686879,0.0808262,186
0.444818,-0.0689738,0.081864,189
0.444065,-0.068764,0.0825627,188
0.443159,-0.0685114,0.0832289,192
0.443134,-0.0685062,0.084067,193
0.443109,-0.0685011,0.0849055,199
0.443032,-0.0684816,0.085734,204
0.441876,-0.0681584,0.0863416,208
0.441289,-0.0679952,0.0870627,208
0.440958,-0.0679043,0.0878356,208
0.440629,-0.0678137,0.088608,211
0.440352,-0.0677376,0.0893905,209
0.440075,-0.0676618,0.0901727,206
0.439038,-0.067372,0.0907894,208
0.437804,-0.0670268,0.0913595,208
0.437733,-0.0670088,0.0921819,205
0.437461,-0.0669343,0.0929597,205
0.437542,-0.0669591,0.0938163,210
0.437221,-0.0668708,0.0945826,206
0.436399,-0.0666415,0.0952337,196
0.43598,-0.0665257,0.0959749,196
0.436263,-0.0666071,0.0968782,197
0.434847,-0.0662109,0.0973848,195
0.435129,-0.0662921,0.0982878,194
0.435013,-0.0662614,0.0990976,196
0.434002,-0.0659791,0.0996923,195
0.433739,-0.0659069,0.100465,190
0.433525,-0.0658488,0.101249,186
0.433312,-0.0657909,0.102033,186
0.433595,-0.0658724,0.10294,184
0.433334,-0.0658008,0.103712,181
0.433568,-0.0658686,0.104609,181
0.433604,-0.0658809,0.105457,181
0.433542,-0.0658654,0.106281,182
0.43358,-0.0658779,0.10713,182
0.43332,-0.0658068,0.107903,187
0.433061,-0.065736,0.108676,186
0.43305,-0.0657349,0.109514,185
0.43309,-0.0657479,0.110366,187
0.433874,-0.0659705,0.111418,185
0.432378,-0.0655515,0.111858,192
0.433657,-0.0659134,0.113048,187
0.433648,-0.065913,0.113891,186
0.433839,-0.0659687,0.114789,187
0.433483,-0.0658705,0.115537,185
0.433725,-0.0659405,0.116451,182
0.433718,-0.0659406,0.117297,191
0.433861,-0.0659828,0.118186,195
0.434254,-0.0660955,0.119148,185
0.434399,-0.0661382,0.12004,188
0.434694,-0.0662233,0.120977,185
0.43424,-0.0660973,0.121697,180
0.434486,-0.0661686,0.122622,179
0.434733,-0.0662401,0.123549,178
0.434679,-0.0662271,0.124388,181
0.435128,-0.0663555,0.125379,177
0.435026,-0.0663286,0.126205,181
0.435125,-0.0663584,0.127092,175
0.434872,-0.0662893,0.127873,172
0.43472,-0.0662487,0.128685,174
0.435172,-0.0663779,0.129684,177
0.435525,-0.0664791,0.130655,177
0.435374,-0.0664387,0.131469,181
0.435476,-0.0664694,0.132364,184
0.43578,-0.066557,0.133324,181
0.435529,-0.0664885,0.134108,178
0.435683,-0.0665337,0.135022,178
0.435837,-0.0665792,0.135938,174
0.435789,-0.0665678,0.136789,175
0.435945,-0.0666136,0.137708,179
0.435847,-0.0665882,0.138544,179
0.436156,-0.066677,0.139516,178
0.436262,-0.066709,0.140422,173
0.436267,-0.0667124,0.141295,176
0.436425,-0.066759,0.14222,180
0.436787,-0.066863,0.143217,180
0.436845,-0.0668812,0.144112,176
0.437107,-0.066957,0.145078,172
0.437063,-0.0669468,0.145939,172
0.437122,-0.0669654,0.146837,172
0.437386,-0.0670418,0.147808,173
0.43765,-0.0671183,0.148781,176
0.437711,-0.0671374,0.149684,170
0.437977,-0.0672144,0.150661,170
0.438449,-0.0673496,0.151715,169
0.438666,-0.0674127,0.152678,162
0.438317,-0.0673163,0.153436,157
0.438225,-0.0672926,0.154289,156
0.437928,-0.0672111,0.155066,150
0.437837,-0.0671875,0.155919,146
0.438055,-0.067251,0.156887,152
0.437965,-0.0672277,0.157742,157
0.438648,-0.0674223,0.158889,154
0.439128,-0.0675593,0.159963,152
0.438108,-0.0672744,0.160467,154
0.438898,-0.0674988,0.161662,154
0.437828,-0.0671996,0.162143,150
0.437843,-0.0672059,0.163042,153
0.437601,-0.0671397,0.163841,148
0.437462,-0.0671027,0.164681,150
0.437323,-0.0670658,0.165521,144
0.437185,-0.0670289,0.166361,146
0.436585,-0.066862,0.167017,140
0.436448,-0.0668254,0.167858,146
0.437081,-0.0670059,0.169009,141
0.437099,-0.067013,0.169914,132
0.436705,-0.0669042,0.170652,131
0.436466,-0.066839,0.171453,132
0.43669,-0.0669042,0.172444,132
0.436092,-0.0667379,0.173097,135
0.435701,-0.0666297,0.173835,138
0.436027,-0.0667239,0.174871,130
0.436252,-0.0667894,0.175867,128
0.436324,-0.0668116,0.176801,133
0.436087,-0.066747,0.177604,129
0.435338,-0.0665381,0.178189,128
0.435102,-0.0664738,0.178992,130
0.434305,-0.0662514,0.179552,132
0.433308,-0.0659726,0.180024,135
0.433227,-0.0659519,0.180891,131
0.433096,-0.065917,0.181736,132
0.432914,-0.0658679,0.182559,134
0.432784,-0.0658332,0.183405,131
0.432805,-0.0658414,0.184319,131
0.43131,-0.0654222,0.184558,128
0.43103,-0.0653453,0.185335,126
0.431102,-0.0653678,0.186271,118
0.431024,-0.0653478,0.18714,110
0.430794,-0.0652853,0.18794,110
0.430767,-0.0652797,0.188833,114
0.43074,-0.0652742,0.189727,115
0.430562,-0.0652261,0.190552,107
0.430737,-0.0652776,0.191541,105
0.430912,-0.0653292,0.192531,102
0.430634,-0.0652529,0.193311,115
0.431569,-0.0655185,0.194661,116
0.413657,-0.0629558,-0.197792,7
0.413253,-0.0628415,-0.196714,5
0.41701,-0.0639257,-0.197678,4
0.414257,-0.0631348,-0.195449,8
0.412926,-0.0627534,-0.193924,6
0.413172,-0.0628264,-0.193169,7
0.413419,-0.0628995,-0.192414,8
0.414455,-0.0632002,-0.192038,6
0.411837,-0.0624478,-0.189913,7
0.415559,-0.0635222,-0.190813,8
0.415387,-0.0634749,-0.189856,9
0.415824,-0.0636027,-0.189187,7
0.414163,-0.0631263,-0.187535,7
0.415763,-0.0635892,-0.187411,10
0.414568,-0.063247,-0.185984,10
0.413844,-0.0630404,-0.18478,10
0.417219,-0.064015,-0.185466,10
0.416532,-0.0638191,-0.184278,8
0.418054,-0.0642597,-0.184101,10
0.41652,-0.0638198,-0.182532,13
0.417054,-0.0639756,-0.181904,12
0.419194,-0.0645945,-0.181996,10
0.418219,-0.0643155,-0.180686,14
0.416407,-0.0637953,-0.17901,11
0.417597,-0.0641403,-0.178671,17
0.416913,-0.0639451,-0.177502,11
0.416045,-0.0636971,-0.176257,14
0.41789,-0.0642308,-0.176199,14
0.418569,-0.0644285,-0.175629,14
0.417977,-0.0642599,-0.174507,10
0.420503,-0.06499,-0.174729,12
0.419479,-0.064697,-0.173422,12
0.41898,-0.0645551,-0.172344,15
0.418341,-0.0643731,-0.17121,15
0.420157,-0.0648985,-0.171113,18
0.420131,-0.0648929,-0.170237,16
0.421055,-0.0651613,-0.169759,17
0.422605,-0.0656103,-0.169537,16
0.42029,-0.0649451,-0.167714,18
0.419745,-0.0647898,-0.166628,19
0.421047,-0.0651673,-0.1663,20
0.422405,-0.0655608,-0.16599,22
0.420808,-0.0651023,-0.16448,23
0.421735,-0.0653716,-0.163993,28
0.420949,-0.0651472,-0.162818,26
0.421591,-0.0653342,-0.162215,28
0.420808,-0.0651104,-0.161045,28
0.421639,-0.0653522,-0.160516,24
0.421474,-0.0653065,-0.159593,28
0.422929,-0.0657281,-0.159303,33
0.422047,-0.0654758,-0.158102,27
0.42341,-0.0658709,-0.157772,30
0.423675,-0.0659494,-0.157015,29
0.423749,-0.0659726,-0.156184,32
0.424448,-0.0661761,-0.155592,32
0.423753,-0.0659779,-0.154471,32
0.423349,-0.0658632,-0.153463,38
0.423855,-0.0660112,-0.152797,37
0.42494,-0.066326,-0.152344,40
0.424871,-0.0663081,-0.151462,44
0.424802,-0.0662903,-0.150581,45
0.425698,-0.0665508,-0.150053,38
0.425678,-0.066547,-0.149189,43
0.426287,-0.0667246,-0.148554,41
0.426122,-0.0666791,-0.147639,42
0.426393,-0.0667593,-0.146881,44
0.425697,-0.0665606,-0.145779,45
0.426162,-0.0666966,-0.14509,47
0.426047,-0.0666655,-0.144197,44
0.426126,-0.0666902,-0.143373,41
0.427757,-0.0671628,-0.143086,40
0.427594,-0.0671175,-0.142176,43
0.427722,-0.0671566,-0.141367,46
0.427656,-0.0671396,-0.140492,44
0.428468,-0.0673757,-0.139915,44
0.42894,-0.0675139,-0.13922,48
0.429462,-0.0676665,-0.138542,46
0.429397,-0.0676497,-0.137667,49
0.428941,-0.0675201,-0.136664,54
0.430101,-0.0678569,-0.136193,53
0.430676,-0.0680247,-0.135527,51
0.430612,-0.0680082,-0.134653,54
0.430449,-0.0679633,-0.133749,59
0.431026,-0.0681317,-0.133082,58
0.431901,-0.0683861,-0.132507,61
0.432531,-0.06857,-0.131853,57
0.431626,-0.0683108,-0.130716,62
0.432009,-0.0684232,-0.129984,61
0.432689,-0.0686216,-0.129343,65
0.432478,-0.0685627,-0.128426,69
0.433062,-0.068733,-0.127753,72
0.433398,-0.068832,-0.127004,70
0.433735,-0.0689312,-0.126253,81
0.434023,-0.0690163,-0.125488,76
0.434161,-0.0690583,-0.124677,71
0.43475,-0.0692303,-0.124,72
0.43489,-0.0692726,-0.123189,71
0.43438,-0.0691274,-0.122189,77
0.435321,-0.069401,-0.121611,73
0.436065,-0.0696177,-0.120974,72
0.436157,-0.0696461,-0.120148,74
0.435646,-0.0695006,-0.119152,78
0.43619,-0.0696598,-0.118455,80
0.436333,-0.069703,-0.117644,79
0.437132,-0.0699357,-0.117016,81
0.436873,-0.0698628,-0.116093,75
0.437018,-0.0699065,-0.115282,77
0.437314,-0.0699941,-0.114513,79
0.437611,-0.070082,-0.113743,82
0.438315,-0.070287,-0.113081,83
0.438716,-0.0704048,-0.112337,81
0.438102,-0.0702296,-0.111325,77
0.438301,-0.0702889,-0.110528,80
0.43855,-0.070363,-0.109744,79
0.438801,-0.0704372,-0.108959,77
0.440071,-0.070806,-0.108434,78
0.440222,-0.0708514,-0.107622,80
0.440322,-0.0708822,-0.106796,77
0.440473,-0.0709279,-0.105984,73
0.440984,-0.0710773,-0.10526,66
0.440624,-0.0709754,-0.104322,63
0.440521,-0.0709477,-0.103448,68
0.4417,-0.0712901,-0.102883,70
0.441341,-0.0711884,-0.101947,75
0.441907,-0.0713537,-0.101233,72
0.44124,-0.0711633,-0.100227,78
0.441652,-0.0712843,-0.0994752,76
0.441244,-0.0711684,-0.098533,74
0.44176,-0.0713193,-0.0978046,83
0.441557,-0.0712629,-0.0969116,88
0.441356,-0.0712067,-0.0960202,98
0.441668,-0.0712987,-0.0952445,92
0.441929,-0.0713761,-0.0944569,87
0.442191,-0.0714538,-0.0936689,92
0.442712,-0.071606,-0.0929364,93
0.442357,-0.0715057,-0.0920143,88
0.442518,-0.0715541,-0.0912039,87
0.44335,-0.0717964,-0.0905349,84
0.442224,-0.0714732,-0.0894538,88
0.442695,-0.0716112,-0.0887083,84
0.442755,-0.0716305,-0.0878771,82
0.442198,-0.0714717,-0.086921,89
0.442003,-0.0714172,-0.0860401,96
0.442116,-0.0714517,-0.0852219,93
0.44228,-0.0715013,-0.0844138,94
0.441881,-0.071388,-0.0834956,88
0.441739,-0.071349,-0.0826291,100
0.441905,-0.0713989,-0.0818224,106
0.441611,-0.0713158,-0.0809285,105
0.44142,-0.0712626,-0.0800554,111
0.440923,-0.0711212,-0.079127,114
0.440429,-0.0709803,-0.0782013,116
0.440444,-0.0709867,-0.0773703,123
0.440459,-0.0709931,-0.0765399,128
0.440526,-0.0710144,-0.0757189,125
0.439985,-0.0708599,-0.0747912,117
0.439394,-0.0706913,-0.0738576,119
0.439008,-0.0705817,-0.0729618,126
0.438774,-0.0705161,-0.0720938,136
0.437989,-0.0702911,-0.0711345,136
0.437858,-0.0702552,-0.0702871,138
0.437377,-0.0701182,-0.0693834,137
0.437547,-0.0701695,-0.0685873,135
0.437268,-0.0700908,-0.0677191,146
0.436591,-0.0698971,-0.0667895,141
0.435818,-0.0696756,-0.0658479,140
0.435246,-0.0695123,-0.0649407,146
0.435071,-0.0694638,-0.0640965,146
0.434502,-0.0693014,-0.0631942,138
0.434675,-0.0693531,-0.0624041,136
0.434059,-0.0691772,-0.0614987,140
0.43438,-0.0692717,-0.0607308,136
0.433865,-0.0691248,-0.0598433,140
0.433449,-0.0690067,-0.0589721,140
0.433084,-0.0689032,-0.0581098,147
0.432916,-0.0688565,-0.057276,148
0.432505,-0.0687395,-0.0564106,148
0.432973,-0.0688766,-0.0556634,147
0.43266,-0.0687881,-0.0548129,154
0.43264,-0.0687844,-0.0540016,156
0.432719,-0.068809,-0.0532032,147
0.432603,-0.0687775,-0.0523804,145
0.43239,-0.0687179,-0.0515465,151
0.432373,-0.0687148,-0.0507374,149
0.432357,-0.0687119,-0.0499286,149
0.431854,-0.0685686,-0.0490634,155
0.431693,-0.068524,-0.0482397,155
0.431581,-0.0684935,-0.0474223,151
0.431324,-0.0684212,-0.0465897,156
0.431165,-0.0683771,-0.0457689,158
0.430621,-0.0682216,-0.0449077,160
0.431478,-0.0684713,-0.0441963,164
0.430982,-0.0683298,-0.0433421,163
0.430922,-0.0683143,-0.0425342,163
0.430043,-0.0680623,-0.0416454,167
0.430707,-0.068256,-0.0409106,167
0.430119,-0.0680879,-0.0400538,174
0.430158,-0.0681009,-0.0392582,177
0.429956,-0.0680446,-0.0384407,178
0.430044,-0.0680719,-0.0376501,173
0.429173,-0.0678219,-0.0367752,184
0.429645,-0.0679602,-0.0360191,176
0.429446,-0.0679047,-0.0352052,182
0.430352,-0.0681685,-0.0344828,182
0.429099,-0.0678081,-0.0335842,185
0.428903,-0.0677532,-0.0327732,187
0.428946,-0.0677675,-0.0319814,190
0.428751,-0.067713,-0.0311719,189
0.428652,-0.0676862,-0.0303703,187
0.428696,-0.067701,-0.0295793,185
0.428503,-0.067647,-0.028772,189
0.428358,-0.067607,-0.0279689,191
0.428214,-0.0675671,-0.0271665,192
0.428213,-0.0675688,-0.0263737,193
0.427927,-0.067488,-0.0255639,196
0.426648,-0.0671201,-0.0246969,197
0.426555,-0.0670948,-0.0239023,200
0.426367,-0.0670425,-0.0231031,197
0.426936,-0.0672087,-0.0223448,194
0.42708,-0.0672523,-0.0215627,194
0.426138,-0.066982,-0.0207269,197
0.425718,-0.0668623,-0.0199194,196
0.425675,-0.0668517,-0.0191307,197
0.425586,-0.0668277,-0.0183403,193
0.425638,-0.0668446,-0.0175561,196
0.425596,-0.0668344,-0.0167682,201
0.425414,-0.0667837,-0.0159752,201
0.426126,-0.0669913,-0.0152149,200
0.425569,-0.066832,-0.0144091,198
0.425107,-0.0667004,-0.0136086,195
0.425256,-0.0667452,-0.0128281,195
0.425452,-0.0668038,-0.0120485,196
0.425367,-0.0667811,-0.0112608,199
0.425189,-0.0667315,-0.0104713,202
0.425293,-0.0667634,-0.00968883,200
0.425445,-0.066809,-0.00890692,201
0.425691,-0.066882,-0.0081262,201
0.426078,-0.066996,-0.00734691,203
0.425386,-0.0667975,-0.0065505,203
0.425445,-0.0668166,-0.00576623,204
0.425553,-0.0668495,-0.00498226,205
0.425519,-0.0668417,-0.00419668,204
0.426805,-0.0672154,-0.0034202,203
0.427056,-0.0672899,-0.00263374,207
0.426034,-0.066996,-0.00184256,208
0.425814,-0.0669345,-0.00105615,205
0.425878,-0.0669546,-0.000270314,205
0.426366,-0.0670976,0.000516969,206
0.426761,-0.0672136,0.0013057,205
0.426354,-0.0670979,0.00209063,203
0.426939,-0.0672689,0.00288253,203
0.426863,-0.067249,0.00366977,204
0.426741,-0.0672155,0.00445616,203
0.426762,-0.0672232,0.00524417,203
0.426735,-0.0672174,0.00603154,202
0.426709,-0.0672117,0.00681885,197
0.426683,-0.0672062,0.00760613,197
0.426942,-0.0672828,0.00839963,199
0.427296,-0.0673871,0.00919648,204
0.427319,-0.0673957,0.00998619,204
0.427154,-0.0673497,0.0107708,205
0.427084,-0.0673312,0.0115577,202
0.427251,-0.0673814,0.0123519,204
0.427513,-0.0674591,0.01315,207
0.427587,-0.0674823,0.0139425,207
0.427708,-0.0675193,0.0147372,207
0.427451,-0.0674466,0.0155175,204
0.427953,-0.0675938,0.0163284,202
0.427696,-0.0675214,0.0171084,200
0.42782,-0.067559,0.0179048,203
0.427992,-0.0676106,0.018704,208
0.428879,-0.0678693,0.0195391,208
0.429292,-0.0679907,0.0203535,209
0.429419,-0.0680293,0.0211546,207
0.429643,-0.0680958,0.0219615,207
0.429771,-0.0681348,0.0227641,211
0.429516,-0.0680629,0.0235448,211
0.429741,-0.06813,0.0243537,212
0.430063,-0.068225,0.0251698,212
0.429954,-0.0681952,0.0259594,211
0.430037,-0.0682211,0.0267616,206
0.430073,-0.0682333,0.027561,202
0.430301,-0.0683014,0.0283742,200
0.430242,-0.068286,0.0291677,199
0.431389,-0.0686199,0.0300507,203
0.431911,-0.068773,0.0308907,201
0.431853,-0.0687581,0.0316876,201
0.431215,-0.0685751,0.0324381,202
0.431351,-0.0686165,0.0332498,206
0.431779,-0.0687422,0.0340867,205
0.43182,-0.068756,0.0348922,203
0.431522,-0.0686716,0.0356684,204
0.432195,-0.0688683,0.0365307,206
0.43214,-0.0688544,0.0373292,205
0.432476,-0.0689533,0.0381641,205
0.432666,-0.0690102,0.0389867,202
0.432808,-0.0690532,0.0398056,206
0.43295,-0.0690963,0.0406254,210
0.432849,-0.0690691,0.0414213,208
0.43314,-0.069155,0.0422574,206
0.433284,-0.0691988,0.0430796,210
0.433821,-0.0693562,0.0439447,207
0.433772,-0.0693436,0.0447481,206
0.433624,-0.0693028,0.0455407,201
0.434213,-0.0694753,0.0464162,203
0.434165,-0.0694631,0.0472211,204
0.43392,-0.0693943,0.0480031,204
0.434217,-0.0694821,0.0488487,207
0.435304,-0.0697987,0.0497912,208
0.435455,-0.0698444,0.0506235,207
0.435558,-0.069876,0.0514505,213
0.435711,-0.0699222,0.0522847,213
0.435864,-0.0699685,0.0531198,214
0.43577,-0.0699433,0.0539235,211
0.435974,-0.0700043,0.0547667,209
0.435832,-0.069965,0.0555644,206
0.435938,-0.0699976,0.0563958,206
0.436095,-0.0700449,0.0572349,205
0.436202,-0.0700779,0.0580681,205
0.436559,-0.0701832,0.0589374,204
0.436967,-0.0703032,0.0598159,198
0.436977,-0.070308,0.0606382,196
0.437137,-0.0703563,0.0614831,201
0.436848,-0.0702747,0.0622617,198
0.43676,-0.070251,0.06307,195
0.437471,-0.070459,0.0640014,198
0.437684,-0.0705226,0.0648583,197
0.437197,-0.0703834,0.0656058,199
0.437812,-0.0705634,0.0665279,198
0.438328,-0.0707149,0.0674369,197
0.438746,-0.0708379,0.0683322,194
0.438913,-0.0708882,0.0691879,197
0.43903,-0.0709241,0.0700364,197
0.4393,-0.071004,0.0709115,194
0.439418,-0.0710403,0.0717623,192
0.439791,-0.0711502,0.072658,188
0.441234,-0.0715701,0.0737435,190
0.441662,-0.0716962,0.074655,192
0.441426,-0.0716299,0.0754495,191
0.441754,-0.0717268,0.0763456,191
0.442134,-0.0718388,0.0772531,195
0.442207,-0.071862,0.0781057,192
0.441922,-0.0717813,0.0788918,186
0.442048,-0.0718197,0.079755,189
0.442328,-0.0719028,0.0806488,188
0.441992,-0.0718076,0.0814251,191
0.441966,-0.0718019,0.0822609,193
0.442042,-0.071826,0.0831174,198
0.441197,-0.071583,0.0837909,198
0.442043,-0.0718301,0.084802,195
0.440738,-0.071454,0.0853798,198
0.440765,-0.0714638,0.0862262,204
0.440894,-0.0715033,0.0870944,206
0.440616,-0.0714246,0.0878783,206
0.440185,-0.0713018,0.0886295,209
0.439654,-0.0711498,0.089358,208
0.439276,-0.0710425,0.0901181,205
0.438293,-0.0707594,0.0907455,204
0.437465,-0.0705215,0.0914036,206
0.437243,-0.0704593,0.092193,204
0.437022,-0.0703972,0.0929822,205
0.437808,-0.070627,0.0939976,205
0.436381,-0.0702154,0.0945143,203
0.436263,-0.0701829,0.0953254,203
0.435994,-0.0701071,0.096102,198
0.434281,-0.0696128,0.0965415,201
0.433966,-0.0695234,0.0973032,195
0.433701,-0.0694486,0.0980761,198
0.433784,-0.0694745,0.0989315,201
0.433867,-0.0695006,0.0997879,198
0.433604,-0.0694262,0.100561,198
0.433638,-0.0694381,0.101406,194
0.433524,-0.0694071,0.102216,192
0.433163,-0.0693045,0.102964,187
0.433051,-0.0692737,0.103774,183
0.43279,-0.0692002,0.104546,184
0.432579,-0.0691411,0.105331,183
0.432666,-0.0691681,0.106192,180
0.432209,-0.0690378,0.106913,182
0.432592,-0.0691508,0.107852,185
0.432878,-0.0692355,0.108767,185
0.433015,-0.0692774,0.109645,188
0.433203,-0.0693338,0.110538,187
0.433144,-0.0693186,0.111365,186
0.432491,-0.0691313,0.112032,184
0.432334,-0.0690876,0.112832,183
0.433018,-0.069288,0.113863,187
0.432465,-0.0691297,0.114556,184
0.432556,-0.0691581,0.115426,187
0.433541,-0.0694457,0.116549,189
0.433535,-0.0694458,0.117395,188
0.433578,-0.0694604,0.118257,186
0.433523,-0.0694463,0.11909,187
0.431881,-0.0689722,0.119465,191
0.432767,-0.0692311,0.120571,186
0.432861,-0.0692605,0.121449,190
0.433255,-0.0693766,0.122416,184
0.43355,-0.0694642,0.123356,193
0.433846,-0.069552,0.124298,180
0.433693,-0.0695098,0.125107,183
0.433741,-0.0695256,0.125977,181
0.433889,-0.0695705,0.126878,179
0.434138,-0.0696446,0.127811,173
0.434036,-0.0696173,0.128638,177
0.434437,-0.0697354,0.129621,176
0.434036,-0.0696211,0.130356,173
0.434136,-0.0696523,0.131247,170
0.434137,-0.0696545,0.132108,172
0.433937,-0.0695987,0.132906,174
0.433738,-0.069543,0.133704,169
0.434292,-0.0697055,0.134745,175
0.434143,-0.0696645,0.135561,175
0.434699,-0.0698276,0.136607,170
0.433998,-0.0696265,0.137242,171
0.434203,-0.0696878,0.138175,168
0.435113,-0.0699539,0.139347,175
0.43537,-0.0700305,0.140303,174
0.435123,-0.0699607,0.141089,175
0.435482,-0.070067,0.142082,177
0.435437,-0.0700561,0.142939,179
0.435545,-0.0700893,0.143849,180
0.435653,-0.0701227,0.14476,181
0.435609,-0.0701121,0.14562,175
0.435718,-0.0701457,0.146533,173
0.436183,-0.0702827,0.147574,173
0.437365,-0.0706277,0.148872,174
0.4362,-0.0702919,0.149337,172
0.436362,-0.0703409,0.150275,165
0.436729,-0.0704494,0.151289,166
0.436382,-0.0703508,0.152045,166
0.436341,-0.0703411,0.152912,162
0.436556,-0.0704055,0.153874,153
0.436926,-0.0705147,0.154895,143
0.436784,-0.0704756,0.155728,147
0.436796,-0.0704812,0.156619,146
0.436962,-0.0705315,0.157568,142
0.436719,-0.070463,0.158365,143
0.436374,-0.070365,0.159122,140
0.436643,-0.0704452,0.160113,144
0.436299,-0.0703473,0.160871,149
0.436057,-0.0702794,0.161667,145
0.436122,-0.0703004,0.162583,145
0.436291,-0.0703514,0.16354,142
0.435233,-0.0700466,0.164017,140
0.435555,-0.0701419,0.165035,135
0.435672,-0.0701782,0.165974,135
0.434821,-0.0699334,0.166528,141
0.434278,-0.0697778,0.167202,141
0.434193,-0.0697551,0.16806,135
0.435074,-0.0700131,0.169311,131
0.435194,-0.0700498,0.170255,130
0.435262,-0.0700718,0.17118,128
0.435025,-0.0700051,0.17198,125
0.435145,-0.0700421,0.172928,125
0.435062,-0.0700199,0.173792,123
0.433959,-0.0697021,0.17423,125
0.434385,-0.0698279,0.175308,125
0.435017,-0.0700134,0.176476,129
0.43361,-0.0696071,0.17678,132
0.433325,-0.0695264,0.177558,127
0.433396,-0.0695491,0.178489,126
0.433111,-0.0694686,0.179267,131
0.432777,-0.0693737,0.180024,132
0.432494,-0.0692936,0.180802,129
0.431908,-0.0691256,0.181448,126
0.431223,-0.0689289,0.182048,129
0.431395,-0.068981,0.183025,130
0.430762,-0.0687993,0.183646,129
0.430632,-0.0687639,0.18449,121
0.430604,-0.0687577,0.18538,122
0.430475,-0.0687224,0.186225,115
0.429744,-0.0685125,0.186798,111
0.429967,-0.0685793,0.187803,116
0.429839,-0.0685443,0.188649,115
0.429712,-0.0685094,0.189496,111
0.429735,-0.0685183,0.190413,111
0.429759,-0.0685272,0.191331,114
0.430134,-0.0686384,0.192414,114
0.430259,-0.0686769,0.193382,114
0.430284,-0.0686862,0.194305,116
0.411029,-0.0655735,-0.19674,9
0.412701,-0.0660715,-0.196691,7
0.413317,-0.0662562,-0.196116,6
0.412037,-0.0658788,-0.194612,7
0.411454,-0.065708,-0.193454,9
0.415128,-0.0667997,-0.194363,9
0.41319,-0.0662268,-0.192548,7
0.412881,-0.0661374,-0.191526,6
0.41193,-0.0658572,-0.190198,9
0.414256,-0.0665492,-0.190436,9
0.415343,-0.0668738,-0.190077,11
0.414659,-0.0666731,-0.18888,8
0.416169,-0.0671231,-0.188716,10
0.413394,-0.0663019,-0.186543,8
0.413735,-0.0664049,-0.185833,11
0.414679,-0.0666871,-0.185402,10
0.413723,-0.0664056,-0.184092,12
0.414481,-0.0666327,-0.183573,7
0.414314,-0.066585,-0.182629,9
0.416849,-0.0673392,-0.182915,13
0.415558,-0.0669581,-0.18146,11
0.415996,-0.0670901,-0.18079,14
0.416715,-0.0673057,-0.180245,13
0.415846,-0.0670499,-0.178989,13
0.417879,-0.0676551,-0.179026,11
0.418086,-0.0677186,-0.178248,15
0.417166,-0.0674474,-0.176975,14
0.416437,-0.0672332,-0.17579,14
0.417298,-0.067491,-0.175302,11
0.418117,-0.0677358,-0.174791,12
0.41762,-0.0675904,-0.173712,13
0.417359,-0.0675151,-0.172737,17
0.417943,-0.0676903,-0.172123,16
0.418292,-0.0677961,-0.171409,17
0.418314,-0.0678044,-0.170555,18
0.418241,-0.0677849,-0.169663,16
0.418545,-0.067877,-0.168929,22
0.418566,-0.0678856,-0.168077,15
0.418918,-0.0679919,-0.167362,18
0.420263,-0.0683931,-0.167056,20
0.421235,-0.0686837,-0.166592,20
0.42045,-0.0684527,-0.165409,23
0.42,-0.068321,-0.164365,24
0.42178,-0.0688514,-0.164224,24
0.421946,-0.0689028,-0.163428,29
0.42097,-0.0686152,-0.162177,29
0.422136,-0.0689634,-0.161781,29
0.421588,-0.0688028,-0.160703,28
0.421851,-0.0688827,-0.159948,31
0.421447,-0.0687649,-0.158931,28
0.422425,-0.0690571,-0.158454,26
0.422498,-0.0690808,-0.157624,25
0.423816,-0.0694741,-0.157273,29
0.422644,-0.0691283,-0.155965,33
0.422957,-0.0692232,-0.155227,32
0.423893,-0.0695032,-0.154725,31
0.423392,-0.0693565,-0.153678,34
0.423323,-0.069338,-0.152797,36
0.423734,-0.0694618,-0.152094,39
0.423953,-0.0695289,-0.15132,43
0.424412,-0.0696674,-0.150634,46
0.424729,-0.0697634,-0.149894,40
0.425094,-0.0698738,-0.149172,42
0.425895,-0.0701137,-0.148606,45
0.426214,-0.0702104,-0.147865,48
0.426485,-0.0702929,-0.147105,48
0.425692,-0.0700594,-0.145968,46
0.426108,-0.070185,-0.145261,44
0.426477,-0.0702965,-0.144537,42
0.426168,-0.0702069,-0.143575,41
0.426683,-0.0703617,-0.142901,38
0.426859,-0.0704161,-0.142109,38
0.426745,-0.0703842,-0.141217,44
0.426825,-0.07041,-0.140393,48
0.428462,-0.0708981,-0.140096,47
0.428348,-0.0708661,-0.139204,46
0.428722,-0.0709793,-0.138476,44
0.428559,-0.070933,-0.137569,43
0.428836,-0.0710173,-0.136809,41
0.429555,-0.0712328,-0.136193,45
0.429393,-0.0711866,-0.135287,55
0.430015,-0.0713735,-0.134637,55
0.430541,-0.0715317,-0.133955,52
0.430773,-0.0716025,-0.133176,55
0.431301,-0.0717614,-0.132492,54
0.430597,-0.0715544,-0.131416,56
0.431175,-0.071728,-0.130747,57
0.431804,-0.0719168,-0.130092,60
0.432038,-0.0719884,-0.129312,60
0.431976,-0.0719719,-0.128441,66
0.432509,-0.0721321,-0.127753,72
0.433142,-0.0723223,-0.127094,68
0.433479,-0.0724243,-0.126344,65
0.433766,-0.0725117,-0.125577,61
0.432959,-0.072274,-0.124485,63
0.433794,-0.0725241,-0.123882,71
0.434133,-0.0726267,-0.123131,66
0.434322,-0.072685,-0.122335,66
0.435314,-0.0729816,-0.121771,62
0.435254,-0.0729659,-0.120902,67
0.435045,-0.0729056,-0.11999,75
0.435287,-0.0729795,-0.119209,75
0.43563,-0.0730834,-0.118455,83
0.435722,-0.0731129,-0.11763,85
0.436318,-0.0732919,-0.116946,86
0.436663,-0.0733965,-0.11619,82
0.436405,-0.0733217,-0.115269,84
0.436499,-0.0733518,-0.114445,88
0.4373,-0.0735918,-0.113811,81
0.437851,-0.0737575,-0.113108,77
0.437441,-0.0736376,-0.112149,74
0.437638,-0.0736983,-0.111352,78
0.437583,-0.073684,-0.110488,73
0.43758,-0.0736848,-0.109639,76
0.438031,-0.0738211,-0.108907,76
0.438535,-0.0739729,-0.108187,76
0.438786,-0.0740495,-0.107402,77
0.438937,-0.0740961,-0.106591,80
0.439494,-0.0742639,-0.105882,80
0.439799,-0.0743563,-0.105108,77
0.439645,-0.0743126,-0.104222,74
0.43995,-0.0744053,-0.103448,77
0.43995,-0.0744073,-0.102599,77
0.440768,-0.0746524,-0.101947,67
0.439849,-0.0743813,-0.100881,61
0.439596,-0.074308,-0.0999745,64
0.440158,-0.0744772,-0.0992604,63
0.440212,-0.074495,-0.0984267,68
0.440368,-0.0745433,-0.0976168,70
0.440984,-0.0747286,-0.0969116,72
0.440425,-0.0745645,-0.0959396,76
0.440941,-0.0747197,-0.0952102,75
0.440945,-0.074723,-0.0943662,76
0.441002,-0.0747417,-0.093534,78
0.441058,-0.0747606,-0.0927022,82
0.440707,-0.074658,-0.0917827,88
0.440713,-0.074662,-0.0909415,97
0.440618,-0.0746358,-0.0900794,93
0.439913,-0.074428,-0.0890902,93
0.440532,-0.0746141,-0.0883791,84
0.440745,-0.0746794,-0.0875825,89
0.44055,-0.0746234,-0.0867026,89
0.440968,-0.0747496,-0.0859474,92
0.440112,-0.0744971,-0.0849367,94
0.439869,-0.0744267,-0.084051,102
0.439931,-0.0744472,-0.0832265,109
0.43974,-0.0743923,-0.0823531,111
0.439448,-0.0743076,-0.0814616,117
0.439816,-0.0744189,-0.0806968,119
0.439677,-0.0743796,-0.0798359,115
0.440199,-0.0745366,-0.0790986,115
0.439756,-0.0744071,-0.0781826,109
0.439366,-0.074293,-0.0772783,114
0.43923,-0.0742545,-0.0764215,118
0.439145,-0.0742312,-0.0755748,114
0.43896,-0.074178,-0.0747112,121
0.438271,-0.0739753,-0.0737613,126
0.438138,-0.0739377,-0.0729099,132
0.437454,-0.0737362,-0.0719658,135
0.437123,-0.0736396,-0.0710841,138
0.436942,-0.0735879,-0.070229,143
0.436613,-0.0734918,-0.0693507,141
0.436235,-0.0733813,-0.0684661,141
0.436057,-0.0733304,-0.0676154,143
0.435037,-0.073029,-0.0666327,149
0.434861,-0.0729787,-0.0657861,151
0.434144,-0.0727673,-0.0648571,155
0.433774,-0.072659,-0.0639841,150
0.433405,-0.0725512,-0.063113,151
0.43338,-0.0725457,-0.0622948,149
0.432817,-0.0723802,-0.0613983,148
0.432842,-0.0723896,-0.0605893,144
0.432623,-0.0723265,-0.0597457,150
0.431821,-0.0720897,-0.0588213,152
0.431799,-0.0720851,-0.0580085,159
0.431972,-0.0721386,-0.0572228,161
0.431757,-0.0720764,-0.0563844,157
0.430525,-0.0717119,-0.0554123,156
0.430216,-0.0716219,-0.0545658,155
0.42986,-0.0715178,-0.0537149,154
0.430372,-0.071672,-0.0529757,157
0.430161,-0.0716111,-0.0521446,155
0.429566,-0.071436,-0.0512673,154
0.429645,-0.0714616,-0.0504742,153
0.429581,-0.0714443,-0.049664,153
0.429998,-0.0715703,-0.0489107,151
0.42955,-0.0714389,-0.0480564,155
0.42992,-0.0715508,-0.0472967,160
0.42909,-0.0713057,-0.0464023,158
0.428837,-0.0712323,-0.0455745,164
0.428585,-0.0711592,-0.044748,174
0.429242,-0.0713567,-0.0440187,165
0.429134,-0.0713265,-0.0432078,167
0.429458,-0.0714248,-0.0424414,168
0.429543,-0.071452,-0.0416502,172
0.430833,-0.0718375,-0.0409765,173
0.429187,-0.0713498,-0.0400171,171
0.4287,-0.0712065,-0.0391729,172
0.428643,-0.0711915,-0.0383704,177
0.429161,-0.0713475,-0.0376199,174
0.429201,-0.0713613,-0.0368257,176
0.428811,-0.0712471,-0.0359944,179
0.429091,-0.0713323,-0.0352213,179
0.428941,-0.0712897,-0.0344119,180
0.428601,-0.0711903,-0.033588,182
0.428262,-0.0710913,-0.0327657,181
0.427829,-0.0709643,-0.0319378,184
0.42754,-0.0708801,-0.0311223,189
0.427679,-0.0709234,-0.0303392,190
0.428199,-0.0710801,-0.0295826,193
0.428006,-0.0710245,-0.0287753,195
0.427671,-0.0709268,-0.0279594,193
0.427623,-0.0709141,-0.0271634,194
0.427195,-0.0707886,-0.026344,195
0.427147,-0.0707763,-0.0255495,196
0.426863,-0.0706937,-0.0247414,199
0.427006,-0.070738,-0.0239588,202
0.426723,-0.0706558,-0.0231524,201
0.425923,-0.0704195,-0.0223197,201
0.425456,-0.0702821,-0.0215073,202
0.426872,-0.0707056,-0.0207896,197
0.426356,-0.0705538,-0.019975,201
0.425889,-0.0704166,-0.0191648,201
0.425376,-0.0702659,-0.0183545,203
0.425757,-0.0703811,-0.0175834,199
0.424824,-0.0701052,-0.0167589,195
0.425392,-0.0702763,-0.0159946,197
0.42479,-0.0700987,-0.0151864,197
0.425312,-0.0702561,-0.0144186,198
0.425038,-0.0701764,-0.0136235,197
0.425046,-0.0701806,-0.0128379,199
0.424914,-0.0701432,-0.0120485,196
0.424643,-0.0700642,-0.011256,195
0.424652,-0.0700689,-0.0104713,195
0.425365,-0.0702829,-0.00970237,195
0.424813,-0.0701205,-0.00890502,196
0.425668,-0.0703769,-0.00813569,198
0.42493,-0.0701588,-0.00733688,200
0.425645,-0.0703738,-0.00656207,205
0.425517,-0.0703375,-0.00577391,203
0.426095,-0.0705113,-0.00499379,203
0.425873,-0.0704471,-0.00420447,207
0.425887,-0.0704532,-0.00341763,207
0.425198,-0.0702498,-0.00262731,208
0.425354,-0.0702981,-0.00184215,210
0.426027,-0.0705005,-0.00105692,211
0.426421,-0.0706195,-0.000269339,207
0.4247,-0.070109,0.000513785,206
0.425186,-0.0702554,0.00130078,208
0.426993,-0.0707955,0.00209851,205
0.426256,-0.0705779,0.00288131,203
0.426181,-0.0705573,0.00366828,204
0.426106,-0.070537,0.00445499,202
0.426079,-0.0705308,0.00524214,200
0.42643,-0.070637,0.00603538,202
0.426215,-0.070575,0.00681971,207
0.426378,-0.0706254,0.00761089,198
0.426259,-0.0705917,0.0083965,203
0.426517,-0.0706706,0.0091908,206
0.426682,-0.0707216,0.00998373,211
0.426706,-0.0707305,0.0107734,206
0.426872,-0.0707819,0.0115675,209
0.426897,-0.0707912,0.0123579,205
0.427396,-0.0709416,0.0131644,205
0.42766,-0.0710219,0.0139645,209
0.427259,-0.0709046,0.0147408,210
0.427192,-0.0708863,0.0155288,208
0.427599,-0.0710094,0.0163362,207
0.427959,-0.0711187,0.0171434,210
0.427893,-0.0711008,0.0179327,206
0.428971,-0.0714238,0.0187759,207
0.429336,-0.0715344,0.0195884,212
0.429175,-0.0714884,0.0203755,212
0.429015,-0.0714425,0.0211622,210
0.429095,-0.0714681,0.0219615,212
0.429079,-0.0714653,0.0227559,209
0.429447,-0.0715768,0.0235729,211
0.429624,-0.0716315,0.0243799,208
0.42961,-0.0716292,0.0251758,208
0.429789,-0.0716842,0.0259842,210
0.430112,-0.0717825,0.0268031,209
0.43116,-0.0720967,0.0276731,204
0.431148,-0.072095,0.0284726,205
0.431282,-0.0721368,0.0292828,202
0.431707,-0.0722653,0.0301154,204
0.431503,-0.0722064,0.0309018,201
0.431494,-0.0722054,0.0317028,202
0.430422,-0.0718879,0.0324188,205
0.430751,-0.0719878,0.0332459,206
0.431807,-0.0723045,0.0341355,209
0.431848,-0.0723186,0.0349422,208
0.432133,-0.0724052,0.0357707,210
0.432078,-0.0723908,0.0365699,207
0.431926,-0.0723475,0.0373603,203
0.432164,-0.0724202,0.0381869,205
0.432402,-0.0724931,0.0390146,208
0.4323,-0.0724648,0.0398104,207
0.432297,-0.0724655,0.0406157,207
0.432586,-0.0725536,0.041451,210
0.43273,-0.0725983,0.0422726,210
0.433853,-0.0729349,0.0431982,214
0.433117,-0.0727175,0.0439289,215
0.432725,-0.0726027,0.0446947,209
0.433899,-0.0729545,0.0456333,205
0.433556,-0.0728542,0.0464051,207
0.434638,-0.0731785,0.0473399,207
0.434688,-0.0731955,0.0481584,208
0.434888,-0.0732568,0.0489951,210
0.43489,-0.0732595,0.0498091,208
0.434499,-0.0731447,0.050575,206
0.435045,-0.0733094,0.0514567,211
0.435346,-0.073401,0.0523097,212
0.435301,-0.0733896,0.0531198,212
0.435207,-0.0733636,0.0539235,209
0.435461,-0.073441,0.0547733,215
0.435616,-0.0734891,0.0556111,210
0.435523,-0.0734636,0.0564161,209
0.435581,-0.0734825,0.0572418,206
0.435638,-0.0735016,0.0580681,206
0.434904,-0.0732847,0.0587821,205
0.435854,-0.0735699,0.0597369,204
0.435765,-0.0735452,0.0605436,204
0.435626,-0.0735057,0.061343,202
0.435786,-0.0735553,0.062187,200
0.437092,-0.0739467,0.0632067,198
0.437004,-0.0739225,0.0640168,199
0.436169,-0.0736754,0.0647102,198
0.436481,-0.0737703,0.0655821,198
0.436246,-0.073702,0.0663679,198
0.437659,-0.0741254,0.0674206,200
0.437825,-0.0741767,0.0682745,198
0.437689,-0.0741384,0.0690794,192
0.437655,-0.0741301,0.0699012,188
0.438023,-0.0742419,0.0707917,181
0.437789,-0.074174,0.0715804,185
0.43937,-0.0746473,0.0726844,179
0.439692,-0.0747454,0.0735736,187
0.439256,-0.0746172,0.0743295,194
0.439326,-0.0746401,0.0751752,196
0.43965,-0.0747387,0.0760679,199
0.441045,-0.0751566,0.0771591,198
0.440812,-0.075089,0.0779537,191
0.440783,-0.0750823,0.0787862,193
0.440041,-0.0748632,0.0794839,189
0.440319,-0.074948,0.0803744,192
0.439783,-0.0747901,0.0811089,188
0.440775,-0.0750879,0.0821408,185
0.440239,-0.0749299,0.082875,188
0.440009,-0.0748635,0.0836688,192
0.439933,-0.0748428,0.084493,194
0.4394,-0.0746859,0.0852244,192
0.439325,-0.0746655,0.0860484,197
0.439505,-0.074721,0.0869253,202
0.439431,-0.0747009,0.0877504,202
0.439307,-0.0746658,0.088565,204
0.439183,-0.0746309,0.0893797,204
0.43906,-0.0745961,0.0901946,205
0.439089,-0.0746069,0.0910427,209
0.438967,-0.0745725,0.0918581,210
0.436777,-0.0739211,0.0922152,206
0.436857,-0.0739471,0.0930719,203
0.436537,-0.0738534,0.0938389,203
