ply
format ascii 1.0
comment Created by CloudCompare v2.11 alpha (Anoia)
comment Created 2025/12/9 16:18
obj_info Generated by CloudCompare!
element vertex 1461
property float x
property float y
property float z
property float scalar_Scalar_field
end_header
0.339593 -0.481637 0.238601 200 
0.339688 -0.481647 0.239422 199 
0.339263 -0.481614 0.240205 205 
0.339151 -0.481606 0.24101 197 
0.339403 -0.481629 0.241845 201 
0.339759 -0.48166 0.24269 201 
0.339492 -0.48164 0.243483 197 
0.339539 -0.481646 0.244303 198 
0.33943 -0.481638 0.245109 202 
0.339685 -0.481661 0.245948 199 
0.339734 -0.481667 0.246769 204 
0.33973 -0.481669 0.247586 205 
0.34004 -0.481696 0.248433 204 
0.339985 -0.481693 0.249246 205 
0.340401 -0.481729 0.250105 205 
0.340243 -0.481718 0.250908 204 
0.340191 -0.481716 0.251722 203 
0.340504 -0.481743 0.252575 202 
0.340505 -0.481745 0.253395 202 
0.341817 -0.481855 0.254358 201 
0.342294 -0.481896 0.255234 201 
0.342403 -0.481907 0.256071 201 
0.342247 -0.481896 0.256878 200 
0.341777 -0.481859 0.257648 200 
0.341781 -0.481861 0.258473 199 
0.342366 -0.481911 0.259368 201 
0.342425 -0.481918 0.260202 203 
0.342431 -0.48192 0.261029 204 
0.342226 -0.481905 0.26183 204 
0.342392 -0.481921 0.262678 205 
0.342453 -0.481928 0.263513 203 
0.342832 -0.481961 0.264391 200 
0.342735 -0.481955 0.265207 204 
0.342904 -0.481971 0.266059 204 
0.34302 -0.481982 0.266904 204 
0.342978 -0.48198 0.267729 204 
0.343148 -0.481996 0.268583 207 
0.343374 -0.482017 0.269447 207 
0.343546 -0.482033 0.270304 207 
0.343718 -0.482049 0.271162 206 
0.343839 -0.482061 0.272013 207 
0.343748 -0.482055 0.272833 206 
0.343709 -0.482054 0.273662 205 
0.344045 -0.482083 0.274548 205 
0.344115 -0.482091 0.275394 205 
0.344185 -0.482099 0.276242 204 
0.345113 -0.482177 0.277226 206 
0.346584 -0.4823 0.278303 210 
0.346011 -0.482254 0.279051 210 
0.345546 -0.482218 0.279816 210 
0.345619 -0.482226 0.280669 205 
0.34618 -0.482274 0.281605 207 
0.346633 -0.482313 0.282525 210 
0.34671 -0.482322 0.283383 210 
0.346895 -0.482339 0.28426 210 
0.34708 -0.482356 0.285139 210 
0.347214 -0.482369 0.286009 208 
0.347727 -0.482413 0.286949 205 
0.347644 -0.482408 0.287782 204 
0.347562 -0.482403 0.288615 204 
0.34786 -0.48243 0.28952 202 
0.348051 -0.482447 0.290406 203 
0.348079 -0.482452 0.291263 205 
0.348435 -0.482483 0.292182 200 
0.348792 -0.482514 0.293104 200 
0.347948 -0.482447 0.293793 201 
0.34962 -0.482586 0.294976 201 
0.350422 -0.482654 0.295993 204 
0.35051 -0.482663 0.296869 202 
0.350708 -0.482682 0.297769 199 
0.350797 -0.482691 0.298647 199 
0.350886 -0.4827 0.299526 198 
0.35092 -0.482705 0.300395 199 
0.351122 -0.482724 0.301299 195 
0.351657 -0.48277 0.302276 194 
0.351972 -0.482798 0.303208 195 
0.352065 -0.482807 0.304094 192 
0.352716 -0.482863 0.305103 187 
0.353537 -0.482933 0.306153 189 
0.353578 -0.482938 0.307032 185 
0.35373 -0.482953 0.307937 188 
0.354052 -0.482981 0.308881 187 
0.353981 -0.482977 0.309738 180 
0.353967 -0.482978 0.310608 181 
0.353954 -0.482979 0.311479 179 
0.354054 -0.482989 0.312377 179 
0.35421 -0.483004 0.313289 177 
0.354649 -0.483042 0.31427 175 
0.354977 -0.483071 0.315226 176 
0.35508 -0.483082 0.31613 174 
0.355127 -0.483087 0.317021 176 
0.355457 -0.483117 0.317982 176 
0.356073 -0.48317 0.319016 177 
0.355724 -0.483143 0.319812 181 
0.355943 -0.483163 0.320751 178 
0.35588 -0.48316 0.321619 175 
0.356499 -0.483213 0.322662 175 
0.35695 -0.483252 0.323665 174 
0.356488 -0.483216 0.324433 176 
0.357341 -0.483288 0.325544 169 
0.35728 -0.483285 0.326418 171 
0.357907 -0.483339 0.327476 168 
0.35756 -0.483312 0.328275 172 
0.35773 -0.483328 0.329214 175 
0.358419 -0.483387 0.330294 175 
0.357555 -0.483318 0.330953 176 
0.357784 -0.483339 0.331911 177 
0.357382 -0.483308 0.332695 176 
0.357267 -0.4833 0.333559 176 
0.358189 -0.483378 0.334714 171 
0.358305 -0.48339 0.335645 173 
0.357732 -0.483345 0.336381 175 
0.357677 -0.483342 0.337264 172 
0.358025 -0.483373 0.338264 173 
0.357281 -0.483314 0.338948 179 
0.357342 -0.483321 0.339866 179 
0.357175 -0.483309 0.340718 178 
0.356892 -0.483288 0.341535 176 
0.356898 -0.48329 0.342438 175 
0.356961 -0.483297 0.34336 179 
0.357025 -0.483305 0.344282 177 
0.357147 -0.483317 0.345223 177 
0.35681 -0.483291 0.346024 178 
0.356531 -0.48327 0.346843 178 
0.356711 -0.483287 0.347804 177 
0.357238 -0.483333 0.348875 175 
0.357305 -0.48334 0.349804 177 
0.357373 -0.483348 0.350734 173 
0.357211 -0.483336 0.351592 173 
0.357222 -0.48334 0.352506 170 
0.356485 -0.483281 0.353179 173 
0.356495 -0.483284 0.354093 173 
0.356509 -0.483287 0.355008 177 
0.355087 -0.483171 0.355452 175 
0.354928 -0.48316 0.356309 179 
0.354541 -0.48313 0.35709 180 
0.353927 -0.483081 0.357795 178 
0.3536 -0.483057 0.358594 178 
0.352478 -0.482966 0.359124 174 
0.352549 -0.482974 0.360056 170 
0.351377 -0.482879 0.360564 170 
0.351053 -0.482854 0.36136 170 
0.350225 -0.482788 0.36198 174 
0.350184 -0.482786 0.362873 169 
0.350368 -0.482804 0.363845 166 
0.348871 -0.482682 0.364226 162 
0.348609 -0.482662 0.365039 160 
0.348012 -0.482615 0.365732 156 
0.348028 -0.482618 0.366645 156 
0.348045 -0.482622 0.367558 151 
0.346951 -0.482533 0.368069 154 
0.346636 -0.482509 0.36886 156 
0.347542 -0.482586 0.370099 154 
0.347504 -0.482585 0.370995 145 
0.347412 -0.482579 0.371871 145 
0.347542 -0.482592 0.37283 134 
0.348343 -0.482661 0.374042 135 
0.347805 -0.482618 0.374754 130 
0.347769 -0.482617 0.375654 136 
0.346344 -0.482501 0.376026 133 
0.346088 -0.482482 0.376841 137 
0.347053 -0.482564 0.378125 133 
0.347353 -0.482591 0.379158 127 
0.346541 -0.482526 0.379759 132 
0.346785 -0.482548 0.380771 137 
0.347198 -0.482585 0.381851 127 
0.347222 -0.482589 0.38278 129 
0.348365 -0.482685 0.384155 118 
0.349176 -0.482755 0.385403 117 
0.349089 -0.48275 0.386294 121 
0.350528 -0.482871 0.387802 122 
0.348691 -0.482721 0.387987 109 
0.348774 -0.48273 0.388949 112 
0.349477 -0.48279 0.390166 109 
0.349675 -0.482809 0.391179 115 
0.349872 -0.482827 0.392193 116 
0.349449 -0.482794 0.392951 121 
0.350044 -0.482846 0.394134 124 
0.349904 -0.482836 0.395011 124 
0.350558 -0.482892 0.396224 119 
0.349907 -0.482841 0.396886 122 
0.349824 -0.482836 0.397789 118 
0.350594 -0.482902 0.399059 114 
0.350854 -0.482926 0.400113 115 
0.350773 -0.482921 0.40102 115 
0.351319 -0.482968 0.402202 116 
0.351296 -0.482968 0.403138 118 
0.35053 -0.482907 0.403749 110 
0.350678 -0.482922 0.40476 111 
0.350426 -0.482903 0.405597 106 
0.350632 -0.482922 0.406636 110 
0.35124 -0.482975 0.407858 110 
0.35162 -0.483008 0.40898 106 
0.351771 -0.483023 0.410002 110 
0.351693 -0.483019 0.410921 116 
0.344781 -0.485027 -0.00547788 4 
0.2365 -0.475416 0.0468471 3 
0.333021 -0.483987 0.00198212 4 
0.216592 -0.473652 0.0575941 3 
0.33865 -0.484491 0.00117711 4 
0.329181 -0.483652 0.00653011 4 
0.330126 -0.483738 0.00699812 6 
0.329204 -0.483659 0.00833412 5 
0.329164 -0.483657 0.00925811 5 
0.335527 -0.484224 0.00724512 6 
0.330068 -0.483741 0.0106541 5 
0.329253 -0.483671 0.0119311 7 
0.329991 -0.483739 0.0124991 7 
0.327992 -0.483563 0.0143031 8 
0.328675 -0.483626 0.0148951 9 
0.328226 -0.483588 0.0159941 8 
0.328755 -0.483637 0.0166561 9 
0.329543 -0.483709 0.0172051 7 
0.329713 -0.483726 0.0180281 7 
0.329161 -0.483679 0.0191671 10 
0.329228 -0.483687 0.0200341 12 
0.33038 -0.483792 0.0204291 9 
0.329414 -0.483708 0.0217421 11 
0.329482 -0.483716 0.0226061 11 
0.329756 -0.483742 0.0233811 13 
0.33117 -0.48387 0.0236721 14 
0.330876 -0.483846 0.0246911 12 
0.33048 -0.483813 0.0257511 14 
0.330085 -0.48378 0.0268081 14 
0.329331 -0.483714 0.0280121 11 
0.331882 -0.483943 0.0278411 12 
0.331692 -0.483928 0.0288111 12 
0.330985 -0.483868 0.0299921 12 
0.331315 -0.483899 0.0307461 15 
0.332581 -0.484014 0.0311191 20 
0.331717 -0.483939 0.0323581 15 
0.333717 -0.484118 0.0324411 12 
0.330723 -0.483854 0.0345311 15 
0.331467 -0.483923 0.0351181 15 
0.331282 -0.483908 0.0360761 21 
0.331613 -0.483939 0.0368281 22 
0.332723 -0.48404 0.0372751 22 
0.331967 -0.483975 0.0384551 21 
0.332716 -0.484044 0.0390471 25 
0.334303 -0.484187 0.0393171 21 
0.333177 -0.484089 0.0406351 23 
0.334348 -0.484195 0.0410701 27 
0.333275 -0.484101 0.0423621 25 
0.334185 -0.484184 0.0428991 23 
0.335571 -0.48431 0.0432591 23 
0.333712 -0.484146 0.0448401 21 
0.334676 -0.484234 0.0453601 25 
0.334909 -0.484257 0.0461551 22 
0.335405 -0.484303 0.0468521 23 
0.33496 -0.484265 0.0478961 28 
0.335615 -0.484326 0.0485371 29 
0.336482 -0.484405 0.0491031 28 
0.33804 -0.484545 0.0494221 33 
0.337325 -0.484484 0.0505611 34 
0.337299 -0.484484 0.0514521 37 
0.336746 -0.484436 0.0525281 38 
0.33709 -0.484469 0.0532851 34 
0.337065 -0.484469 0.0541721 34 
0.337515 -0.484511 0.0548921 36 
0.33765 -0.484525 0.0557241 34 
0.338578 -0.484609 0.0562811 34 
0.338873 -0.484638 0.0570591 34 
0.338372 -0.484595 0.0581071 33 
0.338561 -0.484614 0.0589201 34 
0.339759 -0.484723 0.0593931 34 
0.338834 -0.484642 0.0605801 34 
0.339661 -0.484718 0.0611801 38 
0.340332 -0.48478 0.0618351 39 
0.340684 -0.484813 0.0625961 37 
0.34109 -0.484851 0.0633401 39 
0.340481 -0.484799 0.0644151 40 
0.341209 -0.484866 0.0650551 45 
0.341563 -0.484899 0.0658171 43 
0.341918 -0.484933 0.0665801 44 
0.342059 -0.484947 0.0674111 45 
0.342094 -0.484952 0.0682761 43 
0.34245 -0.484986 0.0690391 41 
0.34211 -0.484958 0.0700191 44 
0.342844 -0.485025 0.0706661 42 
0.343095 -0.48505 0.0714641 47 
0.343454 -0.485084 0.0722281 54 
0.344193 -0.485151 0.0728781 56 
0.343744 -0.485113 0.0738881 50 
0.343835 -0.485124 0.0747341 52 
0.343495 -0.485095 0.0757081 54 
0.34375 -0.48512 0.0765041 53 
0.343896 -0.485135 0.0773331 55 
0.343881 -0.485136 0.0782081 53 
0.343975 -0.485146 0.0790511 58 
0.344339 -0.48518 0.0798161 57 
0.344109 -0.485162 0.0807511 53 
0.34507 -0.485249 0.0813491 53 
0.345057 -0.48525 0.0822221 51 
0.344126 -0.485169 0.0833511 56 
0.344222 -0.48518 0.0841911 53 
0.34378 -0.485142 0.0851791 54 
0.344039 -0.485167 0.0859741 56 
0.344514 -0.485212 0.0867101 54 
0.34418 -0.485184 0.0876641 54 
0.343257 -0.485103 0.0887751 58 
0.343516 -0.485129 0.0895671 58 
0.342973 -0.485082 0.0905721 56 
0.342965 -0.485083 0.0914341 61 
0.34221 -0.485018 0.0924891 64 
0.342738 -0.485067 0.0932101 63 
0.342092 -0.485011 0.0942321 60 
0.342033 -0.485008 0.0951031 58 
0.34086 -0.484905 0.0962531 62 
0.340273 -0.484855 0.0972511 64 
0.339428 -0.484781 0.0983111 67 
0.339372 -0.484778 0.0991731 73 
0.338374 -0.484691 0.100264 78 
0.338007 -0.48466 0.101198 84 
0.337745 -0.484638 0.102104 90 
0.338528 -0.48471 0.102761 92 
0.337536 -0.484624 0.103838 96 
0.337692 -0.484639 0.104643 94 
0.33785 -0.484655 0.105447 98 
0.3378 -0.484653 0.1063 93 
0.337645 -0.484641 0.107175 98 
0.337544 -0.484634 0.108037 98 
0.337703 -0.48465 0.10884 99 
0.337291 -0.484615 0.10977 104 
0.337398 -0.484626 0.110583 109 
0.337195 -0.48461 0.111465 109 
0.337512 -0.48464 0.112232 108 
0.337569 -0.484647 0.113055 102 
0.337731 -0.484664 0.113856 107 
0.337738 -0.484666 0.11469 107 
0.337745 -0.484669 0.115524 115 
0.337545 -0.484653 0.1164 112 
0.337605 -0.48466 0.117221 114 
0.338237 -0.484718 0.117925 112 
0.338246 -0.484721 0.118757 125 
0.337787 -0.484682 0.119682 124 
0.338421 -0.484741 0.120389 115 
0.337756 -0.484683 0.121352 108 
0.337975 -0.484704 0.122141 109 
0.338038 -0.484712 0.12296 114 
0.337843 -0.484696 0.123828 112 
0.338271 -0.484736 0.124577 109 
0.337972 -0.484712 0.125463 117 
0.33861 -0.484771 0.126175 120 
0.338052 -0.484723 0.127106 127 
0.338482 -0.484763 0.127857 127 
0.338238 -0.484743 0.12873 135 
0.338617 -0.484779 0.129491 136 
0.338582 -0.484777 0.130325 138 
0.338546 -0.484776 0.131159 136 
0.33872 -0.484794 0.131957 138 
0.338894 -0.484811 0.132755 136 
0.3386 -0.484787 0.133631 139 
0.339087 -0.484832 0.134377 140 
0.339159 -0.48484 0.135192 143 
0.339179 -0.484844 0.136016 146 
0.339095 -0.484838 0.136855 146 
0.33896 -0.484828 0.137702 144 
0.338877 -0.484823 0.13854 148 
0.339212 -0.484854 0.139313 146 
0.338818 -0.484821 0.140198 147 
0.338686 -0.484811 0.141041 145 
0.339229 -0.484862 0.141784 146 
0.339878 -0.484922 0.142512 148 
0.339851 -0.484921 0.14334 150 
0.340034 -0.484939 0.144139 149 
0.339747 -0.484915 0.145003 149 
0.340452 -0.48498 0.145729 157 
0.340846 -0.485018 0.146499 163 
0.340926 -0.485027 0.147313 160 
0.340535 -0.484993 0.148189 162 
0.340564 -0.484998 0.149009 159 
0.341065 -0.485045 0.149767 168 
0.34099 -0.48504 0.150601 168 
0.340602 -0.485007 0.151473 175 
0.341366 -0.485077 0.152201 165 
0.340874 -0.485035 0.153084 168 
0.341273 -0.485073 0.153858 164 
0.341306 -0.485077 0.154677 164 
0.341864 -0.485129 0.155435 168 
0.341793 -0.485125 0.156266 170 
0.342248 -0.485167 0.157038 171 
0.342864 -0.485225 0.157793 175 
0.343005 -0.485239 0.158602 175 
0.343094 -0.485249 0.159416 177 
0.34313 -0.485254 0.160237 175 
0.342747 -0.485221 0.1611 172 
0.342416 -0.485194 0.161957 170 
0.342771 -0.485227 0.162744 174 
0.342916 -0.485242 0.163552 168 
0.342744 -0.485229 0.164391 170 
0.343207 -0.485272 0.16517 171 
0.343619 -0.485311 0.165955 175 
0.343766 -0.485326 0.166765 173 
0.344021 -0.485351 0.167565 179 
0.343799 -0.485333 0.168408 178 
0.344054 -0.485357 0.169209 182 
0.344152 -0.485368 0.170025 176 
0.343984 -0.485355 0.170861 179 
0.344614 -0.485413 0.171634 181 
0.345192 -0.485467 0.172413 184 
0.34407 -0.485368 0.173322 184 
0.34417 -0.485379 0.174137 184 
0.344535 -0.485414 0.174933 182 
0.34549 -0.485501 0.175689 186 
0.345806 -0.485531 0.176492 187 
0.345536 -0.485509 0.177335 188 
0.345373 -0.485496 0.17817 186 
0.345583 -0.485517 0.17898 190 
0.345956 -0.485552 0.179781 191 
0.345955 -0.485554 0.180606 192 
0.346276 -0.485585 0.181412 195 
0.34633 -0.485591 0.182234 196 
0.346117 -0.485574 0.18307 197 
0.346118 -0.485576 0.183894 198 
0.346013 -0.485568 0.184723 196 
0.347249 -0.485681 0.185489 196 
0.346662 -0.48563 0.186341 200 
0.346184 -0.485589 0.187187 200 
0.345975 -0.485572 0.188019 197 
0.34614 -0.485589 0.188836 198 
0.346414 -0.485616 0.189649 194 
0.346206 -0.485599 0.190481 194 
0.347124 -0.485683 0.191272 195 
0.347401 -0.48571 0.192088 197 
0.347087 -0.485683 0.192924 195 
0.346988 -0.485676 0.193751 198 
0.347052 -0.485684 0.194574 200 
0.347492 -0.485725 0.195388 200 
0.347664 -0.485743 0.196209 203 
0.346763 -0.485664 0.197054 202 
0.346775 -0.485667 0.197878 198 
0.346949 -0.485684 0.198699 196 
0.346587 -0.485654 0.199529 197 
0.346655 -0.485661 0.200351 197 
0.346295 -0.485631 0.201179 202 
0.347221 -0.485716 0.201992 198 
0.347506 -0.485744 0.202815 202 
0.347361 -0.485732 0.203641 204 
0.347056 -0.485707 0.204467 205 
0.347343 -0.485734 0.20529 210 
0.347361 -0.485738 0.206115 212 
0.347273 -0.485732 0.20694 210 
0.346542 -0.485668 0.207763 207 
0.345547 -0.485581 0.208581 206 
0.345036 -0.485537 0.2094 203 
0.345057 -0.48554 0.21022 201 
0.344867 -0.485525 0.211039 198 
0.345315 -0.485567 0.211865 199 
0.345232 -0.485562 0.212685 201 
0.344353 -0.485485 0.213492 202 
0.344165 -0.485469 0.214308 202 
0.343979 -0.485454 0.215124 202 
0.343581 -0.485421 0.215934 200 
0.343713 -0.485434 0.216755 207 
0.343952 -0.485458 0.21758 210 
0.343662 -0.485433 0.218391 211 
0.343532 -0.485424 0.219206 209 
0.343613 -0.485433 0.220027 215 
0.343696 -0.485442 0.220848 216 
0.342618 -0.485347 0.22163 218 
0.341808 -0.485276 0.222418 216 
0.341315 -0.485234 0.223215 217 
0.340616 -0.485172 0.224002 214 
0.340179 -0.485135 0.224797 210 
0.340211 -0.48514 0.225611 211 
0.340035 -0.485126 0.226416 210 
0.339187 -0.485051 0.227189 208 
0.33917 -0.485052 0.227999 209 
0.339566 -0.485089 0.228831 206 
0.33929 -0.485066 0.229629 201 
0.337829 -0.484937 0.230361 202 
0.33771 -0.484928 0.231164 200 
0.337644 -0.484924 0.231969 202 
0.337579 -0.48492 0.232774 200 
0.337513 -0.484916 0.23358 202 
0.337449 -0.484911 0.234385 203 
0.338674 -0.485024 0.235275 203 
0.339543 -0.485104 0.236146 204 
0.339584 -0.485109 0.236963 204 
0.339521 -0.485105 0.237772 206 
0.338062 -0.484976 0.238479 202 
0.338156 -0.484986 0.239298 198 
0.337992 -0.484973 0.240097 201 
0.339225 -0.485086 0.241006 205 
0.339373 -0.485101 0.241832 203 
0.339314 -0.485098 0.242642 199 
0.338893 -0.485062 0.243422 199 
0.338886 -0.485063 0.244235 194 
0.339088 -0.485083 0.245068 193 
0.339187 -0.485094 0.245892 201 
0.339235 -0.4851 0.246712 201 
0.339543 -0.48513 0.247556 204 
0.339021 -0.485084 0.248323 201 
0.339694 -0.485147 0.249205 206 
0.339952 -0.485172 0.250048 206 
0.340055 -0.485183 0.250877 205 
0.340055 -0.485185 0.251695 205 
0.340368 -0.485215 0.252547 207 
0.34016 -0.485198 0.253345 208 
0.340213 -0.485205 0.25417 204 
0.340267 -0.485211 0.254996 204 
0.340269 -0.485213 0.255817 202 
0.341057 -0.485286 0.256728 197 
0.341743 -0.48535 0.25763 197 
0.340855 -0.485272 0.258349 198 
0.341805 -0.485359 0.259286 199 
0.34139 -0.485324 0.26006 202 
0.340976 -0.485288 0.260833 206 
0.34135 -0.485324 0.261704 202 
0.342304 -0.485412 0.262651 203 
0.341785 -0.485367 0.263411 203 
0.342321 -0.485417 0.264307 201 
0.342805 -0.485463 0.2652 202 
0.342708 -0.485456 0.266016 204 
0.342931 -0.485478 0.266875 207 
0.343101 -0.485495 0.267729 208 
0.343219 -0.485507 0.268576 206 
0.342966 -0.485486 0.269371 205 
0.343084 -0.485499 0.270219 206 
0.343257 -0.485517 0.271076 206 
0.343323 -0.485524 0.271918 208 
0.343444 -0.485537 0.272769 204 
0.343566 -0.48555 0.273621 204 
0.343848 -0.485577 0.274499 203 
0.34381 -0.485576 0.275328 204 
0.343934 -0.485589 0.276183 205 
0.343632 -0.485564 0.27697 206 
0.343917 -0.485591 0.277852 207 
0.343828 -0.485585 0.278674 204 
0.343954 -0.485598 0.279532 202 
0.344241 -0.485626 0.280418 204 
0.344743 -0.485673 0.281341 207 
0.344925 -0.485692 0.282212 208 
0.345214 -0.48572 0.283103 207 
0.34513 -0.485714 0.28393 207 
0.346174 -0.48581 0.284957 208 
0.34663 -0.485853 0.285883 208 
0.347087 -0.485896 0.286811 213 
0.347221 -0.48591 0.287683 210 
0.347193 -0.48591 0.288525 208 
0.347111 -0.485904 0.289358 206 
0.3473 -0.485923 0.290242 205 
0.347328 -0.485928 0.291097 203 
0.347356 -0.485932 0.291952 201 
0.34744 -0.485942 0.292819 202 
0.347632 -0.485961 0.293708 201 
0.347825 -0.48598 0.294598 203 
0.347965 -0.485995 0.295478 202 
0.347996 -0.486 0.296338 202 
0.349176 -0.486108 0.297433 198 
0.349154 -0.486108 0.298285 197 
0.348531 -0.486054 0.299013 201 
0.348947 -0.486093 0.299957 201 
0.350686 -0.486252 0.301182 198 
0.350226 -0.486213 0.301946 195 
0.351035 -0.486288 0.302982 194 
0.350906 -0.486278 0.303817 195 
0.351553 -0.486338 0.304823 192 
0.351535 -0.486339 0.305685 191 
0.351741 -0.486359 0.306596 191 
0.351669 -0.486355 0.307447 192 
0.352099 -0.486396 0.308412 190 
0.352474 -0.486431 0.309367 186 
0.352794 -0.486462 0.310311 182 
0.352669 -0.486453 0.311153 187 
0.352768 -0.486464 0.312048 189 
0.353034 -0.48649 0.312984 190 
0.354032 -0.486582 0.314095 188 
0.354527 -0.486629 0.31509 184 
0.354573 -0.486635 0.315979 182 
0.354845 -0.486662 0.316924 185 
0.355005 -0.486678 0.317843 181 
0.355053 -0.486684 0.318735 183 
0.355044 -0.486686 0.319614 181 
0.35498 -0.486682 0.32048 183 
0.355143 -0.486698 0.321403 180 
0.355589 -0.486741 0.3224 175 
0.35581 -0.486763 0.323342 175 
0.355975 -0.48678 0.324271 179 
0.356027 -0.486787 0.325171 173 
0.356137 -0.486798 0.326087 175 
0.356418 -0.486826 0.32705 173 
0.356187 -0.486807 0.327878 172 
0.356468 -0.486834 0.328843 172 
0.356296 -0.486821 0.329687 171 
0.356466 -0.486838 0.330625 174 
0.356293 -0.486825 0.33147 173 
0.356407 -0.486837 0.332394 173 
0.356407 -0.486839 0.333287 176 
0.356522 -0.486851 0.334213 177 
0.356523 -0.486854 0.335109 178 
0.356182 -0.486825 0.335907 182 
0.356413 -0.486848 0.336869 178 
0.355902 -0.486803 0.337618 179 
0.35619 -0.486832 0.338598 172 
0.356652 -0.486875 0.339631 175 
0.356599 -0.486873 0.340515 178 
0.357119 -0.486922 0.341569 176 
0.356151 -0.486836 0.342181 171 
0.356443 -0.486865 0.34317 173 
0.355705 -0.4868 0.343848 175 
0.356227 -0.486849 0.344908 170 
0.356062 -0.486836 0.34576 170 
0.355556 -0.486792 0.346507 170 
0.355735 -0.486811 0.347466 171 
0.355059 -0.486752 0.348158 173 
0.355182 -0.486765 0.3491 177 
0.355419 -0.486788 0.35008 169 
0.3552 -0.486771 0.350915 174 
0.355325 -0.486784 0.351861 176 
0.355393 -0.486792 0.35279 173 
0.354891 -0.486749 0.353534 176 
0.354902 -0.486752 0.354446 175 
0.354344 -0.486703 0.35517 176 
0.354129 -0.486686 0.356007 180 
0.353744 -0.486653 0.356787 182 
0.352736 -0.486564 0.357358 177 
0.351395 -0.486444 0.357813 175 
0.351071 -0.486417 0.358608 180 
0.350691 -0.486385 0.359384 175 
0.351042 -0.486418 0.360409 173 
0.349935 -0.48632 0.360934 175 
0.349893 -0.486318 0.361825 165 
0.349014 -0.486241 0.362424 167 
0.348305 -0.486179 0.36308 166 
0.347876 -0.486142 0.363833 158 
0.34778 -0.486135 0.364703 164 
0.347519 -0.486113 0.365514 153 
0.347313 -0.486097 0.366346 147 
0.347273 -0.486095 0.367237 148 
0.346627 -0.486039 0.367908 146 
0.345486 -0.485937 0.368397 149 
0.346054 -0.485991 0.36951 149 
0.346348 -0.48602 0.370524 144 
0.345538 -0.485948 0.371132 144 
0.345667 -0.485962 0.372086 143 
0.34668 -0.486056 0.373374 141 
0.346202 -0.486015 0.374104 141 
0.346387 -0.486033 0.375085 143 
0.347184 -0.486108 0.376301 136 
0.34593 -0.485996 0.376735 136 
0.347282 -0.486121 0.378168 133 
0.346526 -0.486054 0.378791 127 
0.346049 -0.486013 0.379521 127 
0.347015 -0.486103 0.380814 130 
0.34676 -0.486082 0.381632 125 
0.348177 -0.486213 0.383112 121 
0.347587 -0.486161 0.383799 121 
0.347276 -0.486135 0.384596 121 
0.347524 -0.486159 0.385618 120 
0.347549 -0.486164 0.386552 116 
0.347743 -0.486183 0.387555 114 
0.347825 -0.486193 0.388514 114 
0.347515 -0.486167 0.389314 115 
0.348664 -0.486273 0.390714 116 
0.34886 -0.486293 0.391726 110 
0.348269 -0.486242 0.392411 116 
0.34841 -0.486257 0.393401 117 
0.349228 -0.486333 0.394678 112 
0.348862 -0.486302 0.395458 107 
0.349966 -0.486404 0.396862 115 
0.34943 -0.486358 0.397572 120 
0.349744 -0.486388 0.398645 119 
0.349719 -0.486388 0.399574 119 
0.349978 -0.486414 0.400626 119 
0.349896 -0.486409 0.401533 110 
0.350327 -0.48645 0.402664 108 
0.350929 -0.486507 0.403874 105 
0.350337 -0.486455 0.404559 103 
0.351055 -0.486523 0.405824 100 
0.350462 -0.486471 0.406509 102 
0.349757 -0.486409 0.407142 108 
0.350418 -0.486471 0.408388 101 
0.35034 -0.486466 0.409303 108 
0.35049 -0.486482 0.410323 109 
0.336731 -0.487767 -0.00158089 4 
0.342336 -0.488311 -0.00332088 5 
0.0323455 -0.458331 0.141451 3 
0.329218 -0.487047 0.00474612 4 
0.200227 -0.474574 0.0659701 2 
0.333314 -0.487447 0.00464911 3 
0.32827 -0.486962 0.00791312 4 
0.329314 -0.487065 0.00833412 5 
0.32737 -0.486879 0.0101361 7 
0.327025 -0.486847 0.0111961 5 
0.32868 -0.487009 0.0113391 5 
0.329518 -0.487093 0.0118601 6 
0.32979 -0.487121 0.0126401 10 
0.328154 -0.486965 0.0142801 7 
0.326787 -0.486835 0.0157911 8 
0.32721 -0.486877 0.0164971 9 
0.329483 -0.487099 0.0163811 8 
0.327956 -0.486954 0.0179551 9 
0.327154 -0.486878 0.0192031 8 
0.328705 -0.48703 0.0194151 8 
0.3279 -0.486954 0.0206601 9 
0.328788 -0.487042 0.0211671 10 
0.329627 -0.487126 0.0216971 15 
0.328872 -0.487055 0.0229151 13 
0.332094 -0.487368 0.0224281 15 
0.330141 -0.487182 0.0241561 11 
0.330882 -0.487255 0.0247351 13 
0.329609 -0.487134 0.0261641 12 
0.330813 -0.487253 0.0265481 13 
0.331038 -0.487276 0.0273461 11 
0.332093 -0.487381 0.0277981 15 
0.331178 -0.487294 0.0290681 13 
0.330732 -0.487253 0.0301411 13 
0.331527 -0.487332 0.0307031 15 
0.33072 -0.487256 0.0319201 15 
0.333751 -0.487551 0.0315781 16 
0.33252 -0.487434 0.0329661 19 
0.331865 -0.487373 0.0341161 17 
0.332352 -0.487422 0.0348081 16 
0.333049 -0.487491 0.0354171 20 
0.330947 -0.48729 0.0371341 19 
0.332157 -0.487409 0.0375401 23 
0.33192 -0.487388 0.0385161 20 
0.332615 -0.487457 0.0391281 17 
0.333991 -0.487593 0.0394791 21 
0.333439 -0.487541 0.0405751 23 
0.332839 -0.487485 0.0416881 26 
0.333746 -0.487575 0.0422231 27 
0.333874 -0.487589 0.0430571 26 
0.334002 -0.487604 0.0438901 26 
0.334966 -0.487699 0.0444091 24 
0.334729 -0.487678 0.0453801 27 
0.335015 -0.487708 0.0461551 26 
0.33457 -0.487667 0.0471991 25 
0.334961 -0.487707 0.0479351 27 
0.335039 -0.487716 0.0487851 30 
0.335797 -0.487792 0.0493891 29 
0.336139 -0.487827 0.0501451 28 
0.336691 -0.487882 0.0508261 32 
0.336087 -0.487826 0.0519201 35 
0.335852 -0.487805 0.0528811 33 
0.336983 -0.487917 0.0533591 31 
0.336853 -0.487906 0.0542821 33 
0.337671 -0.487987 0.0548741 33 
0.337964 -0.488018 0.0556501 34 
0.337201 -0.487946 0.0567901 36 
0.337652 -0.487991 0.0575111 34 
0.33784 -0.488012 0.0583231 37 
0.338028 -0.488032 0.0591341 38 
0.33864 -0.488093 0.0598031 39 
0.338724 -0.488103 0.0606511 40 
0.339073 -0.488139 0.0614101 38 
0.339528 -0.488185 0.0621341 40 
0.338818 -0.488118 0.0632421 38 
0.339592 -0.488196 0.0638621 41 
0.339784 -0.488216 0.0646741 43 
0.339816 -0.488221 0.0655361 46 
0.340009 -0.488242 0.0663471 47 
0.340681 -0.488309 0.0670061 42 
0.341195 -0.488361 0.0677161 43 
0.341336 -0.488377 0.0685451 47 
0.341692 -0.488413 0.0693071 47 
0.341353 -0.488382 0.0702851 48 
0.341442 -0.488393 0.0711291 44 
0.341691 -0.488419 0.0719241 51 
0.341674 -0.488419 0.0728001 48 
0.342138 -0.488466 0.0735301 46 
0.341801 -0.488436 0.0745021 47 
0.342374 -0.488493 0.0752001 48 
0.342573 -0.488515 0.0760111 52 
0.34229 -0.488489 0.0769631 54 
0.342704 -0.488531 0.0777101 52 
0.342743 -0.488537 0.0785671 50 
0.342943 -0.488558 0.0793771 48 
0.341433 -0.488414 0.0806781 53 
0.342167 -0.488487 0.0813331 51 
0.341249 -0.4884 0.0824571 51 
0.34225 -0.488499 0.0830381 48 
0.342025 -0.488479 0.0839651 48 
0.341853 -0.488464 0.0848751 50 
0.341897 -0.488471 0.0857241 53 
0.341461 -0.48843 0.0867041 56 
0.34108 -0.488395 0.0876671 59 
0.340859 -0.488376 0.0885851 58 
0.34186 -0.488475 0.0891751 61 
0.341532 -0.488445 0.0901201 62 
0.340571 -0.488353 0.0912311 66 
0.34067 -0.488365 0.0920601 66 
0.340188 -0.48832 0.0930391 61 
0.339287 -0.488234 0.0941241 60 
0.338495 -0.488159 0.0951771 62 
0.338648 -0.488176 0.0959871 59 
0.337077 -0.488025 0.0972301 63 
0.337752 -0.488093 0.0979061 73 
0.337385 -0.488059 0.0988431 80 
0.337903 -0.488111 0.0995591 88 
0.336033 -0.487931 0.10086 91 
0.336083 -0.487938 0.101688 89 
0.336238 -0.487955 0.102491 93 
0.336186 -0.487952 0.103342 92 
0.337067 -0.48804 0.103973 95 
0.335981 -0.487936 0.105068 90 
0.336034 -0.487943 0.105893 91 
0.335778 -0.48792 0.106789 93 
0.33609 -0.487952 0.107554 101 
0.336144 -0.487959 0.108378 102 
0.336044 -0.487951 0.109236 101 
0.336151 -0.487964 0.110047 102 
0.336413 -0.487991 0.110823 111 
0.336314 -0.487984 0.11168 110 
0.336992 -0.488051 0.112367 110 
0.336998 -0.488054 0.1132 105 
0.337107 -0.488066 0.114011 111 
0.336545 -0.488013 0.114964 109 
0.336707 -0.488031 0.115762 109 
0.336663 -0.488029 0.116604 107 
0.336826 -0.488046 0.117402 110 
0.336525 -0.488019 0.118294 111 
0.336844 -0.488052 0.119061 116 
0.336596 -0.48803 0.119941 115 
0.336864 -0.488058 0.120717 119 
0.33734 -0.488106 0.121454 118 
0.336834 -0.488059 0.122382 117 
0.336537 -0.488031 0.123268 112 
0.337323 -0.48811 0.123946 113 
0.337232 -0.488103 0.124792 113 
0.337194 -0.488101 0.125627 121 
0.337001 -0.488084 0.12649 127 
0.337067 -0.488093 0.127305 132 
0.337288 -0.488116 0.128091 132 
0.337355 -0.488124 0.128906 134 
0.337784 -0.488168 0.129656 139 
0.337336 -0.488126 0.130561 145 
0.337404 -0.488135 0.131375 142 
0.337525 -0.488148 0.132179 144 
0.337905 -0.488187 0.13294 146 
0.33782 -0.488181 0.133779 145 
0.339084 -0.488306 0.134394 146 
0.338271 -0.488229 0.135354 146 
0.338396 -0.488242 0.136158 140 
0.338054 -0.488211 0.137038 143 
0.338386 -0.488245 0.137809 137 
0.338354 -0.488244 0.138637 140 
0.338585 -0.488268 0.139425 139 
0.338504 -0.488262 0.140261 137 
0.338579 -0.488272 0.141072 140 
0.338551 -0.488271 0.141899 149 
0.338731 -0.48829 0.142695 151 
0.338704 -0.488289 0.143521 153 
0.339508 -0.48837 0.144228 153 
0.338911 -0.488313 0.145135 158 
0.338885 -0.488313 0.14596 159 
0.33912 -0.488337 0.146749 162 
0.339772 -0.488403 0.147482 167 
0.339592 -0.488387 0.148329 172 
0.339308 -0.488361 0.149187 167 
0.339234 -0.488356 0.150018 166 
0.3402 -0.488452 0.150714 166 
0.340387 -0.488472 0.151512 167 
0.340418 -0.488477 0.15233 162 
0.340816 -0.488518 0.153103 168 
0.340742 -0.488512 0.153934 166 
0.340724 -0.488512 0.154758 171 
0.340757 -0.488517 0.155575 171 
0.341157 -0.488558 0.15635 173 
0.341244 -0.488569 0.157162 172 
0.341122 -0.488559 0.157997 173 
0.341734 -0.48862 0.158751 175 
0.342243 -0.488672 0.159518 174 
0.341912 -0.488641 0.160375 173 
0.341687 -0.488621 0.16122 171 
0.342145 -0.488668 0.161994 169 
0.341974 -0.488653 0.162833 171 
0.342064 -0.488664 0.163645 173 
0.342894 -0.488746 0.164386 177 
0.342777 -0.488737 0.16522 173 
0.342765 -0.488737 0.166042 178 
0.342753 -0.488738 0.166865 174 
0.342744 -0.488739 0.167687 172 
0.342892 -0.488755 0.168495 173 
0.343094 -0.488777 0.169299 178 
0.343401 -0.488809 0.170095 183 
0.343709 -0.488841 0.170891 190 
0.343491 -0.488821 0.171731 184 
0.343696 -0.488843 0.172536 186 
0.343742 -0.48885 0.173354 183 
0.344266 -0.488903 0.174137 184 
0.344791 -0.488956 0.174922 183 
0.344734 -0.488952 0.175749 185 
0.344517 -0.488933 0.176586 187 
0.345045 -0.488986 0.177374 187 
0.345415 -0.489024 0.178173 186 
0.345518 -0.489036 0.17899 187 
0.345624 -0.489048 0.179807 190 
0.34573 -0.48906 0.180625 194 
0.345675 -0.489057 0.181452 193 
0.345783 -0.489069 0.182269 193 
0.345891 -0.489082 0.183087 194 
0.345839 -0.489078 0.183913 199 
0.345788 -0.489075 0.184739 197 
0.34579 -0.489077 0.185562 200 
0.345527 -0.489054 0.186397 197 
0.345691 -0.489072 0.187213 200 
0.346016 -0.489105 0.188022 199 
0.346128 -0.489118 0.18884 197 
0.346027 -0.48911 0.189668 192 
0.34614 -0.489123 0.190486 198 
0.346094 -0.48912 0.191311 201 
0.346048 -0.489118 0.192136 200 
0.345897 -0.489105 0.192963 195 
0.345799 -0.489097 0.193788 195 
0.345702 -0.489089 0.194613 194 
0.345711 -0.489092 0.195435 196 
0.346363 -0.489158 0.196242 197 
0.345894 -0.489114 0.197075 196 
0.34719 -0.489242 0.197871 198 
0.347472 -0.489272 0.198691 198 
0.346895 -0.489217 0.199525 199 
0.347177 -0.489247 0.200345 205 
0.347675 -0.489297 0.201163 205 
0.347637 -0.489295 0.201989 206 
0.346848 -0.48922 0.202821 206 
0.345956 -0.489135 0.203651 207 
0.345973 -0.489138 0.204473 209 
0.347275 -0.489267 0.205291 205 
0.347293 -0.489271 0.206115 207 
0.34742 -0.489285 0.20694 211 
0.347386 -0.489284 0.207765 208 
0.34746 -0.489293 0.20859 212 
0.347374 -0.489287 0.209414 211 
0.346592 -0.489212 0.210232 206 
0.34544 -0.489101 0.211044 204 
0.345356 -0.489095 0.211864 203 
0.344477 -0.489011 0.212673 200 
0.344395 -0.489005 0.213491 200 
0.344208 -0.488988 0.214307 198 
0.344127 -0.488982 0.215125 201 
0.343941 -0.488966 0.21594 201 
0.343809 -0.488955 0.216755 206 
0.343519 -0.488928 0.217567 204 
0.343494 -0.488927 0.218384 208 
0.343575 -0.488937 0.219205 210 
0.343709 -0.488952 0.220027 215 
0.343897 -0.488972 0.220852 216 
0.34398 -0.488982 0.221674 216 
0.341642 -0.488756 0.222408 219 
0.341152 -0.488709 0.223205 215 
0.340401 -0.488638 0.223989 215 
0.340069 -0.488607 0.224788 212 
0.340153 -0.488617 0.225604 215 
0.340134 -0.488617 0.226416 214 
0.339234 -0.488531 0.227186 208 
0.337362 -0.488349 0.227906 207 
0.337396 -0.488355 0.228715 207 
0.337072 -0.488325 0.229506 206 
0.337003 -0.48832 0.23031 207 
0.337297 -0.48835 0.231134 203 
0.337282 -0.488351 0.231942 201 
0.337472 -0.488371 0.232762 202 
0.337151 -0.488342 0.233551 201 
0.337241 -0.488352 0.234365 202 
0.337485 -0.488378 0.23519 203 
0.337525 -0.488384 0.236002 205 
0.337462 -0.488379 0.236808 209 
0.3374 -0.488375 0.237613 206 
0.337544 -0.488391 0.238434 204 
0.33738 -0.488377 0.239232 205 
0.337474 -0.488388 0.240049 207 
0.337568 -0.488399 0.240867 206 
0.337766 -0.48842 0.241694 210 
0.337914 -0.488436 0.242518 210 
0.339613 -0.488605 0.243474 207 
0.3394 -0.488586 0.244271 202 
0.339084 -0.488557 0.245059 202 
0.339338 -0.488583 0.245896 202 
0.339178 -0.48857 0.246697 200 
0.339226 -0.488576 0.247517 204 
0.339379 -0.488593 0.248348 205 
0.339584 -0.488615 0.249184 207 
0.339426 -0.488601 0.249986 206 
0.339789 -0.488639 0.25084 208 
0.33984 -0.488646 0.251663 208 
0.339736 -0.488637 0.25247 208 
0.339477 -0.488614 0.253261 207 
0.339582 -0.488626 0.254091 207 
0.339739 -0.488643 0.254927 205 
0.340002 -0.488671 0.255776 207 
0.339901 -0.488663 0.256584 206 
0.339904 -0.488665 0.257405 202 
0.340116 -0.488688 0.25825 201 
0.340643 -0.488741 0.259135 202 
0.340492 -0.488728 0.259939 202 
0.340497 -0.488731 0.260762 208 
0.340713 -0.488754 0.261612 204 
0.34072 -0.488756 0.262436 201 
0.340675 -0.488754 0.263254 204 
0.34105 -0.488792 0.264128 203 
0.340953 -0.488785 0.26494 203 
0.342172 -0.488906 0.26593 202 
0.342708 -0.488961 0.266832 203 
0.341614 -0.488855 0.267509 204 
0.341572 -0.488853 0.26833 201 
0.342163 -0.488913 0.269243 204 
0.341807 -0.48888 0.27002 203 
0.342981 -0.488997 0.271022 203 
0.34326 -0.489026 0.271895 204 
0.342428 -0.488946 0.272602 204 
0.343077 -0.489012 0.273532 204 
0.342934 -0.489 0.274343 202 
0.343321 -0.489039 0.275237 204 
0.343391 -0.489048 0.276082 204 
0.343302 -0.489041 0.276902 203 
0.34332 -0.489045 0.27774 205 
0.343604 -0.489075 0.278622 204 
0.343889 -0.489105 0.279506 209 
0.343909 -0.489108 0.280346 205 
0.343983 -0.489118 0.281196 207 
0.34411 -0.489132 0.282057 211 
0.344185 -0.489141 0.282909 214 
0.344367 -0.489161 0.28378 208 
0.34471 -0.489197 0.284681 208 
0.345377 -0.489264 0.285642 207 
0.345562 -0.489284 0.286519 203 
0.34505 -0.489236 0.287269 201 
0.346097 -0.489341 0.288306 201 
0.346554 -0.489387 0.289237 204 
0.34545 -0.489281 0.289876 202 
0.346177 -0.489354 0.29086 198 
0.346798 -0.489417 0.291827 198 
0.346449 -0.489385 0.292608 198 
0.347019 -0.489443 0.293569 201 
0.347374 -0.489479 0.29449 204 
0.34735 -0.489479 0.295337 201 
0.347381 -0.489484 0.296196 200 
0.347902 -0.489537 0.297154 201 
0.348043 -0.489553 0.298038 204 
0.348022 -0.489553 0.298888 202 
0.348382 -0.48959 0.299819 201 
0.349346 -0.489687 0.30088 198 
0.349162 -0.489671 0.3017 194 
0.350406 -0.489795 0.302827 196 
0.350442 -0.4898 0.303697 196 
0.350534 -0.489811 0.30458 192 
0.35096 -0.489855 0.305538 195 
0.350777 -0.489839 0.306362 193 
0.351038 -0.489867 0.307285 193 
0.351021 -0.489867 0.308148 192 
0.351228 -0.489889 0.309062 187 
0.351491 -0.489917 0.30999 185 
0.352031 -0.489972 0.310985 188 
0.352186 -0.489989 0.311891 185 
0.352173 -0.48999 0.312759 191 
0.352886 -0.490062 0.313801 189 
0.352651 -0.490041 0.314618 187 
0.353032 -0.49008 0.315585 188 
0.353525 -0.490131 0.31658 187 
0.353684 -0.490148 0.317496 187 
0.354574 -0.490238 0.318595 186 
0.354621 -0.490245 0.319487 183 
0.354501 -0.490235 0.320337 183 
0.355058 -0.490292 0.32136 183 
0.354713 -0.49026 0.322154 181 
0.35465 -0.490256 0.323021 179 
0.354758 -0.490268 0.323932 178 
0.355205 -0.490314 0.324933 179 
0.355257 -0.490321 0.325833 179 
0.355705 -0.490367 0.326838 175 
0.356955 -0.490492 0.328061 178 
0.355871 -0.490388 0.328659 177 
0.355755 -0.490378 0.329517 178 
0.355753 -0.49038 0.330407 177 
0.355866 -0.490393 0.331328 172 
0.355638 -0.490373 0.332156 173 
0.355751 -0.490386 0.33308 176 
0.355638 -0.490377 0.333941 174 
0.355753 -0.49039 0.334866 173 
0.355754 -0.490392 0.33576 171 
0.35587 -0.490406 0.336688 174 
0.355816 -0.490402 0.337568 174 
0.355819 -0.490405 0.338465 172 
0.355936 -0.490418 0.339396 173 
0.355826 -0.49041 0.340262 169 
0.355774 -0.490406 0.341144 170 
0.355494 -0.490381 0.341959 169 
0.355386 -0.490372 0.342826 170 
0.355107 -0.490347 0.343641 169 
0.355283 -0.490366 0.344595 168 
0.35512 -0.490352 0.345445 164 
0.355298 -0.490372 0.346401 162 
0.35468 -0.490313 0.347111 164 
0.354461 -0.490294 0.347944 171 
0.354243 -0.490274 0.348777 173 
0.354763 -0.490327 0.349845 168 
0.354261 -0.49028 0.350588 175 
0.354158 -0.490272 0.351459 173 
0.354055 -0.490264 0.35233 174 
0.354065 -0.490267 0.353238 173 
0.354134 -0.490276 0.354166 176 
0.353748 -0.49024 0.354946 177 
0.352685 -0.490137 0.3555 175 
0.351964 -0.490068 0.356165 175 
0.351301 -0.490005 0.356848 177 
0.350641 -0.489942 0.357529 176 
0.349983 -0.489879 0.358209 173 
0.349605 -0.489844 0.358983 164 
0.348783 -0.489765 0.359604 167 
0.348463 -0.489735 0.360395 164 
0.348144 -0.489706 0.361187 165 
0.347493 -0.489644 0.361862 169 
0.346845 -0.489582 0.362535 164 
0.34708 -0.489607 0.36352 155 
0.346488 -0.489551 0.364212 154 
0.345514 -0.489457 0.364766 149 
0.345474 -0.489455 0.365652 141 
0.345435 -0.489453 0.36654 137 
0.345726 -0.489484 0.367548 138 
0.345963 -0.489509 0.368538 145 
0.345429 -0.489459 0.369247 147 
0.345557 -0.489473 0.370199 142 
0.34519 -0.489439 0.370968 138 
0.345318 -0.489454 0.371922 135 
0.345556 -0.48948 0.372918 135 
0.345686 -0.489494 0.373875 142 
0.345981 -0.489526 0.374897 146 
0.345835 -0.489513 0.375752 142 
0.345635 -0.489495 0.376586 147 
0.345435 -0.489478 0.377421 143 
0.345622 -0.489498 0.378405 141 
0.345643 -0.489503 0.379327 131 
0.34572 -0.489512 0.380271 136 
0.346074 -0.489549 0.381326 131 
0.346042 -0.489548 0.38223 131 
0.346342 -0.48958 0.383267 129 
0.34681 -0.489628 0.384374 129 
0.347224 -0.489671 0.385461 124 
0.347751 -0.489725 0.386597 116 
0.346884 -0.489642 0.387169 110 
0.34691 -0.489646 0.388103 115 
0.346991 -0.489656 0.389062 109 
0.347464 -0.489705 0.390182 108 
0.347715 -0.489732 0.391214 111 
0.347518 -0.489715 0.392061 114 
0.347826 -0.489747 0.393119 115 
0.347798 -0.489747 0.394039 112 
0.348164 -0.489785 0.395125 109 
0.348081 -0.489779 0.396023 113 
0.348785 -0.48985 0.397259 110 
0.348478 -0.489822 0.398063 120 
0.348734 -0.48985 0.399111 116 
0.349385 -0.489916 0.400332 112 
0.349079 -0.489888 0.401139 105 
0.349167 -0.489899 0.402118 107 
0.349256 -0.48991 0.4031 106 
0.349006 -0.489887 0.403932 111 
0.348588 -0.489848 0.40469 109 
0.349981 -0.489988 0.406255 108 
0.349618 -0.489954 0.40704 109 
0.348972 -0.489892 0.407698 106 
0.349461 -0.489943 0.408866 109 
0.349496 -0.489948 0.409832 108 
0.329583 -0.490477 0.00187712 4 
0.327888 -0.490301 0.00359712 3 
0.332104 -0.490745 0.00250612 4 
0.33159 -0.490693 0.00366511 4 
0.328692 -0.490392 0.00594112 4 
0.3301 -0.490541 0.00619012 5 
0.330318 -0.490566 0.00699812 6 
0.327033 -0.490224 0.00943012 5 
0.329823 -0.490518 0.00904412 5 
0.328545 -0.490387 0.0105371 10 
0.327583 -0.490288 0.0118791 5 
0.326423 -0.490169 0.0133071 7 
0.326946 -0.490225 0.0139661 5 
0.329061 -0.490449 0.0139091 8 
0.330469 -0.490598 0.0141771 8 
0.328626 -0.490407 0.0159021 9 
0.330858 -0.490643 0.0158071 6 
0.327938 -0.490339 0.0180011 9 
0.328158 -0.490364 0.0187981 10 
0.329611 -0.490519 0.0190551 11 
0.32819 -0.490372 0.0205711 12 
0.330106 -0.490575 0.0206311 10 
0.328171 -0.490374 0.0223621 12 
0.328495 -0.49041 0.0231131 12 
0.329949 -0.490564 0.0233811 15 
0.329709 -0.490541 0.0243761 12 
0.331429 -0.490723 0.0245371 12 
0.329282 -0.4905 0.0263371 15 
0.33007 -0.490585 0.0268951 11 
0.32978 -0.490557 0.0279051 12 
0.329183 -0.490496 0.0290411 15 
0.329561 -0.490538 0.0297711 14 
0.330866 -0.490676 0.0301201 16 
0.330267 -0.490616 0.0312521 17 
0.329927 -0.490582 0.0322761 19 
0.330512 -0.490645 0.0329231 13 
0.329814 -0.490574 0.0340901 12 
0.330091 -0.490605 0.0348611 20 
0.330625 -0.490663 0.0355291 18 
0.331007 -0.490705 0.0362601 18 
0.331544 -0.490764 0.0369301 18 
0.332807 -0.490898 0.0373161 22 
0.332622 -0.49088 0.0382731 20 
0.332903 -0.490912 0.0390471 21 
0.333289 -0.490954 0.0397811 25 
0.332482 -0.490872 0.0409751 29 
0.333023 -0.490931 0.0416481 27 
0.332994 -0.49093 0.0425401 25 
0.333693 -0.491005 0.0431551 25 
0.333042 -0.490939 0.0442811 24 
0.333273 -0.490965 0.0450731 24 
0.333921 -0.491035 0.0457101 27 
0.333998 -0.491045 0.0465601 33 
0.334648 -0.491115 0.0471991 27 
0.334934 -0.491147 0.0479731 30 
0.335849 -0.491245 0.0485181 29 
0.335247 -0.491184 0.0496161 30 
0.335221 -0.491183 0.0505031 30 
0.335039 -0.491166 0.0514461 37 
0.336217 -0.491291 0.0519021 35 
0.335459 -0.491214 0.0530481 35 
0.33648 -0.491323 0.0535631 35 
0.336299 -0.491306 0.0545031 38 
0.336485 -0.491328 0.0553141 40 
0.336409 -0.491322 0.0562161 38 
0.336332 -0.491316 0.0571161 38 
0.336782 -0.491365 0.0578361 39 
0.336602 -0.491348 0.0587711 36 
0.337682 -0.491463 0.0592771 39 
0.337134 -0.491408 0.0603361 41 
0.338376 -0.49154 0.0607921 38 
0.338565 -0.491562 0.0616031 40 
0.339178 -0.491628 0.0622741 42 
0.338681 -0.491578 0.0633121 39 
0.339348 -0.49165 0.0639661 41 
0.338693 -0.491583 0.0650521 40 
0.339413 -0.491661 0.0656901 40 
0.339658 -0.491688 0.0664841 42 
0.340169 -0.491744 0.0671921 42 
0.340097 -0.491738 0.0680871 42 
0.339813 -0.491711 0.0690471 45 
0.340484 -0.491783 0.0697071 44 
0.340095 -0.491744 0.0706991 46 
0.338388 -0.491567 0.0720951 52 
0.341337 -0.491878 0.0720551 55 
0.342014 -0.491952 0.0727191 52 
0.340612 -0.491806 0.0740141 46 
0.340543 -0.491801 0.0749021 42 
0.340793 -0.491829 0.0756941 46 
0.340246 -0.491774 0.0767231 53 
0.340763 -0.49183 0.0774351 52 
0.340855 -0.491842 0.0782731 49 
0.340947 -0.491853 0.0791111 48 
0.340245 -0.491781 0.0801781 47 
0.339915 -0.491749 0.0811351 49 
0.340061 -0.491766 0.0819541 51 
0.339997 -0.491761 0.0828321 56 
0.339985 -0.491762 0.0836951 59 
0.339395 -0.491702 0.0847191 62 
0.339542 -0.491719 0.0855361 60 
0.33948 -0.491715 0.0864101 69 
0.339364 -0.491705 0.0872971 63 
0.338989 -0.491667 0.0882551 64 
0.339348 -0.491707 0.0890121 68 
0.338449 -0.491614 0.0901071 64 
0.338179 -0.491588 0.0910301 61 
0.33786 -0.491556 0.0919651 63 
0.337854 -0.491557 0.0928161 60 
0.336652 -0.491433 0.0939761 56 
0.336233 -0.491391 0.0949301 57 
0.335918 -0.49136 0.0958551 66 
0.335141 -0.49128 0.0968961 73 
0.334725 -0.491238 0.0978411 82 
0.334826 -0.491251 0.0986561 86 
0.334517 -0.49122 0.0995731 90 
0.334566 -0.491227 0.100399 93 
0.334822 -0.491256 0.101174 90 
0.334564 -0.491231 0.102074 88 
0.334872 -0.491265 0.102837 89 
0.334975 -0.491278 0.103649 93 
0.334615 -0.491242 0.10457 95 
0.335182 -0.491303 0.105273 93 
0.335492 -0.491338 0.106037 105 
0.335237 -0.491313 0.106931 103 
0.335291 -0.49132 0.107754 102 
0.335037 -0.491296 0.108646 99 
0.335194 -0.491314 0.109444 104 
0.335301 -0.491327 0.110253 110 
0.335254 -0.491324 0.111096 111 
0.335208 -0.491321 0.111939 109 
0.335212 -0.491324 0.112769 107 
0.336093 -0.491418 0.113411 109 
0.335687 -0.491377 0.11433 115 
0.3359 -0.491401 0.115116 114 
0.335702 -0.491382 0.115989 119 
0.335196 -0.491331 0.116924 120 
0.335461 -0.491361 0.117698 121 
0.33588 -0.491407 0.118441 118 
0.335787 -0.491399 0.119289 116 
0.335387 -0.491359 0.120198 114 
0.335756 -0.491399 0.120952 112 
0.335818 -0.491408 0.121767 114 
0.336085 -0.491438 0.122542 116 
0.335533 -0.491382 0.123475 115 
0.335751 -0.491406 0.124259 121 
0.336174 -0.491453 0.125005 119 
0.335982 -0.491435 0.125867 118 
0.336406 -0.491481 0.126614 120 
0.336472 -0.49149 0.127427 127 
0.33659 -0.491504 0.128231 126 
0.336296 -0.491475 0.129109 131 
0.336159 -0.491463 0.129957 133 
0.336432 -0.491493 0.130733 142 
0.33686 -0.49154 0.131482 136 
0.336981 -0.491555 0.132285 138 
0.336844 -0.491542 0.133132 141 
0.33676 -0.491535 0.133969 144 
0.33683 -0.491544 0.13478 144 
0.336644 -0.491527 0.135633 144 
0.336254 -0.491487 0.136517 145 
0.336581 -0.491524 0.137285 148 
0.336654 -0.491533 0.138094 143 
0.33683 -0.491554 0.138887 139 
0.336852 -0.491558 0.139704 140 
0.336927 -0.491568 0.140513 145 
0.337258 -0.491604 0.141282 145 
0.337334 -0.491614 0.142091 148 
0.337152 -0.491597 0.142938 152 
0.337279 -0.491612 0.143738 152 
0.337511 -0.491638 0.144524 148 
0.337898 -0.491681 0.145289 151 
0.338286 -0.491724 0.146054 152 
0.338158 -0.491712 0.146892 155 
0.338444 -0.491744 0.147672 156 
0.338574 -0.49176 0.148474 158 
0.338552 -0.491759 0.149297 159 
0.338737 -0.491781 0.150092 161 
0.339129 -0.491824 0.150861 158 
0.339056 -0.491818 0.151689 159 
0.338776 -0.49179 0.152543 161 
0.339533 -0.491872 0.153269 165 
0.339721 -0.491894 0.154066 163 
0.340014 -0.491926 0.154851 162 
0.340099 -0.491937 0.15566 165 
0.340029 -0.491932 0.156488 167 
0.340062 -0.491937 0.157303 170 
0.340254 -0.491959 0.158101 170 
0.340498 -0.491987 0.158894 173 
0.340691 -0.492009 0.159692 174 
0.341093 -0.492053 0.160469 173 
0.341078 -0.492054 0.161291 174 
0.340855 -0.492032 0.162133 173 
0.341207 -0.492071 0.162917 167 
0.341716 -0.492127 0.163686 170 
0.341651 -0.492122 0.164512 171 
0.341849 -0.492144 0.165313 173 
0.34168 -0.492128 0.166149 178 
0.341356 -0.492096 0.166998 177 
0.341869 -0.492152 0.167771 178 
0.341963 -0.492164 0.168582 177 
0.342374 -0.492209 0.169366 180 
0.342576 -0.492232 0.170169 184 
0.342725 -0.49225 0.170977 188 
0.342981 -0.492279 0.171777 187 
0.343185 -0.492302 0.172581 187 
0.342968 -0.492281 0.173418 186 
0.342857 -0.492271 0.174246 185 
0.342747 -0.492261 0.175073 184 
0.34311 -0.492302 0.175867 188 
0.343317 -0.492325 0.176673 188 
0.343578 -0.492355 0.177475 189 
0.343628 -0.492362 0.178292 189 
0.344683 -0.492475 0.179046 186 
0.344841 -0.492494 0.179859 185 
0.345265 -0.49254 0.180656 189 
0.345477 -0.492564 0.181467 188 
0.345531 -0.492572 0.182287 193 
0.345105 -0.492529 0.183132 194 
0.345799 -0.492604 0.183919 191 
0.346068 -0.492634 0.184729 192 
0.34607 -0.492636 0.185552 192 
0.345807 -0.492611 0.186388 194 
0.346025 -0.492635 0.187201 198 
0.345922 -0.492626 0.188028 194 
0.345662 -0.492601 0.188862 193 
0.345774 -0.492614 0.18968 194 
0.345834 -0.492623 0.1905 190 
0.345787 -0.49262 0.191324 190 
0.345582 -0.4926 0.192153 192 
0.34575 -0.492619 0.19297 191 
0.345706 -0.492617 0.193793 193 
0.345875 -0.492636 0.19461 194 
0.346259 -0.492679 0.195423 196 
0.347286 -0.492789 0.196222 195 
0.347405 -0.492804 0.197044 198 
0.346027 -0.49266 0.197896 200 
0.34684 -0.492748 0.198703 197 
0.347121 -0.492779 0.199523 198 
0.347618 -0.492834 0.20034 204 
0.347525 -0.492826 0.201166 205 
0.347487 -0.492823 0.201991 206 
0.34686 -0.492759 0.202821 204 
0.347573 -0.492836 0.20364 210 
0.347322 -0.492812 0.204466 208 
0.347662 -0.492849 0.20529 208 
0.347896 -0.492876 0.206115 212 
0.347217 -0.492806 0.20694 209 
0.345794 -0.492658 0.20776 205 
0.345496 -0.492628 0.20858 210 
0.345145 -0.492593 0.209399 209 
0.344901 -0.492569 0.210218 208 
0.34471 -0.492551 0.211036 207 
0.344733 -0.492555 0.211856 207 
0.344227 -0.492503 0.212669 206 
0.344251 -0.492508 0.213488 200 
0.343853 -0.492467 0.2143 209 
0.343772 -0.492461 0.215117 203 
0.342955 -0.492376 0.215917 196 
0.342666 -0.492347 0.216727 198 
0.343377 -0.492424 0.217561 201 
0.342931 -0.492379 0.218367 204 
0.342486 -0.492334 0.219171 206 
0.341938 -0.492278 0.219971 210 
0.342439 -0.492332 0.220802 212 
0.341578 -0.492243 0.221589 215 
0.341347 -0.492221 0.222395 214 
0.340649 -0.492149 0.223183 217 
0.339745 -0.492055 0.22396 215 
0.33864 -0.49194 0.224725 216 
0.338414 -0.491918 0.225525 213 
0.337984 -0.491874 0.226315 212 
0.337555 -0.491831 0.227103 211 
0.336923 -0.491765 0.22788 209 
0.336905 -0.491765 0.228686 209 
0.337145 -0.491793 0.229506 210 
0.337129 -0.491793 0.230313 215 
0.337421 -0.491826 0.231137 214 
0.336996 -0.491782 0.231921 207 
0.336982 -0.491783 0.232728 205 
0.337327 -0.491821 0.233557 204 
0.337211 -0.491811 0.234359 203 
0.337095 -0.4918 0.23516 204 
0.337187 -0.491812 0.235975 203 
0.337432 -0.49184 0.236801 204 
0.337472 -0.491846 0.237613 205 
0.337309 -0.49183 0.238411 206 
0.337402 -0.491842 0.239228 208 
0.33729 -0.491832 0.240029 209 
0.33723 -0.491827 0.240835 211 
0.33712 -0.491818 0.241636 210 
0.337369 -0.491846 0.242467 208 
0.337414 -0.491852 0.243282 205 
0.338437 -0.491963 0.244182 200 
0.338948 -0.492019 0.24504 199 
0.338943 -0.49202 0.245854 202 
0.338216 -0.491945 0.246602 206 
0.339039 -0.492034 0.247493 211 
0.339036 -0.492035 0.248308 208 
0.339707 -0.492108 0.24919 205 
0.339394 -0.492077 0.249975 205 
0.3396 -0.492101 0.250813 209 
0.339755 -0.492119 0.251647 209 
0.339599 -0.492104 0.252448 207 
0.339444 -0.49209 0.25325 204 
0.339601 -0.492108 0.254085 204 
0.339395 -0.492088 0.254881 205 
