0.450079,0.0208417,-0.0010755,201
0.450098,0.0208384,-0.000253335,198
0.450011,0.020843,0.000568614,199
0.449338,0.020891,0.00138757,199
0.449039,0.0209113,0.00220645,197
0.448901,0.0209196,0.00302558,200
0.44903,0.0209082,0.00384693,199
0.449425,0.0208771,0.00467199,200
0.448651,0.0209326,0.00548234,198
0.448409,0.0209487,0.00629824,199
0.44854,0.0209371,0.00711982,201
0.448884,0.0209098,0.00794609,205
0.448591,0.0209296,0.00876013,207
0.448617,0.0209258,0.00958053,207
0.44923,0.0208786,0.0104157,208
0.448248,0.0209495,0.0112105,208
0.448594,0.0209219,0.0120398,210
0.448358,0.0209376,0.0128527,212
0.448122,0.0209532,0.0136647,217
0.4472,0.0210197,0.0144525,215
0.445915,0.0211131,0.0152239,213
0.445527,0.0211401,0.0160246,211
0.445139,0.0211669,0.016824,213
0.444701,0.0211975,0.01762,211
0.444421,0.0212165,0.0184213,211
0.444246,0.0212277,0.0192265,206
0.444071,0.0212388,0.0200311,208
0.444001,0.0212421,0.0208404,206
0.44388,0.0212492,0.021647,203
0.444071,0.0212332,0.0224697,203
0.44416,0.0212248,0.0232877,209
0.444353,0.0212087,0.0241121,202
0.444234,0.0212157,0.0249191,202
0.443907,0.021238,0.0257132,199
0.443581,0.0212603,0.0265065,199
0.443932,0.0212325,0.0273419,196
0.444024,0.0212238,0.0281617,200
0.444273,0.0212035,0.0289927,199
0.444105,0.0212141,0.0297959,197
0.444407,0.0211899,0.0306321,201
0.444449,0.0211849,0.0314506,203
0.444336,0.0211915,0.0322577,203
0.444275,0.0211942,0.0330687,204
0.444371,0.0211852,0.033892,200
0.44452,0.0211723,0.0347202,200
0.444669,0.0211593,0.0355492,203
0.44482,0.0211463,0.036379,198
0.444709,0.0211527,0.0371871,197
0.444652,0.0211551,0.0379996,200
0.444909,0.0211342,0.0388405,201
0.444957,0.0211287,0.0396634,201
0.44553,0.0210843,0.040536,201
0.445422,0.0210905,0.0413458,203
0.444948,0.0211238,0.0421197,206
0.445209,0.0211026,0.0429651,200
0.446153,0.0210306,0.0438811,206
0.446153,0.0210288,0.0447033,207
0.446681,0.0209877,0.0455813,206
0.446629,0.0209897,0.0463995,202
0.446841,0.0209721,0.0472467,202
0.446896,0.0209661,0.0480774,202
0.446846,0.020968,0.0488968,203
0.446849,0.0209659,0.0497224,200
0.447118,0.0209441,0.0505792,200
0.446911,0.0209576,0.051381,199
0.447127,0.0209396,0.0522333,199
0.447345,0.0209216,0.0530868,203
0.447404,0.0209153,0.0539219,203
0.447252,0.0209247,0.0547309,202
0.44726,0.0209223,0.05556,202
0.447427,0.020908,0.0564101,205
0.447435,0.0209055,0.0572404,199
0.447445,0.0209029,0.0580712,202
0.448039,0.0208568,0.0589813,203
0.449385,0.0207549,0.059997,201
0.448168,0.0208435,0.0606621,203
0.448393,0.0208249,0.0615261,206
0.448565,0.0208102,0.0623837,206
0.448258,0.0208311,0.0631731,206
0.448112,0.0208401,0.0639851,205
0.448286,0.0208253,0.0648446,203
0.448567,0.0208025,0.0657212,202
0.44869,0.0207915,0.066575,207
0.449187,0.0207526,0.0674875,206
0.449579,0.0207215,0.0683858,205
0.450512,0.0206503,0.0693712,202
0.449776,0.0207031,0.0700942,202
0.45001,0.0206838,0.0709715,206
0.450029,0.0206805,0.071815,205
0.450534,0.020641,0.0727393,205
0.450285,0.0206576,0.0735398,205
0.451333,0.0205777,0.0745591,213
0.451571,0.020558,0.0754445,209
0.451648,0.0205504,0.0763032,208
0.451617,0.0205508,0.0771438,209
0.451641,0.0205471,0.0779944,207
0.451883,0.0205272,0.0788844,205
0.451853,0.0205275,0.0797269,204
0.452205,0.0204994,0.0806393,206
0.452231,0.0204955,0.0814935,207
0.452367,0.0204835,0.0823686,205
0.453707,0.0203817,0.0834713,207
0.454395,0.0203286,0.0844557,204
0.454314,0.0203327,0.0852956,201
0.454565,0.0203121,0.0861998,201
0.454705,0.0202997,0.087084,202
0.454736,0.0202954,0.0879476,199
0.455099,0.0202664,0.088878,195
0.455464,0.0202374,0.0898106,197
0.455386,0.0202412,0.0906552,193
0.455309,0.020245,0.0915001,188
0.456175,0.0201785,0.0925409,186
0.457829,0.0200534,0.0937501,191
0.456803,0.0201278,0.0944005,193
0.457398,0.0200815,0.0953928,188
0.458107,0.0200267,0.0964126,185
0.458483,0.0199968,0.0973631,186
0.458634,0.0199835,0.0982666,184
0.45873,0.0199744,0.099159,185
0.458826,0.0199652,0.100052,181
0.459036,0.0199476,0.100972,185
0.459699,0.0198962,0.101996,184
0.459345,0.0199206,0.102791,175
0.459332,0.0199196,0.103663,176
0.459318,0.0199187,0.104536,178
0.459532,0.0199007,0.105462,177
0.459633,0.0198912,0.106364,177
0.459961,0.0198647,0.10732,176
0.459894,0.0198678,0.108184,174
0.460622,0.0198115,0.10924,176
0.460442,0.0198229,0.110078,176
0.460888,0.0197876,0.11107,174
0.460766,0.0197948,0.111923,175
0.461614,0.0197295,0.113019,172
0.46195,0.0197024,0.11399,172
0.461543,0.0197308,0.114774,167
0.461823,0.0197079,0.115733,170
0.462162,0.0196806,0.116709,167
0.46124,0.0197473,0.11736,168
0.461751,0.0197072,0.118382,166
0.461403,0.0197311,0.119181,170
0.462203,0.0196694,0.120284,172
0.462373,0.0196547,0.121221,173
0.462659,0.0196314,0.122192,172
0.462772,0.0196209,0.123118,174
0.461793,0.0196919,0.123746,172
0.461735,0.0196943,0.124624,171
0.46254,0.0196321,0.125742,171
0.462714,0.0196171,0.126688,172
0.462427,0.0196365,0.127505,170
0.461795,0.0196816,0.128225,174
0.461912,0.0196709,0.129156,174
0.462088,0.0196557,0.130105,177
0.462957,0.0195888,0.131256,177
0.462845,0.0195951,0.132125,177
0.462791,0.0195971,0.133012,179
0.461988,0.019655,0.133679,177
0.46286,0.0195879,0.13484,180
0.462288,0.0196286,0.135573,179
0.462121,0.019639,0.136427,180
0.462012,0.0196451,0.137299,180
0.462077,0.0196382,0.138224,174
0.462027,0.0196398,0.139115,176
0.461516,0.019676,0.139864,170
0.461237,0.0196948,0.140684,170
0.461419,0.0196792,0.141647,172
0.46189,0.0196419,0.142703,175
0.462016,0.0196304,0.143652,170
0.462431,0.0195973,0.144695,172
0.462733,0.0195727,0.145703,174
0.462629,0.0195784,0.146583,179
0.462119,0.0196144,0.147332,176
0.461612,0.0196503,0.148079,179
0.461336,0.0196689,0.148902,179
0.46014,0.0197563,0.14942,182
0.458893,0.0198475,0.149917,182
0.458849,0.0198487,0.150813,181
0.458292,0.0198883,0.151536,182
0.458021,0.0199065,0.152355,180
0.456786,0.0199968,0.152845,177
0.45663,0.0200064,0.153701,175
0.456986,0.0199778,0.154733,174
0.455981,0.0200508,0.155296,171
0.455376,0.0200941,0.155994,165
0.455279,0.0200993,0.15687,167
0.454676,0.0201424,0.157567,163
0.454524,0.0201517,0.158423,158
0.453811,0.020203,0.159078,153
0.452988,0.0202625,0.159693,157
0.452894,0.0202675,0.160567,152
0.452576,0.0202892,0.161361,153
0.452259,0.0203109,0.162155,154
0.452277,0.0203075,0.163071,153
0.45224,0.0203082,0.163967,145
0.452426,0.0202922,0.164948,139
0.452167,0.0203096,0.165763,136
0.45241,0.0202893,0.166767,136
0.452486,0.0202815,0.167709,133
0.452283,0.0202947,0.168547,133
0.451635,0.0203412,0.169215,134
0.452326,0.0202873,0.170395,135
0.452851,0.0202459,0.171514,131
0.452706,0.0202547,0.172377,125
0.452504,0.0202677,0.173218,121
0.452808,0.0202429,0.174257,126
0.452832,0.020239,0.175187,126
0.452968,0.0202267,0.176163,130
0.453499,0.0201848,0.177298,127
0.453581,0.0201766,0.178256,124
0.454001,0.020143,0.179351,116
0.453971,0.0201432,0.180267,117
0.454337,0.0201136,0.181345,119
0.454534,0.0200967,0.182356,116
0.454335,0.0201096,0.183206,111
0.454647,0.0200841,0.184267,113
0.454732,0.0200756,0.185236,111
0.454648,0.0200798,0.186136,111
0.454563,0.020084,0.187037,112
0.455219,0.0200327,0.188249,108
0.455706,0.0199941,0.189393,106
0.455851,0.019981,0.190395,115
0.455597,0.019998,0.191229,110
0.455629,0.0199935,0.192185,112
0.455833,0.019976,0.193216,115
0.456382,0.0199327,0.194398,118
0.455899,0.0199668,0.195135,115
0.456047,0.0199535,0.196146,110
0.456139,0.0199445,0.197134,103
0.456288,0.0199312,0.198149,106
0.456151,0.0199393,0.199039,108
0.456589,0.0199043,0.200185,106
0.456913,0.0198778,0.201283,105
0.456604,0.0198989,0.202098,105
0.456756,0.0198853,0.203122,110
0.456678,0.019889,0.204043,107
0.439965,0.0186165,-0.208312,4
0.666611,0.000287846,-0.315465,3
0.44782,0.017977,-0.210179,4
0.428994,0.0194974,-0.200368,3
0.445188,0.0181856,-0.207063,3
0.484433,0.0150093,-0.224471,4
0.443677,0.0183037,-0.204494,3
0.438958,0.0186832,-0.201382,4
0.44014,0.0185856,-0.201009,3
0.437234,0.0188186,-0.198757,8
0.439894,0.0186013,-0.199059,10
0.435266,0.0189737,-0.19604,7
0.433411,0.0191218,-0.194295,9
0.437914,0.0187553,-0.19542,7
0.434733,0.0190107,-0.193085,6
0.432833,0.0191624,-0.191336,4
0.432796,0.0191633,-0.190422,8
0.433998,0.0190641,-0.190056,5
0.432827,0.0191568,-0.188642,7
0.435584,0.0189316,-0.188954,8
0.435028,0.0189746,-0.187812,9
0.433337,0.0191094,-0.186181,9
0.434282,0.0190309,-0.185695,12
0.43404,0.0190485,-0.184697,8
0.43634,0.0188602,-0.184786,11
0.436096,0.018878,-0.183785,11
0.433833,0.0190591,-0.181932,11
0.436442,0.0188458,-0.18214,12
0.437138,0.0187874,-0.181537,12
0.436009,0.0188769,-0.180171,10
0.435249,0.0189364,-0.178963,8
0.436462,0.0188362,-0.178574,8
0.434717,0.0189754,-0.176966,11
0.435099,0.0189426,-0.176235,11
0.435843,0.0188802,-0.17565,17
0.435759,0.018885,-0.174729,12
0.437392,0.0187507,-0.174499,18
0.437307,0.0187556,-0.173576,17
0.436443,0.0188236,-0.172343,18
0.437818,0.0187101,-0.172002,14
0.436381,0.0188246,-0.170548,14
0.437861,0.0187027,-0.170244,20
0.437725,0.0187116,-0.169305,16
0.438008,0.0186867,-0.168529,18
0.438816,0.0186192,-0.167956,18
0.437949,0.0186875,-0.166737,24
0.438599,0.0186328,-0.166102,21
0.438465,0.0186417,-0.165167,23
0.439327,0.0185698,-0.16461,24
0.439876,0.0185233,-0.163933,24
0.439374,0.0185619,-0.162861,27
0.440555,0.0184641,-0.162418,26
0.441319,0.0184002,-0.161817,23
0.44108,0.0184176,-0.160844,22
0.439631,0.0185332,-0.15943,22
0.441341,0.0183924,-0.159172,28
0.440734,0.0184397,-0.15807,28
0.442187,0.0183198,-0.157712,29
0.441948,0.0183372,-0.156744,34
0.442771,0.0182684,-0.156155,27
0.443383,0.0182168,-0.15549,35
0.442506,0.0182859,-0.154298,33
0.44264,0.018273,-0.153464,33
0.442509,0.0182817,-0.152539,32
0.442909,0.0182473,-0.151798,35
0.443256,0.0182171,-0.151039,38
0.442755,0.0182558,-0.149988,34
0.444221,0.0181348,-0.149609,34
0.444197,0.0181348,-0.148722,35
0.44428,0.018126,-0.147871,37
0.445113,0.0180564,-0.147271,32
0.445787,0.0179997,-0.146615,30
0.445657,0.0180083,-0.145693,33
0.446279,0.0179558,-0.145018,36
0.445988,0.0179774,-0.144044,39
0.446882,0.0179029,-0.143455,37
0.446645,0.0179201,-0.1425,44
0.447055,0.0178848,-0.141753,40
0.446926,0.0178932,-0.140834,48
0.4475,0.0178447,-0.140138,45
0.447426,0.0178487,-0.139238,40
0.448163,0.0177869,-0.138591,43
0.447927,0.017804,-0.13764,48
0.448125,0.017786,-0.136825,51
0.448052,0.0177899,-0.135927,49
0.44901,0.0177101,-0.135343,48
0.450189,0.0176123,-0.134823,48
0.44979,0.0176428,-0.133825,50
0.449446,0.0176687,-0.132846,51
0.450192,0.0176061,-0.132191,53
0.449794,0.0176364,-0.131198,53
0.450378,0.017587,-0.130494,57
0.45058,0.0175686,-0.129678,59
0.450511,0.0175723,-0.128783,54
0.449897,0.0176202,-0.127733,54
0.450864,0.0175396,-0.127136,47
0.451014,0.0175254,-0.126305,56
0.450346,0.0175777,-0.125244,57
0.45017,0.0175901,-0.124324,59
0.45043,0.0175669,-0.123526,60
0.45031,0.0175748,-0.122623,61
0.450407,0.0175649,-0.12178,61
0.45105,0.0175106,-0.121085,58
0.450876,0.0175228,-0.120169,53
0.449834,0.0176056,-0.119022,55
0.450041,0.0175868,-0.118212,55
0.450304,0.0175634,-0.117415,56
0.450459,0.0175489,-0.11659,58
0.450125,0.0175741,-0.115638,61
0.449198,0.0176476,-0.114535,61
0.449245,0.0176418,-0.113686,64
0.449131,0.0176491,-0.112796,65
0.448964,0.0176607,-0.111894,69
0.449067,0.0176504,-0.11106,69
0.448094,0.0177277,-0.10996,72
0.447126,0.0178045,-0.108866,77
0.446057,0.0178895,-0.107751,78
0.445683,0.0179181,-0.106809,80
0.445099,0.0179637,-0.105819,84
0.444833,0.0179834,-0.104907,83
0.44515,0.0179557,-0.104134,86
0.444253,0.0180268,-0.103077,87
0.444095,0.0180377,-0.102195,91
0.443361,0.0180956,-0.101181,90
0.442839,0.0181362,-0.10022,96
0.443522,0.0180786,-0.0995333,100
0.44384,0.0180509,-0.0987628,103
0.443319,0.0180914,-0.097805,100
0.443532,0.0180721,-0.0970117,102
0.443327,0.018087,-0.0961266,101
0.443698,0.0180548,-0.0953678,100
0.443494,0.0180695,-0.0944844,98
0.443552,0.0180629,-0.0936581,104
0.443925,0.0180306,-0.0928986,108
0.44346,0.0180666,-0.091963,112
0.443834,0.0180342,-0.0912034,104
0.44379,0.018036,-0.0903569,109
0.443798,0.0180334,-0.0895218,107
0.44365,0.0180436,-0.0886557,113
0.443659,0.0180409,-0.087822,117
0.443512,0.018051,-0.0869578,116
0.443679,0.0180355,-0.0861563,109
0.443638,0.018037,-0.0853141,108
0.443963,0.0180086,-0.0845429,115
0.443818,0.0180185,-0.0836815,116
0.443778,0.0180199,-0.0828409,110
0.443425,0.0180468,-0.0819426,111
0.443439,0.0180438,-0.0811137,115
0.443923,0.0180024,-0.080371,126
0.444043,0.0179908,-0.079561,128
0.444372,0.0179621,-0.0787885,132
0.443916,0.0179973,-0.0778764,139
0.44388,0.0179984,-0.0770399,139
0.444002,0.0179866,-0.0762311,140
0.444123,0.0179748,-0.0754224,142
0.444298,0.0179587,-0.0746226,140
0.444631,0.0179297,-0.0738489,139
0.444545,0.0179348,-0.0730051,141
0.443936,0.0179825,-0.0720767,142
0.444113,0.0179663,-0.0712778,142
0.444134,0.0179627,-0.0704537,144
0.445098,0.0178822,-0.0697787,143
0.445329,0.0178614,-0.0689863,146
0.445246,0.0178663,-0.068145,146
0.445322,0.0178583,-0.0673284,151
0.445187,0.0178674,-0.0664805,154
0.445579,0.0178336,-0.0657114,151
0.445445,0.0178426,-0.0648643,148
0.445523,0.0178344,-0.0640485,152
0.445338,0.0178476,-0.0631954,149
0.445732,0.0178136,-0.0624248,152
0.445706,0.0178138,-0.0615948,150
0.445786,0.0178054,-0.0607796,155
0.446076,0.0177798,-0.059993,159
0.44621,0.0177671,-0.0591847,161
0.446397,0.0177499,-0.0583833,159
0.446637,0.0177284,-0.0575884,158
0.445982,0.01778,-0.0566786,160
0.446698,0.0177197,-0.0559439,162
0.447099,0.0176851,-0.0551679,164
0.447395,0.0176591,-0.0543779,167
0.447163,0.0176762,-0.0535236,165
0.446721,0.0177104,-0.0526456,166
0.446754,0.0177058,-0.0518249,171
0.447528,0.0176407,-0.0510892,175
0.447457,0.0176447,-0.0502557,176
0.447439,0.0176443,-0.0494287,178
0.447846,0.0176092,-0.0486482,178
0.448094,0.017587,-0.0478495,178
0.448184,0.0175778,-0.0470335,178
0.448222,0.0175728,-0.046212,177
0.448154,0.0175765,-0.0453799,175
0.448193,0.0175714,-0.0445589,177
0.448073,0.0175794,-0.0437226,176
0.447955,0.0175872,-0.042887,178
0.448101,0.0175734,-0.042077,176
0.448195,0.0175638,-0.0412619,175
0.449194,0.0174803,-0.0405283,173
0.449237,0.0174749,-0.0397067,177
0.44944,0.0174565,-0.038899,178
0.449537,0.0174467,-0.0380818,176
0.449742,0.0174281,-0.0372734,174
0.449627,0.0174356,-0.0364385,179
0.451764,0.017259,-0.0357823,179
0.449986,0.0174025,-0.0348161,185
0.450889,0.0173267,-0.0340588,183
0.44992,0.0174042,-0.0331606,185
0.450021,0.017394,-0.0323429,185
0.450123,0.0173838,-0.0315251,188
0.45028,0.0173691,-0.0307107,187
0.450437,0.0173544,-0.029896,187
0.450809,0.0173221,-0.0290946,187
0.450753,0.0173248,-0.0282654,190
0.450752,0.017323,-0.0274398,187
0.450697,0.0173256,-0.0266112,189
0.45075,0.0173194,-0.0257891,191
0.451341,0.0172692,-0.0249965,194
0.450912,0.0173024,-0.0241477,192
0.451128,0.0172829,-0.0233336,192
0.450862,0.0173028,-0.0224951,196
0.450651,0.0173182,-0.0216603,197
0.450761,0.0173073,-0.0208411,196
0.450926,0.017292,-0.0200239,196
0.451414,0.0172502,-0.0192198,194
0.451742,0.0172215,-0.0184075,195
0.451909,0.0172059,-0.017588,192
0.451378,0.0172475,-0.0167427,191
0.451385,0.0172451,-0.0159179,190
0.451662,0.0172205,-0.0151019,191
0.451401,0.01724,-0.0142685,189
0.450552,0.0173076,-0.0134192,193
0.450402,0.0173181,-0.012592,194
0.450894,0.0172759,-0.0117815,193
0.451388,0.0172336,-0.0109693,196
0.451722,0.0172044,-0.0101519,199
0.45125,0.0172411,-0.00931749,197
0.450673,0.0172865,-0.00848307,199
0.450366,0.0173098,-0.00765509,198
0.451506,0.0172146,-0.00684852,198
0.451198,0.017238,-0.0060202,198
0.451106,0.0172436,-0.00519526,199
0.450694,0.0172756,-0.00436799,196
0.450175,0.0173161,-0.00354157,201
0.450246,0.0173085,-0.00271986,202
0.451389,0.017213,-0.00190093,206
0.451139,0.0172316,-0.00107639,202
0.449501,0.0173639,-0.000253985,204
0.449521,0.0173605,0.000566869,201
0.449541,0.0173569,0.00138781,203
0.449243,0.0173795,0.00220679,204
0.44969,0.017341,0.00303088,201
0.448967,0.0173984,0.00384477,196
0.448884,0.0174034,0.00466369,200
0.448377,0.0174431,0.00547646,195
0.448295,0.017448,0.00629407,198
0.448372,0.0174398,0.00711423,201
0.448027,0.0174662,0.00792651,200
0.448211,0.0174492,0.00874884,205
0.448344,0.0174365,0.00957071,207
0.448212,0.0174455,0.0103865,208
0.448345,0.0174327,0.0112091,211
0.448533,0.0174155,0.0120337,214
0.44835,0.0174286,0.0128478,216
0.448061,0.0174504,0.0136579,216
0.446825,0.01755,0.0144345,217
0.44612,0.017606,0.0152258,217
0.445417,0.0176617,0.0160146,213
0.444874,0.0177044,0.0168073,212
0.444802,0.0177085,0.0176178,214
0.444626,0.0177211,0.0184236,215
0.443983,0.0177721,0.0192076,214
0.444276,0.0177461,0.0200336,210
0.443998,0.0177671,0.0208328,209
0.443773,0.0177837,0.0216337,206
0.443497,0.0178045,0.0224313,202
0.44286,0.017855,0.0232082,203
0.443311,0.0178162,0.0240444,205
0.443244,0.0178198,0.0248523,201
0.443593,0.0177893,0.0256851,198
0.443061,0.0178312,0.0264645,196
0.442634,0.0178643,0.027249,198
0.443139,0.0178211,0.0280933,199
0.443334,0.0178032,0.0289188,202
0.443375,0.017798,0.0297344,202
0.443676,0.0177715,0.0305689,202
0.444029,0.0177406,0.0314086,200
0.444124,0.017731,0.0322303,199
0.443699,0.017764,0.0330126,205
0.443587,0.0177714,0.0338181,197
0.443839,0.0177489,0.0346528,201
0.444196,0.0177177,0.0354974,201
0.443929,0.0177377,0.0362908,197
0.443975,0.0177321,0.0371105,198
0.443866,0.0177392,0.0379168,202
0.444122,0.0177164,0.0387558,199
0.44417,0.0177106,0.0395769,204
0.444166,0.0177091,0.0403936,205
0.444476,0.0176818,0.0412406,204
0.444421,0.0176844,0.0420534,205
0.444837,0.0176484,0.042913,205
0.444679,0.0176595,0.0437163,204
0.444627,0.017662,0.04453,203
0.44494,0.0176343,0.0453824,202
0.444941,0.0176324,0.0462028,202
0.446254,0.0175226,0.0471663,201
0.44673,0.0174816,0.0480423,201
0.446839,0.0174709,0.048879,201
0.446683,0.0174817,0.0496861,200
0.446213,0.0175186,0.0504563,200
0.446217,0.0175163,0.0512812,199
0.446802,0.0174664,0.0521762,201
0.446861,0.0174597,0.0530094,203
0.446867,0.0174573,0.0538367,204
0.446662,0.0174723,0.0546378,204
0.446828,0.0174568,0.0554857,205
0.446889,0.0174499,0.056321,203
0.447268,0.0174168,0.0571986,200
0.447171,0.0174229,0.0580146,204
0.44734,0.0174072,0.0588665,204
0.447456,0.0173957,0.0597122,204
0.447414,0.0173973,0.0605366,204
0.447585,0.0173814,0.0613912,207
0.44781,0.017361,0.0622545,207
0.447982,0.017345,0.0631115,207
0.448155,0.0173288,0.0639695,206
0.448275,0.017317,0.0648209,207
0.448184,0.0173227,0.0656411,206
0.448146,0.0173239,0.0664695,205
0.448481,0.0172944,0.0673558,205
0.448551,0.0172868,0.0682022,205
0.448621,0.0172791,0.0690494,204
0.449549,0.0172009,0.0700342,206
0.451021,0.0170779,0.0711109,210
0.450447,0.0171232,0.071859,210
0.449982,0.0171595,0.0726235,210
0.450056,0.0171515,0.0734767,205
0.450616,0.0171035,0.0744128,207
0.451069,0.0170643,0.0753333,210
0.451146,0.0170561,0.0761908,210
0.451331,0.0170389,0.0770679,210
0.451517,0.0170217,0.0779464,210
0.45165,0.0170088,0.0788165,208
0.452163,0.0169646,0.0797564,205
0.45208,0.0169696,0.0805897,204
0.451998,0.0169744,0.0814232,204
0.452296,0.0169479,0.082328,202
0.452487,0.0169303,0.0832141,203
0.452515,0.016926,0.0840704,205
0.452871,0.0168948,0.0849903,200
0.453228,0.0168634,0.0859122,200
0.452384,0.016931,0.0866008,201
0.454056,0.0167913,0.0877842,201
0.454858,0.0167233,0.0888009,204
0.454946,0.0167142,0.0896769,202
0.455144,0.0166959,0.0905764,199
0.455233,0.0166866,0.0914547,199
0.455322,0.0166773,0.0923339,198
0.455357,0.0166725,0.0932026,199
0.455558,0.016654,0.0941071,195
0.456093,0.0166079,0.095084,194
0.456408,0.01658,0.0960162,195
0.456501,0.0165704,0.0969019,192
0.457152,0.0165147,0.0979108,187
0.457974,0.016445,0.0989605,189
0.458014,0.0164398,0.0998396,185
0.458166,0.0164252,0.100745,188
0.458488,0.0163967,0.101689,187
0.458417,0.0164006,0.102546,180
0.458403,0.0163997,0.103416,181
0.45839,0.0163989,0.104287,179
0.45849,0.0163887,0.105185,179
0.458646,0.0163738,0.106097,177
0.459085,0.0163356,0.107078,175
0.459413,0.0163066,0.108034,176
0.459516,0.0162961,0.108938,174
0.459563,0.0162903,0.109829,176
0.459893,0.016261,0.11079,176
0.460509,0.0162082,0.111824,177
0.46016,0.016235,0.11262,181
0.460379,0.0162149,0.113559,178
0.460316,0.0162181,0.114427,175
0.460935,0.016165,0.11547,175
0.461386,0.0161258,0.116473,174
0.460924,0.0161619,0.117241,176
0.461777,0.0160895,0.118352,169
0.461716,0.0160925,0.119226,171
0.462343,0.0160387,0.120284,168
0.461996,0.0160654,0.121083,172
0.462166,0.0160493,0.122022,175
0.462855,0.0159905,0.123102,175
0.461991,0.0160597,0.123761,176
0.46222,0.0160388,0.124719,177
0.461818,0.0160699,0.125503,176
0.461704,0.0160774,0.126367,176
0.462625,0.0159993,0.127522,171
0.462741,0.0159876,0.128453,173
0.462168,0.016033,0.129189,175
0.462113,0.0160355,0.130072,172
0.462461,0.0160046,0.131072,173
0.461717,0.0160641,0.131756,179
0.461778,0.016057,0.132674,179
0.461611,0.0160688,0.133526,178
0.461328,0.0160901,0.134343,176
0.461334,0.0160876,0.135246,175
0.461397,0.0160803,0.136168,179
0.461461,0.0160729,0.13709,177
0.461583,0.0160608,0.138031,177
0.461246,0.0160867,0.138832,178
0.460967,0.0161077,0.139651,178
0.461147,0.0160907,0.140612,177
0.461674,0.0160451,0.141683,175
0.461741,0.0160375,0.142612,177
0.461809,0.0160298,0.143542,173
0.461647,0.0160412,0.1444,173
0.461658,0.0160382,0.145314,170
0.460921,0.0160971,0.145987,173
0.460932,0.0160941,0.146901,173
0.460945,0.016091,0.147816,177
0.459523,0.0162065,0.14826,175
0.459364,0.0162176,0.149117,179
0.458977,0.0162475,0.149898,180
0.458363,0.0162962,0.150603,178
0.458036,0.0163212,0.151402,178
0.456914,0.0164119,0.151932,174
0.456985,0.016404,0.152864,170
0.455813,0.0164989,0.153372,170
0.455489,0.0165236,0.154168,170
0.454661,0.0165901,0.154788,174
0.45462,0.0165914,0.155681,169
0.454804,0.0165741,0.156653,166
0.453308,0.0166959,0.157034,162
0.453045,0.0167156,0.157847,160
0.452448,0.0167629,0.15854,156
0.452464,0.0167595,0.159453,156
0.452481,0.0167561,0.160366,151
0.451387,0.0168446,0.160877,154
0.451072,0.0168686,0.161668,156
0.451978,0.0167916,0.162907,154
0.45194,0.0167926,0.163803,145
0.451848,0.0167982,0.164679,145
0.451978,0.0167853,0.165638,134
0.452779,0.016717,0.16685,135
0.452241,0.0167595,0.167562,130
0.452205,0.0167603,0.168462,136
0.45078,0.0168763,0.168834,133
0.450524,0.0168954,0.169649,137
0.451489,0.0168134,0.170933,133
0.451789,0.0167865,0.171966,127
0.450977,0.0168517,0.172567,132
0.451221,0.0168294,0.173579,137
0.451634,0.0167931,0.174659,127
0.451658,0.0167891,0.175588,129
0.452801,0.0166923,0.176963,118
0.453612,0.016623,0.178211,117
0.453525,0.0166281,0.179102,121
0.454964,0.0165068,0.18061,122
0.453127,0.0166569,0.180795,109
0.45321,0.0166479,0.181757,112
0.453914,0.0165875,0.182974,109
0.454111,0.016569,0.183987,115
0.454309,0.0165505,0.185001,116
0.453885,0.0165835,0.185759,121
0.45448,0.0165321,0.186942,124
0.45434,0.0165416,0.187819,124
0.454994,0.0164852,0.189032,119
0.454343,0.0165371,0.189694,122
0.45426,0.0165418,0.190597,118
0.45503,0.0164759,0.191867,114
0.45529,0.0164522,0.192921,115
0.455209,0.0164568,0.193828,115
0.455755,0.0164093,0.19501,116
0.455732,0.0164092,0.195946,118
0.454966,0.0164705,0.196557,110
0.455114,0.0164561,0.197568,111
0.454862,0.0164748,0.198405,106
0.455068,0.0164556,0.199444,110
0.455676,0.0164031,0.200666,110
0.456056,0.0163694,0.201788,106
0.456207,0.0163547,0.20281,110
0.456129,0.016359,0.203729,116
0.449217,0.0143509,-0.21267,4
0.340936,0.0239615,-0.160345,3
0.437457,0.0153907,-0.20521,4
0.321028,0.0257259,-0.149598,3
0.443086,0.0148867,-0.206015,4
0.433617,0.0157254,-0.200662,4
0.434562,0.0156394,-0.200194,6
0.43364,0.0157192,-0.198858,5
0.4336,0.0157207,-0.197934,5
0.439963,0.0151536,-0.199947,6
0.434505,0.0156362,-0.196538,5
0.433689,0.0157067,-0.195261,7
0.434427,0.0156391,-0.194693,7
0.432428,0.0158146,-0.192889,8
0.433111,0.0157519,-0.192297,9
0.432662,0.0157898,-0.191198,8
0.433191,0.0157407,-0.190536,9
0.433979,0.0156687,-0.189987,7
0.434149,0.0156515,-0.189164,7
0.433597,0.0156986,-0.188025,10
0.433664,0.0156906,-0.187158,12
0.434816,0.0155862,-0.186763,9
0.43385,0.01567,-0.18545,11
0.433918,0.0156619,-0.184586,11
0.434193,0.0156355,-0.183811,13
0.435607,0.0155078,-0.18352,14
0.435313,0.0155319,-0.182501,12
0.434916,0.0155651,-0.181441,14
0.434521,0.0155982,-0.180384,14
0.433767,0.0156633,-0.17918,11
0.436318,0.0154344,-0.179351,12
0.436128,0.0154493,-0.178381,12
0.435421,0.0155101,-0.1772,12
0.435751,0.0154788,-0.176446,15
0.437017,0.0153642,-0.176073,20
0.436153,0.015439,-0.174834,15
0.438153,0.0152592,-0.174751,12
0.435159,0.0155234,-0.172661,15
0.435903,0.0154552,-0.172074,15
0.435718,0.0154697,-0.171116,21
0.436049,0.0154382,-0.170364,22
0.43716,0.0153374,-0.169917,22
0.436403,0.0154027,-0.168737,21
0.437152,0.0153341,-0.168145,25
0.438739,0.0151909,-0.167875,21
0.437613,0.0152891,-0.166557,23
0.438784,0.0151829,-0.166122,27
0.437711,0.0152763,-0.16483,25
0.438621,0.0151933,-0.164293,23
0.440007,0.015068,-0.163933,23
0.438148,0.0152315,-0.162352,21
0.439112,0.0151437,-0.161832,25
0.439346,0.0151209,-0.161037,22
0.439842,0.0150747,-0.16034,23
0.439396,0.0151124,-0.159296,28
0.440051,0.0150521,-0.158655,29
0.440918,0.014973,-0.158089,28
0.442476,0.0148322,-0.15777,33
0.441761,0.0148938,-0.156631,34
0.441735,0.0148942,-0.15574,37
0.441182,0.0149414,-0.154664,38
0.441526,0.0149088,-0.153907,34
0.441501,0.0149091,-0.15302,34
0.441951,0.014867,-0.1523,36
0.442086,0.014853,-0.151468,34
0.443014,0.0147683,-0.150911,34
0.443309,0.0147401,-0.150133,34
0.442808,0.0147827,-0.149085,33
0.442997,0.0147639,-0.148272,34
0.444196,0.0146551,-0.147799,34
0.44327,0.0147356,-0.146612,34
0.444097,0.0146599,-0.146012,38
0.444768,0.0145981,-0.145357,39
0.44512,0.0145648,-0.144596,37
0.445526,0.0145266,-0.143852,39
0.444917,0.0145789,-0.142777,40
0.445645,0.0145121,-0.142137,45
0.445999,0.0144785,-0.141375,43
0.446354,0.0144449,-0.140612,44
0.446495,0.0144303,-0.139781,45
0.44653,0.0144253,-0.138916,43
0.446887,0.0143915,-0.138153,41
0.446546,0.0144199,-0.137173,44
0.44728,0.0143525,-0.136526,42
0.447531,0.0143281,-0.135728,47
0.44789,0.014294,-0.134964,54
0.448629,0.0142262,-0.134314,56
0.44818,0.0142643,-0.133304,50
0.448271,0.0142541,-0.132458,52
0.447931,0.0142825,-0.131484,54
0.448186,0.0142578,-0.130688,53
0.448332,0.0142428,-0.129859,55
0.448317,0.0142421,-0.128984,53
0.448411,0.0142318,-0.128141,58
0.448775,0.0141974,-0.127376,57
0.448545,0.0142159,-0.126441,53
0.449506,0.0141282,-0.125843,53
0.449493,0.0141274,-0.12497,51
0.448562,0.0142085,-0.123841,56
0.448658,0.014198,-0.123001,53
0.448216,0.0142355,-0.122013,54
0.448475,0.0142104,-0.121218,56
0.44895,0.0141661,-0.120482,54
0.448616,0.0141938,-0.119528,54
0.447693,0.0142743,-0.118417,58
0.447953,0.0142491,-0.117625,58
0.447409,0.0142958,-0.11662,56
0.447401,0.0142945,-0.115758,61
0.446646,0.0143599,-0.114703,64
0.447174,0.0143109,-0.113982,63
0.446528,0.0143666,-0.11296,60
0.446469,0.0143699,-0.112089,58
0.445296,0.0144727,-0.110939,62
0.44471,0.0145231,-0.109941,64
0.443864,0.0145968,-0.108881,67
0.443808,0.0145998,-0.108019,73
0.44281,0.014687,-0.106928,78
0.442443,0.0147179,-0.105994,84
0.442181,0.0147394,-0.105088,90
0.442964,0.0146675,-0.104431,92
0.441972,0.0147542,-0.103354,96
0.442129,0.0147383,-0.102549,94
0.442286,0.0147223,-0.101745,98
0.442236,0.0147249,-0.100892,93
0.442081,0.0147368,-0.100017,98
0.44198,0.014744,-0.0991549,98
0.442139,0.0147279,-0.0983521,99
0.441727,0.0147628,-0.097422,104
0.441835,0.0147513,-0.0966088,109
0.441631,0.0147675,-0.0957276,109
0.441948,0.0147373,-0.0949605,108
0.442005,0.0147303,-0.0941369,102
0.442167,0.0147139,-0.0933359,107
0.442174,0.0147115,-0.0925019,107
0.442181,0.014709,-0.0916685,115
0.441981,0.014725,-0.0907926,112
0.442041,0.0147177,-0.0899714,114
0.442673,0.0146593,-0.0892669,112
0.442682,0.0146566,-0.0884348,125
0.442223,0.0146957,-0.0875098,124
0.442857,0.0146371,-0.0868031,115
0.442192,0.0146947,-0.08584,108
0.442411,0.0146733,-0.0850513,109
0.442474,0.0146657,-0.0842324,114
0.442279,0.0146813,-0.0833645,112
0.442707,0.0146412,-0.0826152,109
0.442408,0.014666,-0.0817293,117
0.443046,0.0146071,-0.0810176,120
0.442488,0.0146551,-0.0800857,127
0.442918,0.0146147,-0.0793349,127
0.442674,0.0146347,-0.0784622,135
0.443053,0.0145989,-0.0777013,136
0.443018,0.0146002,-0.0768667,138
0.442982,0.0146015,-0.0760327,136
0.443156,0.0145841,-0.075235,138
0.44333,0.0145667,-0.0744371,136
0.443036,0.0145911,-0.0735607,139
0.443523,0.0145456,-0.072815,140
0.443595,0.0145374,-0.0719999,143
0.443615,0.0145337,-0.0711766,146
0.443531,0.0145393,-0.070337,146
0.443396,0.0145495,-0.06949,144
0.443313,0.014555,-0.0686521,148
0.443648,0.0145233,-0.0678792,146
0.443254,0.0145566,-0.0669945,147
0.443122,0.0145666,-0.0661509,145
0.443665,0.0145161,-0.0654086,146
0.444315,0.014456,-0.0646801,148
0.444288,0.0144566,-0.0638516,150
0.44447,0.0144384,-0.0630534,149
0.444183,0.0144623,-0.0621888,149
0.444888,0.0143972,-0.0614636,157
0.445282,0.0143601,-0.0606932,163
0.445362,0.0143511,-0.0598794,160
0.444971,0.0143842,-0.0590027,162
0.445,0.0143798,-0.0581831,159
0.445501,0.014333,-0.0574248,168
0.445426,0.0143379,-0.0565914,168
0.445038,0.0143708,-0.0557191,175
0.445802,0.0143005,-0.0549916,165
0.44531,0.0143427,-0.054108,168
0.445709,0.0143051,-0.0533337,164
0.445742,0.0143003,-0.0525149,164
0.4463,0.0142484,-0.0517575,168
0.446229,0.0142529,-0.0509261,170
0.446685,0.0142102,-0.0501546,171
0.4473,0.0141532,-0.0493994,175
0.447441,0.0141387,-0.0485905,175
0.44753,0.0141288,-0.0477758,177
0.447567,0.0141236,-0.0469555,175
0.447183,0.0141563,-0.0460917,172
0.446852,0.0141841,-0.0452351,170
0.447207,0.0141504,-0.0444483,174
0.447352,0.0141355,-0.0436398,168
0.44718,0.014149,-0.0428008,170
0.447643,0.0141057,-0.0420223,171
0.448055,0.0140669,-0.0412375,175
0.448202,0.0140518,-0.0404276,173
0.448457,0.0140271,-0.0396268,179
0.448235,0.0140452,-0.038784,178
0.44849,0.0140204,-0.0379827,182
0.448588,0.0140098,-0.0371676,176
0.44842,0.0140229,-0.0363309,179
0.44905,0.0139646,-0.035558,181
0.449628,0.0139109,-0.034779,184
0.448506,0.0140097,-0.0338699,184
0.448606,0.0139988,-0.033055,184
0.448972,0.0139641,-0.032259,182
0.449926,0.0138767,-0.0315027,186
0.450242,0.0138465,-0.0306998,187
0.449972,0.0138689,-0.0298572,188
0.449809,0.0138816,-0.0290226,186
0.45002,0.0138608,-0.0282121,190
0.450392,0.0138255,-0.0274107,191
0.450391,0.0138238,-0.0265861,192
0.450712,0.0137931,-0.02578,195
0.450766,0.0137864,-0.0249582,196
0.450553,0.0138037,-0.0241222,197
0.450554,0.0138017,-0.023298,198
0.450449,0.0138092,-0.0224688,196
0.451685,0.0136965,-0.0217036,196
0.451098,0.0137473,-0.0208509,200
0.45062,0.0137883,-0.0200052,200
0.450411,0.0138052,-0.0191727,197
0.450576,0.0137885,-0.018356,198
0.45085,0.0137621,-0.017543,194
0.450642,0.0137789,-0.0167115,194
0.45156,0.0136946,-0.0159197,195
0.451837,0.0136679,-0.0151037,197
0.451523,0.0136942,-0.0142685,195
0.451424,0.0137012,-0.0134409,198
0.451488,0.0136936,-0.012618,200
0.451928,0.0136522,-0.0118044,200
0.4521,0.0136349,-0.010983,203
0.451199,0.0137139,-0.0101381,202
0.451211,0.013711,-0.00931435,198
0.451385,0.0136935,-0.0084935,196
0.451023,0.0137241,-0.00766357,197
0.451091,0.0137162,-0.00684101,197
0.450731,0.0137467,-0.00601305,202
0.451657,0.0136616,-0.00519967,198
0.451942,0.0136341,-0.00437747,202
0.451797,0.0136453,-0.00355141,204
0.451492,0.0136708,-0.00272514,205
0.451779,0.0136432,-0.0019017,210
0.451797,0.0136396,-0.00107692,212
0.451709,0.0136457,-0.000252169,210
0.450978,0.0137095,0.00057051,207
0.449983,0.013797,0.00138928,206
0.449472,0.0138411,0.00220748,203
0.449493,0.0138374,0.00302823,201
0.449303,0.0138526,0.00384693,198
0.449751,0.0138105,0.00467263,199
0.449668,0.0138161,0.00549267,201
0.448789,0.0138932,0.00629991,202
0.448601,0.0139082,0.00711609,202
0.448415,0.0139232,0.00793165,202
0.448017,0.013957,0.00874208,200
0.448149,0.0139433,0.00956336,207
0.448388,0.01392,0.0103879,210
0.448098,0.0139442,0.0111991,211
0.447968,0.0139541,0.0120139,209
0.448049,0.0139449,0.0128348,215
0.448132,0.0139356,0.0136562,216
0.447054,0.0140307,0.0144381,218
0.446244,0.0141017,0.0152258,216
0.445751,0.0141441,0.0160226,217
0.445052,0.0142052,0.0168094,214
0.444615,0.0142427,0.0176048,210
0.444647,0.0142379,0.018419,211
0.444472,0.0142518,0.0192241,210
0.443623,0.0143263,0.0199968,208
0.443606,0.0143261,0.0208073,209
0.444003,0.0142885,0.021639,206
0.443727,0.0143115,0.0224368,201
0.442265,0.0144412,0.0231687,202
0.442146,0.01445,0.0239714,200
0.44208,0.0144542,0.0247768,202
0.442015,0.0144582,0.0255822,200
0.441949,0.0144622,0.0263875,202
0.441885,0.0144662,0.0271928,203
0.44311,0.0143541,0.0280831,203
0.443979,0.0142741,0.028954,204
0.44402,0.0142686,0.0297705,204
0.443957,0.0142723,0.03058,206
0.442498,0.0144019,0.031287,202
0.442592,0.0143916,0.0321055,198
0.442428,0.0144045,0.0329048,201
0.443661,0.0142916,0.033814,205
0.443809,0.0142765,0.0346402,203
0.44375,0.0142799,0.0354501,199
0.443329,0.014316,0.0362294,199
0.443323,0.0143147,0.0370432,194
0.443525,0.0142947,0.0378755,193
0.443623,0.0142839,0.0386996,201
0.443671,0.0142778,0.0395195,201
0.443979,0.0142482,0.0403643,204
0.443457,0.0142934,0.041131,201
0.44413,0.0142309,0.0420126,206
0.444388,0.0142058,0.0428559,206
0.444491,0.0141947,0.0436845,205
0.444491,0.0141929,0.0445031,205
0.444804,0.0141628,0.045355,207
0.444596,0.0141797,0.0461524,208
0.444649,0.014173,0.0469779,204
0.444703,0.0141663,0.0478039,204
0.444705,0.0141642,0.0486246,202
0.445493,0.0140914,0.0495356,197
0.446179,0.0140277,0.050438,197
0.445291,0.0141059,0.051157,198
0.446241,0.0140184,0.0520938,199
0.445826,0.014054,0.0528679,202
0.445412,0.0140894,0.053641,206
0.445786,0.0140538,0.0545119,202
0.44674,0.0139659,0.0554587,203
0.446221,0.0140108,0.0562185,203
0.446757,0.0139607,0.0571152,201
0.447241,0.0139151,0.0580076,202
0.447145,0.0139219,0.0588235,204
0.447367,0.0139,0.0596831,207
0.447537,0.0138828,0.0605366,208
0.447655,0.0138703,0.0613838,206
0.447402,0.0138913,0.0621788,205
0.44752,0.0138787,0.063027,206
0.447693,0.0138612,0.0638839,206
0.44776,0.0138533,0.0647261,208
0.44788,0.0138405,0.0655771,204
0.448002,0.0138277,0.066429,204
0.448284,0.0138004,0.0673065,203
0.448247,0.0138018,0.0681357,204
0.44837,0.0137888,0.0689905,205
0.448068,0.0138141,0.0697781,206
0.448353,0.0137866,0.0706599,207
0.448265,0.0137926,0.0714822,204
0.44839,0.0137794,0.07234,202
0.448677,0.0137516,0.0732256,204
0.449179,0.0137045,0.0741491,207
0.449361,0.0136862,0.0750201,208
0.44965,0.0136581,0.0759111,207
0.449566,0.0136638,0.0767379,207
0.45061,0.0135676,0.0777648,208
0.451066,0.0135246,0.0786907,208
0.451523,0.0134814,0.0796191,213
0.451657,0.0134674,0.0804906,210
0.451629,0.013468,0.0813331,208
0.451547,0.0134735,0.082166,206
0.451737,0.0134545,0.0830503,205
0.451764,0.01345,0.0839048,203
0.451793,0.0134456,0.0847601,201
0.451876,0.0134361,0.0856267,202
0.452068,0.0134168,0.0865154,201
0.452261,0.0133974,0.0874056,203
0.452401,0.0133829,0.0882862,202
0.452432,0.0133781,0.0891461,202
0.453612,0.0132697,0.0902404,198
0.45359,0.0132697,0.0910927,197
0.452967,0.0133241,0.0918207,201
0.453383,0.0132845,0.0927646,201
0.455122,0.0131255,0.0939902,198
0.454662,0.0131651,0.0947538,195
0.455471,0.0130901,0.0957894,194
0.455342,0.0130998,0.096625,195
0.455989,0.0130394,0.0976305,192
0.455972,0.013039,0.0984924,191
0.456177,0.0130184,0.0994043,191
0.456105,0.0130229,0.100255,192
0.456535,0.0129822,0.10122,190
0.45691,0.0129463,0.102175,186
0.45723,0.0129154,0.103119,182
0.457105,0.0129247,0.103961,187
0.457204,0.0129138,0.104856,189
0.45747,0.0128877,0.105792,190
0.458468,0.0127956,0.106903,188
0.458963,0.0127489,0.107898,184
0.459009,0.0127427,0.108787,182
0.459281,0.0127161,0.109732,185
0.459441,0.0126997,0.110651,181
0.459489,0.0126934,0.111543,183
0.45948,0.0126921,0.112422,181
0.459416,0.0126959,0.113288,183
0.459579,0.0126793,0.114211,180
0.460025,0.0126369,0.115208,175
0.460246,0.0126149,0.11615,175
0.460411,0.0125979,0.117079,179
0.460463,0.0125912,0.117979,173
0.460573,0.0125793,0.118895,175
0.460854,0.0125519,0.119858,173
0.460623,0.0125708,0.120686,172
0.460905,0.0125432,0.121651,172
0.460732,0.0125568,0.122495,171
0.460902,0.0125395,0.123433,174
0.46073,0.012553,0.124278,173
0.460843,0.0125407,0.125202,173
0.460843,0.0125387,0.126095,176
0.460958,0.0125263,0.127021,177
0.460959,0.0125241,0.127917,178
0.460618,0.012553,0.128715,182
0.460849,0.0125301,0.129677,178
0.460338,0.0125743,0.130426,179
0.460626,0.0125461,0.131406,172
0.461088,0.0125024,0.132439,175
0.461035,0.0125051,0.133323,178
0.461555,0.0124559,0.134377,176
0.460587,0.0125416,0.134989,171
0.460879,0.0125131,0.135978,173
0.460142,0.0125778,0.136656,175
0.460663,0.0125286,0.137716,170
0.460498,0.0125414,0.138568,170
0.459992,0.0125852,0.139315,170
0.460171,0.012567,0.140274,171
0.459495,0.0126262,0.140966,173
0.459618,0.012613,0.141908,177
0.459855,0.0125894,0.142888,169
0.459637,0.0126071,0.143723,174
0.459761,0.0125938,0.144669,176
0.459829,0.0125856,0.145598,173
0.459327,0.0126291,0.146342,176
0.459338,0.012626,0.147254,175
0.45878,0.0126745,0.147978,176
0.458565,0.0126919,0.148815,180
0.45818,0.0127248,0.149595,182
0.457172,0.012814,0.150166,177
0.455831,0.0129335,0.150621,175
0.455507,0.0129608,0.151416,180
0.455127,0.0129931,0.152192,175
0.455478,0.0129593,0.153217,173
0.454371,0.0130576,0.153742,175
0.454329,0.0130593,0.154633,165
0.45345,0.0131369,0.155232,167
0.452741,0.0131991,0.155888,166
0.452312,0.013236,0.156641,158
0.452216,0.0132426,0.157511,164
0.451955,0.0132643,0.158322,153
0.451749,0.0132809,0.159154,147
0.45171,0.0132824,0.160045,148
0.451063,0.013339,0.160716,146
0.449922,0.0134404,0.161205,149
0.45049,0.0133869,0.162318,149
0.450784,0.0133582,0.163332,144
0.449974,0.0134295,0.16394,144
0.450103,0.0134158,0.164894,143
0.451116,0.0133218,0.166182,141
0.450638,0.0133632,0.166912,141
0.450823,0.0133443,0.167893,143
0.45162,0.0132699,0.169109,136
0.450366,0.0133816,0.169543,136
0.451718,0.0132569,0.170976,133
0.450962,0.0133234,0.171599,127
0.450485,0.0133646,0.172329,127
0.451451,0.0132749,0.173622,130
0.451196,0.013296,0.17444,125
0.452613,0.0131652,0.17592,121
0.452023,0.0132168,0.176607,121
0.451712,0.0132429,0.177404,121
0.45196,0.0132183,0.178426,120
0.451985,0.0132139,0.17936,116
0.452179,0.0131943,0.180363,114
0.452261,0.0131847,0.181322,114
0.451951,0.0132107,0.182122,115
0.4531,0.0131043,0.183522,116
0.453296,0.0130844,0.184534,110
0.452705,0.0131359,0.185219,116
0.452846,0.013121,0.186209,117
0.453664,0.0130447,0.187486,112
0.453298,0.0130757,0.188266,107
0.454402,0.0129734,0.18967,115
0.453866,0.0130199,0.19038,120
0.45418,0.0129893,0.191453,119
0.454155,0.0129894,0.192382,119
0.454414,0.0129638,0.193434,119
0.454332,0.0129691,0.194341,110
0.454763,0.0129278,0.195472,108
0.455366,0.0128709,0.196682,105
0.454773,0.0129226,0.197367,103
0.455491,0.0128552,0.198632,100
0.454898,0.0129069,0.199317,102
0.454193,0.0129689,0.19995,108
0.454854,0.0129066,0.201196,101
0.454776,0.0129116,0.202111,108
0.454926,0.0128958,0.203131,109
0.441167,0.0116103,-0.208773,4
0.446772,0.0110662,-0.210513,5
0.136782,0.041047,-0.0657408,3
0.433654,0.0123305,-0.202446,4
0.304663,0.0248038,-0.141222,2
0.43775,0.0119303,-0.202543,3
0.432706,0.012416,-0.199279,4
0.43375,0.012313,-0.198858,5
0.431806,0.012499,-0.197056,7
0.431461,0.0125303,-0.195996,5
0.433116,0.0123682,-0.195853,5
0.433954,0.012285,-0.195332,6
0.434226,0.0122567,-0.194552,10
0.43259,0.0124129,-0.192912,7
0.431223,0.0125431,-0.191401,8
0.431646,0.0125002,-0.190695,9
0.433919,0.0122782,-0.190811,8
0.432392,0.0124239,-0.189237,9
0.43159,0.0124995,-0.187989,8
0.433141,0.0123474,-0.187777,8
0.432337,0.0124232,-0.186532,9
0.433224,0.0123353,-0.186025,10
0.434063,0.0122521,-0.185495,15
0.433308,0.0123231,-0.184277,13
0.43653,0.0120092,-0.184764,15
0.434577,0.0121962,-0.183036,11
0.435318,0.0121225,-0.182457,13
0.434045,0.0122437,-0.181028,12
0.435249,0.0121251,-0.180644,13
0.435474,0.0121013,-0.179846,11
0.436529,0.0119971,-0.179394,15
0.435614,0.0120837,-0.178124,13
0.435168,0.0121249,-0.177051,13
0.435963,0.0120459,-0.176489,15
0.435156,0.0121221,-0.175272,15
0.438187,0.0118265,-0.175614,16
0.436956,0.0119437,-0.174226,19
0.436301,0.0120051,-0.173076,17
0.436788,0.0119559,-0.172384,16
0.437485,0.0118864,-0.171775,20
0.435383,0.012088,-0.170058,19
0.436593,0.0119688,-0.169652,23
0.436356,0.0119898,-0.168676,20
0.437051,0.0119204,-0.168064,17
0.438427,0.0117851,-0.167713,21
0.437876,0.0118365,-0.166617,23
0.437275,0.0118927,-0.165504,26
0.438182,0.0118028,-0.164969,27
0.43831,0.0117884,-0.164135,26
0.438438,0.011774,-0.163302,26
0.439402,0.0116786,-0.162783,24
0.439165,0.0116996,-0.161812,27
0.439451,0.0116698,-0.161037,26
0.439006,0.011711,-0.159993,25
0.439397,0.0116711,-0.159257,27
0.439475,0.0116616,-0.158407,30
0.440233,0.011586,-0.157803,29
0.440575,0.0115509,-0.157047,28
0.441127,0.0114954,-0.156366,32
0.440523,0.0115519,-0.155272,35
0.440288,0.0115727,-0.154311,33
0.441419,0.0114611,-0.153833,31
0.441289,0.0114717,-0.15291,33
0.442107,0.0113903,-0.152318,33
0.4424,0.01136,-0.151542,34
0.441637,0.0114319,-0.150402,36
0.442088,0.0113862,-0.149681,34
0.442276,0.011366,-0.148869,37
0.442464,0.0113458,-0.148058,38
0.443076,0.0112844,-0.147389,39
0.44316,0.0112743,-0.146541,40
0.443509,0.0112385,-0.145782,38
0.443964,0.0111923,-0.145058,40
0.443254,0.0112593,-0.14395,38
0.444028,0.0111822,-0.14333,41
0.44422,0.0111616,-0.142518,43
0.444252,0.0111564,-0.141656,46
0.444445,0.0111357,-0.140845,47
0.445117,0.0110685,-0.140186,42
0.445631,0.0110166,-0.139476,43
0.445772,0.011001,-0.138647,47
0.446128,0.0109645,-0.137885,47
0.445789,0.0109954,-0.136907,48
0.445878,0.0109848,-0.136063,44
0.446127,0.0109586,-0.135268,51
0.44611,0.0109583,-0.134392,48
0.446575,0.0109112,-0.133662,46
0.446237,0.010942,-0.13269,47
0.44681,0.0108844,-0.131992,48
0.447009,0.0108632,-0.131181,52
0.446726,0.0108887,-0.130229,54
0.44714,0.0108465,-0.129482,52
0.447179,0.0108407,-0.128625,50
0.447379,0.0108193,-0.127815,48
0.445869,0.010964,-0.126514,53
0.446603,0.0108907,-0.125859,51
0.445685,0.010978,-0.124735,51
0.446686,0.0108788,-0.124154,48
0.446461,0.0108987,-0.123227,48
0.44629,0.0109133,-0.122317,50
0.446333,0.0109072,-0.121468,53
0.445897,0.0109476,-0.120488,56
0.445516,0.0109827,-0.119525,59
0.445295,0.0110022,-0.118607,58
0.446296,0.010903,-0.118017,61
0.445968,0.0109329,-0.117072,62
0.445007,0.0110244,-0.115961,66
0.445106,0.0110129,-0.115132,66
0.444624,0.0110578,-0.114153,61
0.443723,0.0111434,-0.113068,60
0.442931,0.0112184,-0.112015,62
0.443084,0.0112017,-0.111205,59
0.441514,0.0113523,-0.109962,63
0.442188,0.0112849,-0.109286,73
0.441821,0.0113187,-0.108349,80
0.442339,0.0112663,-0.107633,88
0.440469,0.0114463,-0.106332,91
0.440519,0.0114395,-0.105504,89
0.440674,0.0114225,-0.104701,93
0.440622,0.0114257,-0.10385,92
0.441503,0.0113381,-0.103219,95
0.440417,0.0114418,-0.102124,90
0.44047,0.0114348,-0.101299,91
0.440214,0.0114578,-0.100403,93
0.440526,0.0114255,-0.0996383,101
0.44058,0.0114183,-0.0988146,102
0.44048,0.0114262,-0.0979565,101
0.440587,0.0114139,-0.0971454,102
0.440849,0.0113865,-0.0963687,111
0.440751,0.0113941,-0.0955125,110
0.441428,0.0113264,-0.0948255,110
0.441434,0.0113239,-0.093992,105
0.441543,0.0113114,-0.0931811,111
0.440981,0.0113642,-0.0922284,109
0.441143,0.0113465,-0.0914299,109
0.441099,0.0113489,-0.0905886,107
0.441262,0.0113312,-0.0897905,110
0.440961,0.0113586,-0.0888977,111
0.44128,0.0113257,-0.0881316,116
0.441032,0.011348,-0.0872514,115
0.4413,0.01132,-0.0864749,119
0.441776,0.0112718,-0.0857385,118
0.44127,0.0113191,-0.0848102,117
0.440973,0.0113462,-0.0839244,112
0.441759,0.0112678,-0.0832463,113
0.441668,0.0112747,-0.0824005,113
0.44163,0.0112766,-0.0815652,121
0.441437,0.0112935,-0.080702,127
0.441503,0.0112852,-0.0798873,132
0.441724,0.0112618,-0.0791008,132
0.441791,0.0112534,-0.0782863,134
0.442221,0.0112097,-0.0775361,139
0.441772,0.0112515,-0.0766309,145
0.44184,0.011243,-0.0758175,142
0.441961,0.0112294,-0.0750131,144
0.442341,0.0111905,-0.0742526,146
0.442256,0.0111969,-0.0734131,145
0.44352,0.0110719,-0.0727978,146
0.442708,0.0111491,-0.0718384,146
0.442832,0.0111352,-0.0710337,140
0.44249,0.0111666,-0.0701545,143
0.442822,0.0111324,-0.0693834,137
0.442791,0.0111335,-0.0685549,140
0.443021,0.0111093,-0.067767,139
0.44294,0.0111153,-0.0669313,137
0.443015,0.0111061,-0.0661197,140
0.442987,0.011107,-0.0652929,149
0.443167,0.0110876,-0.064497,151
0.44314,0.0110884,-0.0636709,153
0.443944,0.0110081,-0.062964,153
0.443347,0.0110645,-0.0620568,158
0.443321,0.0110651,-0.0612317,159
0.443556,0.0110404,-0.0604428,162
0.444208,0.010975,-0.0597097,167
0.444028,0.0109907,-0.0588635,172
0.443744,0.0110164,-0.0580048,167
0.44367,0.0110218,-0.0571744,166
0.444636,0.0109257,-0.0564778,166
0.444823,0.0109056,-0.0556797,167
0.444854,0.0109007,-0.0548618,162
0.445252,0.0108601,-0.0540888,168
0.445179,0.0108653,-0.0532581,166
0.44516,0.0108654,-0.0524343,171
0.445193,0.0108603,-0.051617,171
0.445593,0.0108194,-0.0508419,173
0.44568,0.0108091,-0.0500302,172
0.445558,0.0108191,-0.0491953,173
0.44617,0.0107576,-0.0484412,175
0.446679,0.010706,-0.0476741,174
0.446348,0.0107365,-0.0468168,173
0.446123,0.0107565,-0.045972,171
0.446581,0.01071,-0.0451977,169
0.44641,0.0107249,-0.0443591,171
0.446501,0.0107141,-0.0435471,173
0.44733,0.0106313,-0.0428059,177
0.447213,0.0106409,-0.0419726,173
0.447201,0.0106402,-0.0411498,178
0.44719,0.0106394,-0.0403274,174
0.44718,0.0106386,-0.0395052,172
0.447328,0.0106222,-0.0386971,173
0.44753,0.0106007,-0.0378931,178
0.447837,0.0105688,-0.0370974,183
0.448146,0.0105368,-0.0363009,190
0.447927,0.0105563,-0.0354615,184
0.448132,0.0105345,-0.034656,186
0.448178,0.0105281,-0.0338379,183
0.448702,0.0104751,-0.033055,184
0.449227,0.010422,-0.0322704,183
0.44917,0.0104257,-0.0314433,185
0.448953,0.010445,-0.0306058,187
0.449481,0.0103916,-0.0298185,187
0.449851,0.0103536,-0.0290192,186
0.449955,0.0103416,-0.0282021,187
0.45006,0.0103295,-0.0273848,190
0.450166,0.0103173,-0.0265674,194
0.450112,0.0103206,-0.0257406,193
0.450219,0.0103083,-0.024923,193
0.450327,0.010296,-0.0241052,194
0.450275,0.0102992,-0.0232789,199
0.450224,0.0103023,-0.022453,197
0.450226,0.0103002,-0.0216299,200
0.449963,0.010324,-0.0207948,197
0.450127,0.0103061,-0.0199795,200
0.450452,0.0102725,-0.0191705,199
0.450564,0.0102597,-0.0183518,197
0.450463,0.0102677,-0.0175246,192
0.450576,0.0102548,-0.0167057,198
0.45053,0.0102574,-0.015881,201
0.450484,0.01026,-0.0150565,200
0.450333,0.010273,-0.0142291,195
0.450235,0.0102807,-0.0134038,195
0.450138,0.0102883,-0.012579,194
0.450148,0.0102854,-0.0117573,196
0.450799,0.0102199,-0.0109506,197
0.45033,0.0102639,-0.0101174,196
0.451626,0.0101354,-0.00932064,198
0.451908,0.010106,-0.00850111,198
0.451331,0.0101605,-0.00766696,199
0.451613,0.0101311,-0.00684702,205
0.452111,0.0100805,-0.00602867,205
0.452073,0.0100824,-0.00520299,206
0.451284,0.0101576,-0.00437114,206
0.450392,0.010243,-0.00354157,207
0.450409,0.0102394,-0.0027196,209
0.451711,0.0101103,-0.00190124,205
0.451729,0.0101066,-0.00107676,207
0.451856,0.0100924,-0.000252123,211
0.451822,0.0100938,0.000572559,208
0.451896,0.0100847,0.00139762,212
0.45181,0.0100912,0.00222195,211
0.451028,0.0101659,0.00304019,206
0.449876,0.0102766,0.00385179,204
0.449792,0.0102829,0.00467199,203
0.448913,0.0103671,0.00548087,200
0.448831,0.0103732,0.00629907,200
0.448644,0.0103897,0.00711516,198
0.448563,0.0103957,0.00793268,201
0.448377,0.0104121,0.00874771,201
0.448245,0.0104231,0.00956336,206
0.447955,0.0104496,0.0103746,204
0.44793,0.0104503,0.011192,208
0.448011,0.0104405,0.0120124,210
0.448145,0.0104255,0.0128348,215
0.448333,0.0104053,0.0136596,216
0.448416,0.0103953,0.0144815,216
0.446079,0.0106221,0.0152163,219
0.445588,0.0106684,0.0160126,215
0.444837,0.0107399,0.016797,215
0.444505,0.0107706,0.0175961,212
0.444589,0.0107605,0.0184122,215
0.44457,0.0107605,0.0192241,214
0.44367,0.0108468,0.0199943,208
0.441798,0.0110283,0.0207134,207
0.441832,0.0110231,0.0215231,207
0.441508,0.011053,0.022314,206
0.44144,0.0110577,0.023118,207
0.441733,0.0110273,0.0239422,203
0.441718,0.0110269,0.0247497,201
0.441909,0.0110064,0.0255698,202
0.441587,0.011036,0.0263588,201
0.441677,0.0110254,0.0271731,202
0.441921,0.0109997,0.0279981,203
0.441961,0.010994,0.0288103,205
0.441898,0.0109983,0.0296157,209
