0.459032,0.0235093,0.115063,192
0.4588,0.0235228,0.115887,189
0.459021,0.0235061,0.116828,190
0.459016,0.0235044,0.117712,185
0.458615,0.0235292,0.118491,182
0.458837,0.0235123,0.119436,183
0.459004,0.0234992,0.120366,182
0.459001,0.0234974,0.121253,183
0.458659,0.0235182,0.122048,186
0.458884,0.0235012,0.122997,185
0.458599,0.0235182,0.123808,183
0.458541,0.02352,0.124681,181
0.457579,0.0235823,0.125302,184
0.459109,0.0234781,0.126621,184
0.458769,0.0234988,0.127417,185
0.458373,0.0235232,0.128196,184
0.457978,0.0235476,0.128975,183
0.458093,0.0235379,0.1299,180
0.457643,0.0235659,0.130662,175
0.458212,0.0235259,0.131721,174
0.457989,0.0235387,0.13255,175
0.45822,0.0235213,0.133513,182
0.458225,0.0235189,0.134411,182
0.458003,0.0235317,0.13524,178
0.458236,0.0235142,0.136208,181
0.458185,0.0235155,0.13709,182
0.458135,0.0235168,0.137974,177
0.457915,0.0235295,0.138805,179
0.457582,0.0235497,0.139601,181
0.457137,0.0235775,0.140362,179
0.456523,0.0236165,0.141068,173
0.455236,0.0237005,0.14156,172
0.455526,0.0236791,0.14255,174
0.454581,0.0237402,0.143145,173
0.453918,0.0237825,0.143829,170
0.453481,0.0238097,0.144584,172
0.452322,0.0238852,0.145103,174
0.451944,0.0239085,0.145874,176
0.451622,0.023928,0.146662,180
0.451301,0.0239475,0.147451,180
0.449823,0.0240443,0.147852,175
0.449724,0.0240489,0.148712,168
0.449516,0.0240608,0.149535,170
0.449033,0.0240911,0.150265,169
0.448662,0.0241139,0.151032,169
0.44862,0.0241147,0.151911,164
0.448249,0.0241375,0.152677,160
0.448044,0.0241492,0.1535,165
0.447893,0.0241573,0.154343,160
0.446926,0.02422,0.154897,159
0.446505,0.0242462,0.155642,153
0.446464,0.0242468,0.156522,143
0.445395,0.0243164,0.157034,133
0.44568,0.0242953,0.15803,129
0.445424,0.0243104,0.158832,128
0.445115,0.0243291,0.159614,134
0.445455,0.0243043,0.160634,135
0.445688,0.0242867,0.161617,136
0.445541,0.0242945,0.162461,132
0.445667,0.024284,0.163406,136
0.445847,0.0242699,0.164373,132
0.44619,0.0242449,0.165403,130
0.446045,0.0242525,0.166251,138
0.445955,0.0242566,0.167119,134
0.446192,0.0242387,0.168113,135
0.445885,0.0242572,0.1689,127
0.446122,0.0242392,0.169897,121
0.446142,0.0242358,0.170811,118
0.446654,0.0241995,0.171918,124
0.446894,0.0241814,0.172922,128
0.446587,0.0241998,0.173711,134
0.446609,0.0241963,0.174631,125
0.446795,0.0241818,0.175617,122
0.446928,0.0241708,0.176582,117
0.448657,0.0240528,0.178194,114
0.447688,0.0241157,0.17872,113
0.448043,0.0240898,0.179781,115
0.447352,0.0241341,0.180417,114
0.447267,0.0241377,0.181301,113
0.448008,0.0240859,0.182526,111
0.448255,0.0240672,0.18355,119
0.448558,0.0240448,0.1846,118
0.448475,0.0240484,0.185489,116
0.448668,0.0240333,0.186496,113
0.448696,0.0240293,0.187434,116
0.448891,0.0240142,0.188444,117
0.449142,0.0239952,0.18948,120
0.449338,0.0239799,0.190495,120
0.449256,0.0239833,0.191391,122
0.44962,0.0239568,0.192482,118
0.449094,0.02399,0.193186,114
0.44918,0.0239821,0.194157,108
0.4491,0.0239854,0.195057,109
0.44941,0.0239624,0.19613,107
0.450393,0.0238943,0.197504,103
0.44981,0.0239313,0.198184,106
0.450459,0.0238856,0.199416,107
0.449429,0.0239527,0.199893,111
0.450022,0.0239107,0.201103,114
0.467306,0.0273813,-0.221621,4
0.470791,0.0271798,-0.222291,4
0.47314,0.0270431,-0.222411,5
1.05712,-0.00635749,-0.497635,2
0.131916,0.0465646,-0.0638152,2
0.466088,0.0274398,-0.216135,2
0.797282,0.00849104,-0.369524,3
0.468572,0.0272933,-0.21533,5
0.471083,0.0271474,-0.215504,3
0.472626,0.0270569,-0.215226,2
0.466092,0.0274286,-0.211258,3
0.472315,0.0270702,-0.213111,5
0.472254,0.0270715,-0.212098,5
0.469309,0.0272378,-0.209789,4
0.473991,0.0269676,-0.210909,5
0.473371,0.0270008,-0.209648,5
0.469622,0.0272133,-0.207001,5
0.465216,0.0274634,-0.204081,5
0.467686,0.0273197,-0.204202,4
0.466666,0.027376,-0.202787,4
0.468483,0.0272697,-0.202612,4
0.468186,0.0272846,-0.201515,7
0.461808,0.0276477,-0.197799,7
0.463647,0.0275402,-0.197635,9
0.462178,0.0276222,-0.196052,10
0.462659,0.0275925,-0.195305,8
0.4632,0.0275594,-0.194582,11
0.463682,0.0275296,-0.193833,11
0.46257,0.0275912,-0.192415,13
0.460938,0.0276826,-0.190786,9
0.461534,0.0276463,-0.190088,12
0.460377,0.0277105,-0.188666,10
0.462556,0.0275834,-0.188618,8
0.462744,0.0275705,-0.18775,8
0.46129,0.0276517,-0.186214,9
0.460429,0.027699,-0.184925,9
0.458703,0.0277958,-0.183292,10
0.456935,0.0278951,-0.18165,10
0.458156,0.027823,-0.181207,8
0.456394,0.0279219,-0.179578,12
0.453405,0.0280914,-0.177473,15
0.454722,0.0280137,-0.177069,12
0.451869,0.0281753,-0.175036,16
0.452448,0.0281401,-0.174345,17
0.453477,0.0280789,-0.173826,16
0.45187,0.028169,-0.172293,20
0.451667,0.0281787,-0.171302,16
0.453311,0.0280822,-0.171015,17
0.45249,0.0281273,-0.169791,15
0.451896,0.0281593,-0.168656,15
0.45242,0.0281272,-0.167942,17
0.452498,0.0281207,-0.167061,17
0.45308,0.0280852,-0.166367,21
0.453775,0.0280432,-0.165713,20
0.454586,0.0279946,-0.165099,22
0.454834,0.0279783,-0.164278,24
0.453507,0.0280524,-0.162888,26
0.453475,0.0280522,-0.161968,26
0.453555,0.0280456,-0.161091,28
0.453244,0.0280614,-0.160074,29
0.453437,0.0280483,-0.159237,27
0.453686,0.0280319,-0.158421,27
0.453544,0.028038,-0.157467,30
0.453346,0.0280474,-0.156496,32
0.453429,0.0280406,-0.155622,29
0.4534,0.0280402,-0.154711,27
0.454436,0.0279786,-0.154165,28
0.455026,0.0279427,-0.153463,24
0.454492,0.0279713,-0.152381,29
0.454801,0.0279515,-0.151584,27
0.454774,0.027951,-0.150675,29
0.454915,0.0279408,-0.149822,32
0.456354,0.0278561,-0.149398,31
0.454863,0.0279398,-0.148008,32
0.454781,0.0279425,-0.147084,39
0.455149,0.0279193,-0.146307,38
0.456138,0.0278604,-0.145728,38
0.456622,0.0278305,-0.144985,38
0.456371,0.0278429,-0.144007,43
0.457252,0.0277901,-0.143388,39
0.456155,0.0278513,-0.142146,45
0.457375,0.027779,-0.141632,48
0.4569,0.0278043,-0.140588,50
0.456991,0.0277971,-0.13972,51
0.457875,0.0277442,-0.139096,53
0.457797,0.0277466,-0.138177,56
0.457436,0.0277654,-0.137173,57
0.458096,0.0277254,-0.136478,55
0.458189,0.027718,-0.135611,51
0.459536,0.0276384,-0.135116,52
0.459117,0.0276605,-0.134098,57
0.458813,0.027676,-0.133115,53
0.459307,0.0276455,-0.132366,58
0.459232,0.0276478,-0.131451,59
0.459956,0.0276041,-0.130766,68
0.459596,0.0276228,-0.129771,64
0.459922,0.027602,-0.128971,65
0.460534,0.0275647,-0.128251,64
0.460004,0.0275933,-0.127211,68
0.46056,0.0275592,-0.126475,66
0.460374,0.0275679,-0.125532,67
0.461563,0.0274974,-0.124967,69
0.4627,0.0274298,-0.124383,67
0.461535,0.027495,-0.123177,68
0.462903,0.027414,-0.122651,70
0.462371,0.0274427,-0.121618,65
0.462763,0.0274181,-0.12083,72
0.462635,0.0274234,-0.119906,74
0.462624,0.0274221,-0.119013,72
0.462844,0.0274074,-0.118181,64
0.463353,0.027376,-0.117421,62
0.46369,0.0273545,-0.116617,67
0.46345,0.0273664,-0.115667,75
0.463326,0.0273716,-0.114748,79
0.463953,0.0273333,-0.114015,78
0.464409,0.027305,-0.113239,76
0.465506,0.0272397,-0.112617,73
0.46515,0.0272583,-0.111641,72
0.465609,0.0272298,-0.110862,80
0.466069,0.0272012,-0.110083,80
0.466006,0.0272028,-0.109178,81
0.466585,0.0271674,-0.108425,86
0.465997,0.0271993,-0.107399,91
0.465877,0.0272043,-0.106484,92
0.466049,0.0271923,-0.105636,95
0.466863,0.0271433,-0.104934,94
0.46692,0.027138,-0.104059,92
0.467328,0.0271124,-0.103263,94
0.467386,0.0271071,-0.102388,104
0.46762,0.0270915,-0.101552,98
0.468384,0.0270454,-0.100831,98
0.468032,0.0270637,-0.0998674,96
0.468386,0.0270413,-0.0990561,103
0.469153,0.0269949,-0.0983311,110
0.469805,0.0269553,-0.0975796,114
0.470104,0.026936,-0.096753,108
0.470403,0.0269167,-0.095926,107
0.469934,0.0269418,-0.094942,98
0.470294,0.026919,-0.0941273,106
0.470536,0.026903,-0.0932882,105
0.470779,0.0268869,-0.0924489,101
0.47138,0.0268502,-0.0916791,94
0.471446,0.0268443,-0.090804,92
0.471573,0.026835,-0.0899407,91
0.472237,0.0267946,-0.0891794,93
0.472186,0.0267955,-0.0882818,89
0.472554,0.0267723,-0.0874626,92
0.473102,0.0267385,-0.0866758,90
0.472933,0.0267463,-0.0857567,90
0.473424,0.0267159,-0.0849575,87
0.473316,0.0267201,-0.0840502,97
0.473448,0.0267105,-0.0831862,100
0.473942,0.0266799,-0.0823852,103
0.473956,0.0266771,-0.0814999,105
0.474451,0.0266464,-0.0806973,109
0.474707,0.0266296,-0.0798527,111
0.474964,0.0266127,-0.0790078,112
0.475161,0.0265993,-0.0781525,105
0.474937,0.0266102,-0.0772281,108
0.475317,0.0265863,-0.0764024,106
0.475275,0.0265867,-0.0755084,103
0.475778,0.0265556,-0.0747008,103
0.476584,0.0265069,-0.0739391,114
0.476181,0.0265282,-0.0729885,109
0.475478,0.0265669,-0.0719942,107
0.475802,0.0265462,-0.0711572,100
0.475041,0.0265882,-0.0701585,98
0.475305,0.0265709,-0.0693132,93
0.475933,0.0265326,-0.0685197,93
0.476139,0.0265186,-0.0676641,97
0.475561,0.0265501,-0.0666978,105
0.475407,0.0265571,-0.0657928,115
0.475072,0.0265744,-0.0648641,116
0.475763,0.0265324,-0.0640755,116
0.47561,0.0265393,-0.0631723,120
0.475459,0.0265461,-0.0622701,115
0.475368,0.0265493,-0.0613768,122
0.475821,0.0265211,-0.0605534,120
0.474769,0.0265801,-0.0595396,121
0.475643,0.0265274,-0.0587685,119
0.474234,0.0266071,-0.057716,131
0.474028,0.0266171,-0.0568135,120
0.474242,0.0266027,-0.0559618,132
0.474277,0.0265987,-0.0550888,134
0.473774,0.0266258,-0.0541544,135
0.473631,0.0266322,-0.0532626,139
0.472953,0.0266695,-0.0523125,146
0.472812,0.0266757,-0.0514236,145
0.472613,0.0266853,-0.0505293,148
0.472177,0.0267086,-0.0496112,150
0.472217,0.0267044,-0.0487441,149
0.472079,0.0267104,-0.0478591,142
0.471884,0.0267198,-0.0469691,144
0.471039,0.0267668,-0.0460167,144
0.471318,0.0267487,-0.0451753,149
0.471184,0.0267545,-0.0442944,148
0.47111,0.0267568,-0.0434197,156
0.470977,0.0267625,-0.0425403,155
0.470258,0.0268024,-0.0416097,159
0.468373,0.0269099,-0.0405814,158
0.467663,0.0269491,-0.0396596,153
0.467188,0.0269748,-0.0387602,154
0.466888,0.0269903,-0.0378769,163
0.466185,0.0270291,-0.036963,166
0.465427,0.0270712,-0.0360478,167
0.464616,0.0271164,-0.0351316,164
0.463751,0.0271647,-0.0342147,165
0.463459,0.0271798,-0.0333421,161
0.463283,0.0271881,-0.0324789,162
0.462766,0.0272162,-0.0315933,164
0.462875,0.0272079,-0.0307512,170
0.462417,0.0272326,-0.0298725,169
0.461396,0.0272901,-0.0289606,169
0.460436,0.027344,-0.0280564,168
0.459985,0.0273682,-0.0271857,171
0.459536,0.0273924,-0.0263169,170
0.4592,0.0274101,-0.0254561,174
0.459089,0.0274146,-0.0246086,175
0.458867,0.0274256,-0.023756,173
0.458534,0.0274431,-0.0228988,174
0.457204,0.0275186,-0.0219958,172
0.457373,0.0275068,-0.0211661,174
0.457765,0.0274821,-0.0203456,181
0.456221,0.0275701,-0.0194428,180
0.45573,0.0275967,-0.018588,187
0.455516,0.0276073,-0.0177456,184
0.455193,0.0276242,-0.0169001,181
0.454488,0.0276633,-0.0160428,178
0.453841,0.0276991,-0.01519,183
0.453359,0.0277253,-0.0143448,183
0.453368,0.0277228,-0.0135156,184
0.452943,0.0277457,-0.0126748,182
0.452899,0.0277464,-0.0118451,185
0.452747,0.0277534,-0.0110132,189
0.45238,0.0277729,-0.0101773,191
0.452338,0.0277735,-0.0093491,190
0.452405,0.0277677,-0.00852306,190
0.452094,0.0277839,-0.00769083,188
0.452,0.0277875,-0.00686283,191
0.451907,0.0277911,-0.00603521,190
0.452138,0.0277757,-0.00521129,194
0.452101,0.0277761,-0.00438427,192
0.451955,0.0277827,-0.00355671,196
0.451756,0.0277924,-0.00272944,188
0.451505,0.0278052,-0.00190277,189
0.451523,0.0278022,-0.00107729,188
0.452299,0.0277551,-0.00025109,192
0.451617,0.027793,0.000574027,192
0.451475,0.0277994,0.0013991,193
0.451389,0.0278026,0.00222402,191
0.451519,0.0277932,0.00305044,188
0.452677,0.0277238,0.00388779,187
0.451348,0.0277993,0.00469965,183
0.451211,0.0278055,0.0055231,183
0.451721,0.0277739,0.00635625,183
0.452287,0.0277391,0.00719233,187
0.452312,0.0277357,0.00802007,187
0.451906,0.0277575,0.00883877,190
0.451771,0.0277635,0.0096623,187
0.451313,0.0277884,0.0104773,188
0.451935,0.0277502,0.0113197,193
0.451478,0.027775,0.0121335,192
0.4514,0.0277777,0.0129573,195
0.451052,0.0277961,0.0137721,193
0.451245,0.027783,0.0146042,191
0.45133,0.0277761,0.0154333,193
0.452769,0.0276903,0.0163141,195
0.451233,0.0277781,0.017082,190
0.450943,0.0277931,0.0178962,196
0.451031,0.0277861,0.0187258,194
0.451497,0.027757,0.0195731,194
0.451263,0.0277689,0.0203892,191
0.450975,0.0277838,0.0212018,193
0.450904,0.0277861,0.0220246,190
0.450995,0.0277789,0.0228558,192
0.451248,0.0277622,0.0236964,192
0.452098,0.0277108,0.0245717,189
0.451164,0.0277634,0.0253463,187
0.451312,0.0277529,0.0261827,186
0.45146,0.0277424,0.0270198,194
0.451501,0.0277381,0.0278508,197
0.451435,0.0277401,0.028675,195
0.451369,0.0277421,0.0294992,193
0.451791,0.0277156,0.0303573,191
0.451132,0.0277522,0.0311399,190
0.451284,0.0277414,0.0319797,186
0.451221,0.0277432,0.0328041,187
0.451158,0.027745,0.0336285,186
0.45142,0.0277278,0.0344784,186
0.451305,0.0277327,0.0352991,185
0.451785,0.0277028,0.0361687,186
0.452538,0.0276569,0.0370634,185
0.451936,0.0276902,0.0378442,192
0.452202,0.0276727,0.0386995,187
0.451927,0.0276869,0.0395073,187
0.452412,0.0276567,0.0403841,190
0.452409,0.027655,0.0412172,191
0.452461,0.0276501,0.0420559,195
0.452026,0.0276737,0.0428474,199
0.45284,0.0276242,0.0437618,198
0.453221,0.0276,0.0446356,200
0.452676,0.0276299,0.0454157,195
0.453113,0.0276025,0.046297,197
0.452733,0.0276228,0.047093,193
0.453008,0.0276049,0.0479589,198
0.452956,0.027606,0.0487902,193
0.453178,0.0275911,0.0496522,196
0.453182,0.027589,0.0504905,197
0.453843,0.0275484,0.0514054,198
0.453575,0.0275622,0.0522134,199
0.453308,0.027576,0.0530208,198
0.453642,0.0275545,0.0539009,199
0.453923,0.0275361,0.0547759,199
0.453822,0.0275402,0.0556042,201
0.453776,0.027541,0.0564396,201
0.453949,0.0275289,0.0573035,198
0.454014,0.0275232,0.0581541,198
0.453915,0.0275271,0.0589835,199
0.453926,0.0275245,0.0598277,198
0.453773,0.0275316,0.0606499,197
0.453676,0.0275354,0.0614796,193
0.453963,0.0275167,0.0623633,193
0.454471,0.027485,0.0632799,197
0.454156,0.0275016,0.06408,193
0.454171,0.0274988,0.0649275,201
0.454406,0.0274831,0.0658081,199
0.454202,0.0274931,0.0666241,195
0.454549,0.0274709,0.0675234,196
0.454732,0.0274582,0.0683992,199
0.454805,0.027452,0.0692589,194
0.454768,0.0274522,0.0701021,194
0.454678,0.0274557,0.0709368,197
0.455084,0.0274299,0.0718519,200
0.45527,0.0274171,0.072733,198
0.45507,0.0274269,0.0735514,194
0.4562,0.0273587,0.0745916,191
0.456946,0.027313,0.0755717,198
0.455636,0.0273879,0.0762037,199
0.456381,0.0273423,0.0771864,198
0.45585,0.0273715,0.0779493,200
0.455487,0.0273908,0.0787404,203
0.455679,0.0273777,0.0796295,202
0.455872,0.0273644,0.08052,197
0.456232,0.0273413,0.0814422,199
0.456817,0.0273051,0.0824076,200
0.457683,0.0272523,0.0834281,198
0.457824,0.0272421,0.0843161,202
0.457518,0.0272581,0.0851201,197
0.457213,0.0272741,0.0859236,195
0.45758,0.0272506,0.0868565,197
0.458172,0.0272138,0.0878356,203
0.458092,0.0272166,0.0886846,202
0.458013,0.0272193,0.0895339,205
0.457934,0.0272219,0.0903835,202
0.457912,0.0272213,0.0912448,196
0.458059,0.0272107,0.0921413,191
0.458432,0.0271868,0.0930856,197
0.458356,0.0271894,0.0939379,191
0.458392,0.0271852,0.0948144,191
0.458542,0.0271745,0.0957156,191
0.458468,0.0271769,0.0965696,188
0.458845,0.0271528,0.0975219,192
0.458827,0.0271518,0.0983899,194
0.458811,0.0271508,0.0992585,194
0.458738,0.0271531,0.100115,193
0.459062,0.0271321,0.101061,194
0.45916,0.0271244,0.101958,193
0.459315,0.0271133,0.102868,192
0.459415,0.0271054,0.103767,191
0.459515,0.0270976,0.104667,189
0.459446,0.0270996,0.105529,186
0.459604,0.0270884,0.106444,188
0.459082,0.027117,0.107199,189
0.459185,0.027109,0.108102,190
0.459004,0.0271177,0.108938,189
0.459278,0.0270996,0.109884,190
0.459269,0.0270981,0.110762,190
0.459544,0.02708,0.111712,188
0.459763,0.0270651,0.112649,189
0.46004,0.0270468,0.113602,189
0.460776,0.0270015,0.114673,182
0.460027,0.0270435,0.115368,181
0.45985,0.0270519,0.116209,183
0.460016,0.0270402,0.117138,182
0.460012,0.0270384,0.118024,183
0.45995,0.02704,0.118895,185
0.460061,0.0270315,0.119813,189
0.460001,0.0270331,0.120686,186
0.459941,0.0270346,0.121559,183
0.459882,0.027036,0.122433,182
0.460109,0.0270206,0.123386,183
0.459822,0.0270355,0.124199,184
0.459651,0.0270436,0.125043,182
0.459537,0.0270483,0.125904,181
0.45948,0.0270496,0.126781,182
0.459082,0.027071,0.127561,179
0.458913,0.027079,0.128406,176
0.459428,0.0270466,0.129447,176
0.459487,0.0270411,0.13036,172
0.459319,0.027049,0.131207,179
0.459551,0.0270333,0.132171,174
0.459498,0.0270344,0.133053,178
0.459903,0.0270085,0.134071,178
0.459966,0.0270028,0.134989,179
0.459342,0.0270375,0.135702,175
0.45912,0.0270486,0.136535,180
0.45924,0.0270394,0.137472,180
0.459533,0.0270201,0.138463,177
0.458342,0.0270883,0.138998,177
0.458179,0.0270959,0.139848,179
0.458187,0.0270934,0.140752,181
0.457513,0.0271311,0.141442,178
0.456615,0.027182,0.14206,177
0.45685,0.0271661,0.143035,177
0.454829,0.0272833,0.143289,172
0.454333,0.0273105,0.144028,170
0.454175,0.0273178,0.144874,172
0.453961,0.0273284,0.145703,174
0.453412,0.0273587,0.146422,173
0.452586,0.0274054,0.147047,173
0.452319,0.0274192,0.147856,172
0.451386,0.0274722,0.148442,174
0.451121,0.0274858,0.14925,172
0.450635,0.0275125,0.149982,172
0.450647,0.0275097,0.150883,169
0.449777,0.0275591,0.151483,169
0.448855,0.0276115,0.152062,167
0.448703,0.0276184,0.152905,161
0.448552,0.0276253,0.153748,161
0.448346,0.0276355,0.154572,162
0.447867,0.0276617,0.1553,159
0.44679,0.0277233,0.155815,147
0.446804,0.0277205,0.156716,143
0.445949,0.027769,0.157305,145
0.446126,0.0277564,0.158264,146
0.44549,0.027792,0.15893,145
0.445397,0.0277955,0.159792,145
0.445467,0.0277893,0.160714,144
0.445591,0.0277799,0.161657,136
0.445391,0.0277897,0.162481,133
0.446223,0.0277385,0.163689,122
0.44586,0.027758,0.164454,133
0.445714,0.0277645,0.165301,137
0.446222,0.0277325,0.166395,134
0.446078,0.027739,0.167244,126
0.445933,0.0277455,0.168093,127
0.446171,0.0277294,0.169089,125
0.445754,0.027752,0.169834,124
0.445883,0.0277423,0.17079,123
0.445795,0.0277455,0.171662,125
0.445979,0.0277325,0.172643,119
0.446712,0.0276871,0.173841,115
0.447008,0.0276675,0.17487,111
0.44692,0.0276706,0.175748,113
0.447658,0.0276249,0.176957,117
0.447737,0.0276182,0.177904,112
0.44743,0.0276343,0.178697,115
0.447179,0.0276471,0.179512,119
0.447204,0.0276435,0.18044,113
0.447725,0.0276106,0.181573,115
0.447971,0.027594,0.182595,112
0.447942,0.0275936,0.183504,113
0.448577,0.0275539,0.184692,108
0.448882,0.0275338,0.185745,109
0.448854,0.0275333,0.18666,113
0.448771,0.0275362,0.187552,113
0.448799,0.0275324,0.188492,109
0.44905,0.0275154,0.189528,115
0.449637,0.0274785,0.190711,113
0.449444,0.0274879,0.19156,113
0.449195,0.0275005,0.192385,104
0.449561,0.0274767,0.193478,106
0.449927,0.0274529,0.194573,107
0.450351,0.0274257,0.195697,108
0.449375,0.0274814,0.196204,106
0.449184,0.0274906,0.197056,102
0.449049,0.0274965,0.197934,100
0.450258,0.0274227,0.199416,109
0.449394,0.0274718,0.199969,116
0.449877,0.027441,0.201128,116
0.464358,0.0311846,-0.220324,3
0.47118,0.030846,-0.222585,3
0.473849,0.0307121,-0.222854,4
0.613263,0.0238343,-0.287609,3
0.469754,0.0309096,-0.21894,5
0.473713,0.0307121,-0.2198,6
0.47421,0.0306854,-0.219036,3
0.11092,0.0486174,-0.0545302,3
0.468587,0.0309583,-0.214461,6
0.472399,0.030768,-0.215226,3
0.469076,0.0309297,-0.212723,4
0.466527,0.0310533,-0.210587,5
0.477277,0.0305205,-0.214471,4
0.470734,0.0308413,-0.210533,4
0.470367,0.0308572,-0.209388,5
0.470124,0.030867,-0.208302,4
0.468419,0.0309489,-0.206569,9
0.469763,0.0308804,-0.206189,7
0.46595,0.0310665,-0.20354,6
0.465236,0.0310996,-0.202262,5
0.466864,0.031017,-0.202007,7
0.466208,0.0310472,-0.200758,5
0.463587,0.0311746,-0.198665,6
0.462174,0.0312422,-0.197102,7
0.462773,0.0312104,-0.196405,8
0.463137,0.0311903,-0.195606,11
0.462614,0.031214,-0.194432,8
0.464878,0.0310999,-0.194432,8
0.463521,0.0311649,-0.192909,9
0.461761,0.0312497,-0.191225,9
0.464432,0.0311155,-0.191385,11
0.46032,0.0313167,-0.188738,11
0.462031,0.03123,-0.188498,9
0.466134,0.0310249,-0.189228,7
0.460358,0.0313084,-0.18593,9
0.459035,0.0313718,-0.184455,13
0.461789,0.0312334,-0.184626,10
0.460167,0.0313115,-0.183036,6
0.457521,0.0314404,-0.181047,9
0.458574,0.0313862,-0.180533,8
0.457438,0.0314403,-0.179154,10
0.456309,0.0314941,-0.177783,10
0.456955,0.03146,-0.177109,7
0.453111,0.0316482,-0.174693,13
0.451784,0.0317118,-0.173264,14
0.453318,0.0316338,-0.172938,19
0.451711,0.0317113,-0.171409,20
0.453583,0.0316165,-0.171207,14
0.453941,0.0315967,-0.170427,12
0.451326,0.0317242,-0.168531,16
0.452185,0.0316796,-0.167942,18
0.453891,0.031593,-0.167666,18
0.453238,0.0316233,-0.166512,18
0.45214,0.0316757,-0.165198,17
0.451828,0.0316891,-0.164177,21
0.453025,0.0316277,-0.163706,23
0.452993,0.0316273,-0.162786,23
0.452625,0.0316434,-0.161747,25
0.453321,0.0316069,-0.161091,36
0.452841,0.0316286,-0.160014,35
0.453202,0.0316087,-0.159237,34
0.453901,0.031572,-0.158579,29
0.453422,0.0315937,-0.157506,36
0.454009,0.0315625,-0.156807,36
0.452524,0.0316341,-0.155391,33
0.453166,0.0316003,-0.154711,29
0.453137,0.0315997,-0.153801,34
0.454342,0.0315378,-0.15331,33
0.453977,0.0315539,-0.152286,30
0.454849,0.0315086,-0.151679,30
0.45499,0.0314996,-0.150825,34
0.455583,0.0314681,-0.150121,34
0.455895,0.0314506,-0.149323,33
0.454686,0.0315086,-0.148026,36
0.454716,0.031505,-0.147139,37
0.455366,0.0314707,-0.146452,36
0.455679,0.0314532,-0.145655,34
0.45543,0.0314635,-0.144678,39
0.456421,0.0314123,-0.144097,40
0.455664,0.0314479,-0.14296,42
0.455922,0.031433,-0.142146,46
0.456577,0.0313985,-0.141455,47
0.457347,0.0313582,-0.140798,47
0.456985,0.0313741,-0.13979,51
0.4577,0.0313366,-0.139114,48
0.456885,0.0313751,-0.13797,53
0.457544,0.0313403,-0.137276,51
0.458376,0.0312969,-0.136631,54
0.458128,0.0313072,-0.135662,62
0.457541,0.0313344,-0.134595,58
0.458089,0.0313051,-0.133864,56
0.4579,0.0313125,-0.132916,54
0.458506,0.0312803,-0.132201,58
0.459058,0.0312509,-0.131467,63
0.459782,0.0312129,-0.130782,60
0.460165,0.0311918,-0.129998,57
0.460377,0.0311792,-0.129165,62
0.460075,0.0311922,-0.128187,60
0.459374,0.0312251,-0.1271,67
0.460387,0.0311727,-0.12649,64
0.460888,0.0311458,-0.125737,62
0.46116,0.0311302,-0.12492,59
0.461261,0.0311232,-0.124056,61
0.461707,0.0310989,-0.123285,66
0.462097,0.0310775,-0.122497,65
0.461566,0.0311019,-0.121466,74
0.462187,0.031069,-0.120739,69
0.462521,0.0310503,-0.119936,71
0.462452,0.0310518,-0.119028,73
0.463366,0.0310043,-0.118374,69
0.463413,0.0309999,-0.117495,70
0.46323,0.031007,-0.116559,77
0.463741,0.0309795,-0.115798,81
0.464138,0.0309577,-0.115007,85
0.46442,0.0309417,-0.114187,88
0.464528,0.0309343,-0.113324,81
0.464695,0.0309239,-0.112476,80
0.46527,0.0308933,-0.111726,82
0.465381,0.0308858,-0.110862,85
0.466426,0.0308317,-0.110222,84
0.466655,0.0308182,-0.109385,95
0.466591,0.0308194,-0.10848,95
0.466704,0.0308118,-0.107616,94
0.466642,0.0308129,-0.106712,88
0.467048,0.0307906,-0.105916,95
0.46728,0.030777,-0.10508,98
0.467748,0.0307517,-0.104296,96
0.467923,0.0307409,-0.103446,96
0.468275,0.0307214,-0.102634,103
0.468628,0.0307017,-0.101822,104
0.468746,0.0306938,-0.100958,109
0.469455,0.0306564,-0.100222,109
0.469752,0.0306396,-0.099395,106
0.470169,0.0306168,-0.098593,102
0.470825,0.0305821,-0.0978398,106
0.470293,0.0306066,-0.0968389,105
0.471366,0.030551,-0.0961698,110
0.472146,0.03051,-0.0954374,104
0.471971,0.0305168,-0.0945104,101
0.472096,0.0305085,-0.0936442,107
0.472221,0.0305003,-0.0927782,115
0.472228,0.0304979,-0.091889,98
0.472354,0.0304896,-0.0910235,103
0.47296,0.0304573,-0.09025,99
0.473448,0.0304309,-0.0894522,93
0.473157,0.0304434,-0.0885066,90
0.473047,0.0304469,-0.0875962,93
0.473357,0.0304295,-0.0867641,99
0.473848,0.0304029,-0.0859643,108
0.47428,0.0303793,-0.0851526,104
0.473811,0.0304007,-0.0841787,111
0.474848,0.0303469,-0.0834729,102
0.475526,0.030311,-0.082701,101
0.476145,0.030278,-0.081917,105
0.47616,0.0302753,-0.0810276,104
0.476054,0.0302785,-0.0801182,106
0.475888,0.0302848,-0.0791997,111
0.476268,0.0302638,-0.0783724,108
0.476285,0.0302609,-0.0774848,108
0.476789,0.0302337,-0.0766761,102
0.476929,0.0302247,-0.075808,103
0.477192,0.0302095,-0.074959,100
0.47709,0.0302126,-0.0740527,96
0.478392,0.0301455,-0.0733631,85
0.477619,0.0301821,-0.0723537,109
0.47868,0.030127,-0.0716229,129
0.47858,0.03013,-0.0707164,126
0.477322,0.030191,-0.0696411,104
0.477834,0.0301633,-0.0688266,99
0.478775,0.0301142,-0.0680719,96
0.478434,0.0301293,-0.0671335,104
0.478399,0.030129,-0.0662393,105
0.477816,0.0301562,-0.0652705,112
0.478515,0.0301192,-0.0644774,115
0.478116,0.0301372,-0.0635358,117
0.477658,0.0301581,-0.0625883,118
0.478053,0.0301363,-0.0617533,120
0.476262,0.030224,-0.0606382,118
0.476414,0.0302144,-0.0597745,117
0.476568,0.0302047,-0.0589106,115
0.476903,0.0301859,-0.0580687,116
0.477119,0.0301731,-0.0572115,126
0.476184,0.030218,-0.0562178,135
0.476038,0.0302233,-0.0553196,130
0.476134,0.0302165,-0.05445,135
0.475929,0.0302248,-0.0535465,134
0.475845,0.030227,-0.0526574,142
0.475341,0.0302503,-0.0517232,147
0.475259,0.0302524,-0.0508363,150
0.475178,0.0302545,-0.0499501,148
0.474257,0.0302987,-0.0489779,149
0.474238,0.0302977,-0.0481006,146
0.473861,0.0303146,-0.0471881,151
0.474262,0.0302925,-0.0463532,149
0.473587,0.0303244,-0.0454141,150
0.473034,0.0303502,-0.0444892,150
0.472959,0.030352,-0.0436106,151
0.472053,0.0303955,-0.0426576,144
0.472277,0.0303823,-0.0418079,143
0.47173,0.0304078,-0.040891,145
0.471422,0.0304213,-0.0399966,148
0.470761,0.0304525,-0.0390744,147
0.469868,0.0304954,-0.038136,153
0.469682,0.0305027,-0.0372571,159
0.468444,0.0305629,-0.0362979,161
0.467795,0.0305936,-0.0353879,154
0.467032,0.0306299,-0.0344721,155
0.46691,0.0306342,-0.0336051,157
0.466209,0.0306674,-0.0326986,165
0.465224,0.0307149,-0.0317755,165
0.465105,0.030719,-0.0309133,165
0.464584,0.0307432,-0.030026,163
0.464295,0.0307559,-0.0291552,162
0.464636,0.0307368,-0.0283237,165
0.462977,0.0308182,-0.0273741,170
0.462749,0.0308278,-0.0265118,167
0.462011,0.030863,-0.0256226,170
0.461106,0.0309065,-0.0247275,171
0.4606,0.03093,-0.0238562,177
0.459815,0.0309676,-0.0229731,177
0.459817,0.0309656,-0.0221304,178
0.459372,0.0309861,-0.0212675,179
0.458928,0.0310065,-0.0204064,181
0.459045,0.0309987,-0.0195704,181
0.458436,0.0310274,-0.0187052,182
0.457052,0.0310951,-0.0178128,178
0.457502,0.0310706,-0.016992,179
0.457398,0.0310739,-0.0161507,181
0.456244,0.0311301,-0.0152756,181
0.456197,0.0311306,-0.0144389,181
0.455325,0.0311726,-0.0135786,179
0.455225,0.0311757,-0.0127425,182
0.455016,0.0311844,-0.011904,184
0.454533,0.0312068,-0.01106,182
0.454436,0.0312098,-0.0102261,179
0.45412,0.0312238,-0.0093884,184
0.453151,0.0312707,-0.00854033,189
0.452404,0.0313065,-0.0076994,185
0.453288,0.0312601,-0.00688404,186
0.453357,0.0312547,-0.00605557,185
0.453918,0.0312246,-0.00523191,191
0.45328,0.0312549,-0.00439613,193
0.452482,0.0312932,-0.00356167,192
0.453151,0.0312576,-0.00273707,187
0.452572,0.0312849,-0.00190645,190
0.452373,0.031293,-0.00107836,191
0.452773,0.031271,-0.000250477,188
0.453174,0.031249,0.000578897,186
0.452814,0.0312652,0.00140629,186
0.452021,0.0313033,0.00222958,185
0.451665,0.0313194,0.00305357,185
0.451849,0.0313082,0.00388175,186
0.452306,0.0312833,0.00471391,186
0.45168,0.031313,0.00553281,186
0.452572,0.0312662,0.00637326,187
0.45146,0.0313204,0.00718189,187
0.451864,0.0312982,0.00801587,188
0.45227,0.0312758,0.00885143,187
0.451647,0.0313054,0.0096648,195
0.451567,0.0313076,0.0104895,193
0.451541,0.031307,0.0113153,193
0.451624,0.0313009,0.0121443,198
0.45301,0.0312291,0.0130135,197
0.452497,0.0312531,0.0138264,194
0.452582,0.031247,0.0146579,197
0.451909,0.0312791,0.0154625,195
0.452212,0.0312619,0.0163018,194
0.451595,0.0312912,0.0171056,192
0.45255,0.0312411,0.0179728,194
0.452422,0.0312457,0.0187965,192
0.45186,0.0312722,0.0196001,192
0.451842,0.0312712,0.0204274,193
0.451824,0.0312703,0.0212549,194
0.452729,0.0312227,0.0221294,193
0.452006,0.0312573,0.0229215,195
0.451936,0.031259,0.0237466,193
0.451866,0.0312606,0.0245717,194
0.451797,0.0312623,0.0253968,191
0.451945,0.0312529,0.0262348,192
0.453237,0.0311858,0.0271445,195
0.453169,0.0311873,0.0279723,196
0.453211,0.0311833,0.0288072,197
0.453091,0.0311875,0.0296314,197
0.453298,0.0311752,0.0304781,197
0.453615,0.0311572,0.0313337,201
0.453332,0.0311697,0.0321467,202
0.452996,0.0311848,0.0329548,193
0.451792,0.0312438,0.0336951,191
0.45211,0.0312258,0.034551,187
0.452102,0.0312243,0.0353821,187
0.452041,0.0312255,0.036209,194
0.452361,0.0312075,0.037068,190
0.452955,0.0311756,0.037952,188
0.452515,0.0311959,0.0387474,191
0.45213,0.0312135,0.0395463,188
0.452997,0.0311677,0.0404591,189
0.453267,0.0311522,0.0413194,190
0.453102,0.0311587,0.0421392,192
0.453155,0.0311541,0.04298,188
0.453482,0.0311357,0.0438485,193
0.453536,0.031131,0.0446909,196
0.453427,0.0311347,0.0455169,192
0.453483,0.0311299,0.04636,192
0.453321,0.0311363,0.0471804,191
0.453433,0.0311287,0.0480302,190
0.453272,0.031135,0.0488505,190
0.453494,0.0311218,0.0497136,193
0.453882,0.0311003,0.0505968,199
0.453777,0.0311037,0.0514245,197
0.455377,0.0310207,0.0524535,194
0.455494,0.0310129,0.0533107,194
0.454125,0.0310804,0.0539877,198
0.454352,0.031067,0.0548574,196
0.454195,0.031073,0.05568,194
0.454479,0.0310567,0.0565585,196
0.454268,0.0310655,0.0573745,191
0.454333,0.0310603,0.0582261,197
0.454124,0.031069,0.0590419,197
0.45452,0.031047,0.0599389,195
0.454312,0.0310557,0.0607551,197
0.454434,0.0310475,0.0616167,195
0.454393,0.0310477,0.062456,189
0.454517,0.0310396,0.0633192,190
0.454641,0.0310313,0.0641833,194
0.45665,0.0309275,0.0653237,197
0.454837,0.0310175,0.0659061,194
0.454909,0.031012,0.0667646,195
0.455313,0.0309896,0.0676743,196
0.45533,0.0309868,0.0685266,201
0.455847,0.0309586,0.069457,199
0.456422,0.0309276,0.0703988,200
0.456999,0.0308964,0.0713436,199
0.455629,0.0309639,0.0719769,197
0.455428,0.0309722,0.0727962,196
0.456783,0.0309015,0.0738722,196
0.456471,0.0309154,0.0746752,194
0.45616,0.0309293,0.0754777,196
0.456128,0.030929,0.076327,195
0.457156,0.0308749,0.0773597,198
0.457236,0.0308688,0.0782314,197
0.45771,0.0308428,0.0791732,202
0.45768,0.0308424,0.0800274,205
0.457371,0.0308562,0.0808316,201
0.45751,0.0308471,0.0817168,200
0.457594,0.0308409,0.0825929,196
0.457511,0.0308432,0.0834385,196
0.457821,0.0308255,0.0843582,195
0.458019,0.0308135,0.0852585,193
0.458106,0.0308071,0.0861386,193
0.45825,0.0307979,0.0870305,193
0.458676,0.0307743,0.0879787,194
0.458765,0.0307678,0.0888624,196
0.458911,0.0307584,0.0897584,195
0.458776,0.0307633,0.0905988,196
0.458698,0.0307653,0.0914507,196
0.459128,0.0307415,0.0924072,194
0.459221,0.0307348,0.0932959,194
0.459314,0.0307281,0.0941857,191
0.459521,0.0307156,0.0951003,193
0.459502,0.0307146,0.0959682,193
0.459937,0.0306905,0.0969341,191
0.460659,0.0306518,0.0979643,190
0.46013,0.0306767,0.0987243,191
0.460626,0.0306495,0.0997089,187
0.460953,0.0306309,0.100658,191
0.461109,0.030621,0.101571,194
0.460752,0.0306372,0.102369,192
0.460167,0.0306649,0.103115,194
0.460496,0.0306462,0.104068,197
0.460198,0.0306594,0.104878,194
0.4615,0.0305911,0.106062,196
0.461259,0.0306014,0.106888,190
0.460962,0.0306145,0.1077,188
0.461008,0.0306102,0.108594,191
0.461514,0.0305824,0.109599,186
0.461849,0.0305634,0.110566,187
0.46184,0.0305618,0.111449,188
0.461029,0.0306011,0.112135,181
0.461021,0.0305995,0.113019,176
0.461301,0.0305833,0.113976,180
0.462272,0.0305318,0.115109,181
0.462381,0.0305242,0.116027,184
0.462318,0.0305254,0.116902,184
0.462256,0.0305266,0.117777,186
0.462252,0.0305248,0.118668,181
0.462133,0.0305288,0.119529,180
0.462014,0.0305328,0.12039,184
0.461954,0.0305339,0.121268,186
0.461204,0.0305701,0.12196,185
0.460972,0.0305799,0.12279,186
0.461431,0.0305545,0.123808,184
0.462354,0.0305054,0.124957,181
0.461776,0.0305328,0.125694,182
0.461028,0.030569,0.126383,180
0.460914,0.0305728,0.127247,174
0.461204,0.030556,0.128225,176
0.460918,0.0305685,0.129041,176
0.461035,0.0305605,0.129973,174
0.461096,0.0305554,0.130889,178
0.461503,0.0305325,0.131907,175
0.461046,0.0305538,0.132674,177
0.461051,0.0305516,0.133577,178
0.460768,0.030564,0.134394,177
0.460658,0.0305675,0.135264,172
0.459975,0.0306004,0.13596,177
0.460326,0.0305804,0.136968,172
0.460505,0.0305692,0.137926,178
0.460628,0.0305609,0.138868,178
0.459774,0.0306025,0.139509,178
0.459037,0.0306381,0.140185,174
0.458188,0.0306794,0.140823,174
0.457741,0.0307002,0.141585,173
0.457352,0.0307181,0.142364,176
0.45702,0.030733,0.143161,174
0.456916,0.0307363,0.14403,175
0.456586,0.0307511,0.144827,171
0.454845,0.030838,0.145166,166
0.455081,0.030824,0.146143,167
0.454024,0.030876,0.146697,172
0.453586,0.0308963,0.147453,172
0.453094,0.0309194,0.14819,171
0.45238,0.0309539,0.148851,175
0.45189,0.0309769,0.149585,171
0.451458,0.030997,0.150338,173
0.451582,0.0309887,0.151279,171
0.451428,0.0309945,0.152126,169
0.450664,0.0310315,0.152764,169
0.450124,0.0310571,0.153476,170
0.449972,0.0310629,0.154323,165
0.449214,0.0310996,0.154957,162
0.448458,0.0311363,0.15559,155
0.448308,0.031142,0.156435,154
0.448158,0.0311476,0.15728,151
0.447625,0.0311728,0.157988,149
0.447203,0.0311924,0.158735,145
0.447218,0.0311896,0.15964,149
0.446797,0.0312091,0.160386,151
0.445996,0.0312482,0.160992,151
0.445957,0.0312481,0.161877,142
0.446192,0.031234,0.162863,139
0.446373,0.0312227,0.163831,133
0.446063,0.0312365,0.164617,131
0.445918,0.031242,0.165465,129
0.445827,0.0312446,0.166333,130
0.446282,0.0312192,0.16741,126
0.445538,0.0312553,0.16803,128
0.445612,0.0312495,0.168963,132
0.445795,0.031238,0.169939,123
0.446143,0.0312182,0.170981,118
0.446109,0.0312178,0.171876,121
0.44613,0.0312147,0.172793,119
0.446426,0.0311975,0.173819,118
0.446941,0.031169,0.174935,108
0.447459,0.0311404,0.176055,109
0.447482,0.0311371,0.176979,109
0.447561,0.031131,0.177927,114
0.447861,0.0311136,0.178965,104
0.447886,0.0311102,0.179894,111
0.448187,0.0310927,0.180937,109
0.447881,0.0311063,0.181731,115
0.448516,0.0310716,0.182915,104
0.448099,0.031091,0.183665,105
0.448458,0.0310704,0.184739,106
0.448374,0.0310726,0.185629,110
0.448568,0.0310606,0.186636,109
0.448652,0.0310542,0.187599,115
0.449293,0.0310192,0.1888,107
0.448709,0.0310471,0.18948,114
0.449073,0.0310263,0.190567,112
0.44888,0.0310341,0.191415,117
0.449077,0.0310219,0.192433,111
0.449667,0.0309895,0.193624,105
0.449362,0.031003,0.194426,107
0.449058,0.0310165,0.195229,111
0.449313,0.0310013,0.196278,110
0.44901,0.0310147,0.197081,110
0.44921,0.0310023,0.198109,110
0.449355,0.0309927,0.199114,113
0.449501,0.0309831,0.20012,109
0.449591,0.0309764,0.201103,107
0.476058,0.0343352,-0.226028,3
0.500324,0.0333273,-0.236551,3
0.925717,0.0156965,-0.4374,4
0.471535,0.0345158,-0.220887,3
0.469927,0.0345803,-0.219141,3
0.467478,0.0346796,-0.217011,5
0.471527,0.0345094,-0.217909,4
0.730162,0.0237828,-0.336786,3
0.476969,0.0342793,-0.218435,4
0.47401,0.0343998,-0.216081,3
0.467539,0.0346659,-0.21214,5
0.470844,0.0345266,-0.212663,6
0.469249,0.0345906,-0.210959,6
0.469802,0.0345655,-0.210229,7
0.468338,0.034624,-0.208595,4
0.469194,0.0345862,-0.208002,5
0.468648,0.0346067,-0.206784,4
0.469934,0.0345511,-0.206378,5
0.466053,0.0347101,-0.203699,5
0.465938,0.0347127,-0.202682,7
0.464864,0.0347551,-0.20125,8
0.46184,0.0348785,-0.198979,4
0.463447,0.0348096,-0.198716,9
0.463335,0.0348121,-0.197711,10
0.463879,0.0347873,-0.196987,10
0.460228,0.0349369,-0.194481,10
0.462296,0.0348488,-0.194407,10
0.463608,0.0347921,-0.194007,11
0.461021,0.0348975,-0.191972,10
0.460621,0.034912,-0.190859,11
0.461807,0.0348606,-0.190405,9
0.463175,0.0348015,-0.190022,8
0.461771,0.0348578,-0.188498,13
0.460962,0.0348893,-0.187223,14
0.462502,0.0348231,-0.186906,14
0.460112,0.0349204,-0.184995,8
0.458847,0.0349709,-0.183548,13
0.458572,0.0349802,-0.182503,9
0.459922,0.034922,-0.182106,12
0.457333,0.0350276,-0.180145,12
0.456374,0.0350654,-0.178838,13
0.456276,0.0350674,-0.177872,14
0.455494,0.0350978,-0.176642,14
0.457113,0.0350283,-0.176346,17
0.455188,0.0351064,-0.174677,12
0.454809,0.0351201,-0.173611,14
0.454998,0.0351101,-0.172763,17
0.453659,0.0351639,-0.171336,15
0.452441,0.0352125,-0.16996,10
0.451566,0.0352469,-0.168719,19
0.451699,0.0352393,-0.167859,15
0.450606,0.0352828,-0.166543,21
0.451687,0.0352357,-0.166036,19
0.452157,0.0352141,-0.165301,19
0.451621,0.0352344,-0.164197,17
0.452426,0.0351987,-0.163584,23
0.451445,0.0352376,-0.162322,26
0.453315,0.0351576,-0.162089,29
0.452386,0.0351943,-0.16085,29
0.452747,0.0351772,-0.160074,26
0.45322,0.0351554,-0.159337,28
0.453078,0.0351593,-0.158382,29
0.45316,0.0351539,-0.157506,34
0.453579,0.0351343,-0.156749,31
0.452262,0.0351873,-0.155391,28
0.45352,0.0351327,-0.154923,28
0.452931,0.0351552,-0.15382,26
0.452903,0.0351544,-0.152911,29
0.452819,0.0351558,-0.151984,33
0.453632,0.0351199,-0.151358,33
0.453773,0.035112,-0.150507,32
0.454083,0.035097,-0.149711,31
0.454788,0.0350655,-0.149044,30
0.454087,0.0350928,-0.147916,34
0.453334,0.0351222,-0.146774,36
0.453757,0.0351025,-0.146016,38
0.454405,0.0350734,-0.14533,38
0.455394,0.0350301,-0.14475,41
0.455144,0.0350385,-0.143774,46
0.455685,0.0350139,-0.143049,45
0.455605,0.0350152,-0.142129,40
0.455526,0.0350164,-0.141209,47
0.455447,0.0350177,-0.140291,48
0.456272,0.0349812,-0.139651,49
0.45642,0.034973,-0.138802,52
0.457078,0.0349435,-0.138108,52
0.456604,0.0349613,-0.137071,55
0.456301,0.0349719,-0.136087,51
0.456564,0.0349589,-0.135274,54
0.457224,0.0349293,-0.134578,54
0.457772,0.0349043,-0.133847,56
0.457867,0.0348983,-0.132982,60
0.457508,0.0349113,-0.131987,57
0.458286,0.0348768,-0.13132,53
0.459123,0.0348397,-0.130668,63
0.458821,0.0348504,-0.12969,58
0.458576,0.0348586,-0.12873,57
0.459644,0.0348118,-0.128139,62
0.459628,0.0348105,-0.127243,65
0.460242,0.0347828,-0.126522,66
0.460858,0.0347549,-0.1258,68
0.460213,0.03478,-0.124732,68
0.460371,0.0347713,-0.123885,71
0.460816,0.0347507,-0.123115,71
0.461666,0.0347131,-0.122451,68
0.461883,0.0347019,-0.121618,64
0.462044,0.0346932,-0.12077,71
0.462321,0.0346796,-0.119951,69
0.462194,0.0346829,-0.119028,74
0.462587,0.0346644,-0.11824,76
0.463097,0.034641,-0.11748,80
0.463088,0.0346394,-0.116588,77
0.463252,0.0346305,-0.11574,86
0.463475,0.0346191,-0.114906,84
0.464163,0.0345882,-0.114187,83
0.465144,0.034545,-0.113539,78
0.465137,0.0345433,-0.112646,86
0.465597,0.034522,-0.111866,86
0.465883,0.034508,-0.111044,86
0.466052,0.0344989,-0.110194,93
0.466926,0.0344602,-0.109509,101
0.466804,0.0344633,-0.108589,95
0.466858,0.034459,-0.107711,96
0.466444,0.0344744,-0.106726,96
0.466558,0.0344676,-0.105863,99
0.467435,0.0344287,-0.105173,96
0.467963,0.0344046,-0.104401,101
0.467902,0.0344051,-0.103498,106
0.469853,0.0343212,-0.103038,107
0.469733,0.0343242,-0.102119,102
0.469555,0.0343296,-0.101189,106
0.469971,0.0343102,-0.100387,105
0.470328,0.0342931,-0.0995717,107
0.470449,0.034286,-0.0987057,101
0.470451,0.0342839,-0.097815,97
0.471526,0.0342367,-0.0971469,98
0.471291,0.0342446,-0.0962065,107
0.471653,0.0342273,-0.0953888,107
0.472555,0.0341874,-0.094679,109
0.47262,0.0341826,-0.0937993,106
0.473286,0.0341526,-0.0930386,100
0.472572,0.0341806,-0.092006,105
0.472759,0.0341708,-0.091151,100
0.472767,0.0341684,-0.0902615,100
0.473255,0.0341459,-0.0894636,101
0.473986,0.0341131,-0.0887099,96
0.474478,0.0340904,-0.0879095,96
0.474246,0.0340981,-0.0869745,100
0.474559,0.0340829,-0.08614,105
0.475235,0.0340524,-0.0853704,109
0.475489,0.0340397,-0.0845233,109
0.475078,0.034055,-0.0835582,106
0.475333,0.0340422,-0.0827116,104
0.476075,0.034009,-0.0819484,102
0.476029,0.0340089,-0.0810483,106
0.476774,0.0339755,-0.0802825,113
0.477521,0.033942,-0.0795147,110
0.477599,0.0339367,-0.0786339,102
0.477677,0.0339314,-0.0777533,104
0.477756,0.0339261,-0.0768729,105
0.477836,0.0339207,-0.0759928,99
0.478774,0.0338791,-0.075248,90
0.479716,0.0338374,-0.0745008,95
0.478937,0.0338682,-0.0734857,102
0.478345,0.0338911,-0.0725023,112
0.478919,0.0338649,-0.0716965,111
0.47888,0.0338645,-0.0707981,99
0.479026,0.0338564,-0.0699273,92
0.479296,0.033843,-0.0690742,103
0.47926,0.0338425,-0.0681768,100
0.479654,0.0338238,-0.0673405,107
0.480112,0.0338025,-0.0665119,105
0.479646,0.0338201,-0.0655555,107
0.479367,0.0338299,-0.0646264,108
0.479457,0.0338241,-0.0637478,113
0.478811,0.0338494,-0.0627727,118
0.478964,0.0338409,-0.0619036,123
0.478627,0.0338531,-0.0609719,120
0.479517,0.0338135,-0.0601959,124
0.478874,0.0338387,-0.0592273,129
0.478968,0.0338327,-0.0583512,130
0.478635,0.0338448,-0.0574236,123
0.477997,0.0338697,-0.0564618,138
0.478337,0.0338533,-0.0556163,131
0.478862,0.0338292,-0.0547911,141
0.478287,0.0338514,-0.0538403,142
0.478753,0.0338298,-0.0530071,143
0.478485,0.0338391,-0.0520928,144
0.477975,0.0338587,-0.0511537,146
0.477892,0.0338602,-0.0502618,144
0.477142,0.0338899,-0.0493016,149
0.477243,0.0338836,-0.0484307,146
0.477103,0.0338876,-0.0475357,151
0.476115,0.0339273,-0.0465588,149
0.476219,0.033921,-0.0456902,151
0.476021,0.0339274,-0.0447933,155
0.475643,0.0339414,-0.0438807,157
0.475326,0.0339528,-0.0429754,158
0.47447,0.033987,-0.0420238,158
0.474937,0.0339653,-0.04119,155
0.474444,0.0339842,-0.0402735,161
0.473953,0.034003,-0.0393592,155
0.473523,0.0340192,-0.0384519,155
0.472321,0.0340681,-0.0374855,158
0.471718,0.0340917,-0.0365699,165
0.471118,0.0341152,-0.0356569,162
0.470873,0.0341236,-0.0347726,159
0.469923,0.0341618,-0.0338388,160
0.468978,0.0341999,-0.0329091,162
0.46909,0.0341932,-0.0320548,165
0.468033,0.0342361,-0.0311231,161
0.467098,0.0342737,-0.0302034,168
0.466979,0.0342769,-0.029338,173
0.466802,0.0342824,-0.0284698,170
0.466279,0.0343026,-0.0275822,174
0.465989,0.034313,-0.0267098,173
0.464606,0.0343697,-0.0257788,176
0.46369,0.0344066,-0.0248777,174
0.463063,0.0344313,-0.023995,177
0.462894,0.0344365,-0.0231372,177
0.462839,0.0344369,-0.0222856,176
0.462103,0.0344662,-0.0214034,175
0.461937,0.0344713,-0.0205488,180
0.460923,0.0345125,-0.0196596,178
0.459914,0.0345533,-0.0187744,179
0.459414,0.0345726,-0.0179125,180
0.459085,0.0345847,-0.0170586,181
0.45898,0.0345873,-0.0162138,182
0.458373,0.0346111,-0.0153532,180
0.458047,0.0346231,-0.0145035,179
0.457,0.0346656,-0.0136343,182
0.456068,0.0347033,-0.0127721,179
0.456189,0.0346962,-0.0119399,180
0.456311,0.0346892,-0.0111073,182
0.455826,0.0347079,-0.0102614,183
0.454957,0.0347429,-0.00940979,181
0.454915,0.0347428,-0.00857607,184
0.454764,0.0347473,-0.00774081,185
0.454834,0.0347425,-0.00690923,188
0.454794,0.0347423,-0.00607609,189
0.454645,0.0347468,-0.00524201,186
0.454662,0.0347442,-0.0044099,188
0.454514,0.0347486,-0.00357666,188
0.454312,0.0347553,-0.00274373,188
0.453838,0.0347736,-0.00191078,190
0.453966,0.0347662,-0.00108018,191
0.454041,0.0347612,-0.00024915,190
0.453952,0.0347631,0.000581719,188
0.453153,0.0347952,0.00140903,181
0.453448,0.0347808,0.00224042,179
0.453088,0.0347942,0.00306751,186
0.45322,0.0347867,0.00389827,182
0.453516,0.0347722,0.00473152,185
0.453213,0.0347833,0.00555762,187
0.45362,0.0347641,0.00639377,190
0.453591,0.0347634,0.00722383,188
0.453617,0.0347604,0.0080549,188
0.45348,0.0347644,0.00888266,189
0.453125,0.0347776,0.00970494,191
0.453645,0.0347536,0.0105478,191
0.4534,0.0347622,0.0113722,191
0.45343,0.034759,0.0122035,189
0.453678,0.0347466,0.0130418,191
0.453709,0.0347434,0.013874,196
0.453631,0.0347448,0.0147027,200
0.453663,0.0347416,0.0155352,197
0.453641,0.0347406,0.0163658,196
0.453565,0.034742,0.0171943,191
0.453271,0.0347526,0.0180136,192
0.453251,0.0347516,0.0188438,190
0.453068,0.0347575,0.0196667,191
0.453322,0.0347448,0.0205096,195
0.453414,0.0347391,0.0213456,198
0.453342,0.0347403,0.0221738,199
0.453489,0.0347321,0.0230134,198
0.453691,0.0347216,0.0238567,197
0.453676,0.0347204,0.0246886,195
0.453606,0.0347214,0.0255175,193
0.453647,0.0347178,0.0263528,194
0.453578,0.0347189,0.0271818,188
0.453839,0.0347059,0.0280316,193
0.453936,0.0346998,0.0288719,192
0.455078,0.0346492,0.0297834,196
0.453804,0.0347017,0.0305313,197
0.453958,0.0346932,0.0313767,193
0.453894,0.0346941,0.0322068,191
0.453775,0.0346973,0.0330328,188
0.453822,0.0346934,0.0338712,187
0.453759,0.0346942,0.0347014,186
0.453971,0.0346833,0.0355538,187
0.454239,0.0346699,0.0364118,189
0.455665,0.0346071,0.0373687,186
0.455219,0.0346243,0.0381696,187
0.454938,0.0346344,0.0389838,187
0.454,0.0346726,0.0397379,188
0.454161,0.0346638,0.0405898,188
0.454049,0.0346667,0.0414169,188
0.453773,0.0346766,0.0422281,189
0.454156,0.0346584,0.0431028,188
0.45388,0.0346682,0.0439138,191
0.455201,0.0346099,0.0448855,198
0.453991,0.0346597,0.0456016,195
0.453992,0.0346578,0.0464405,192
0.454213,0.0346464,0.0473033,195
0.454161,0.0346468,0.0481374,195
0.453725,0.0346635,0.0489292,193
0.454113,0.034645,0.0498123,187
0.454172,0.0346406,0.0506595,187
0.454452,0.0346267,0.051533,188
0.454899,0.0346057,0.0524274,187
0.455402,0.0345823,0.0533306,187
0.455354,0.0345824,0.0541689,190
0.455473,0.0345754,0.0550279,192
0.45526,0.0345826,0.055846,192
0.455324,0.034578,0.0566991,194
0.455721,0.0345591,0.0575957,193
0.455953,0.0345472,0.0584725,191
0.455632,0.0345591,0.0592768,193
0.45592,0.0345448,0.0601626,196
0.455655,0.0345542,0.0609742,197
0.456446,0.0345185,0.0619314,193
0.455737,0.0345469,0.0626813,196
0.455918,0.0345373,0.0635555,195
0.455988,0.0345323,0.0644149,197
0.455615,0.0345464,0.06521,192
0.455409,0.0345533,0.0660289,194
0.456259,0.034515,0.0670057,195
0.455998,0.0345242,0.0678175,196
0.456294,0.0345096,0.0687143,195
0.456535,0.0344973,0.0696041,193
0.456833,0.0344826,0.0705042,188
0.457133,0.0344679,0.0714059,189
0.457377,0.0344555,0.0723004,192
0.457231,0.0344598,0.0731324,194
0.45742,0.0344497,0.0740198,197
0.457723,0.0344348,0.0749272,192
0.457578,0.0344391,0.0757606,192
0.457658,0.0344337,0.0766322,192
0.457907,0.0344211,0.0775338,193
0.457708,0.0344277,0.0783585,190
0.457846,0.0344198,0.0792425,192
0.458041,0.0344095,0.0801375,195
0.458293,0.0343968,0.0810441,188
0.458885,0.0343694,0.0820139,189
0.458237,0.0343953,0.0827583,190
0.458886,0.0343655,0.0837419,189
0.458859,0.0343647,0.0846015,192
0.459795,0.0343225,0.0856442,193
0.459826,0.0343192,0.0865175,192
0.460086,0.0343061,0.0874355,192
0.460175,0.0343003,0.0883218,192
0.460151,0.0342994,0.0891866,194
0.460527,0.0342813,0.0901314,192
0.460732,0.0342705,0.0910439,191
0.460825,0.0342645,0.0919348,188
0.461203,0.0342463,0.0928852,191
0.46124,0.0342428,0.0937668,190
0.461392,0.0342343,0.0946731,190
0.461373,0.0342331,0.0955445,192
0.461583,0.0342221,0.0964652,188
0.461279,0.0342332,0.0972768,189
0.46069,0.0342565,0.0980261,185
0.46113,0.0342356,0.0989985,187
0.461343,0.0342245,0.099923,186
0.461155,0.0342306,0.10076,189
0.461255,0.0342243,0.101661,188
0.461756,0.0342007,0.102654,185
0.46203,0.034187,0.103598,186
0.462131,0.0341806,0.104503,185
0.461889,0.0341891,0.10533,182
0.462107,0.0341777,0.106264,181
0.462326,0.0341663,0.1072,182
0.462372,0.0341622,0.108096,183
0.46242,0.0341582,0.108993,181
0.462583,0.0341492,0.109919,182
0.462863,0.0341351,0.110874,183
0.463144,0.034121,0.111832,187
0.463136,0.0341193,0.11272,189
0.46336,0.0341077,0.113666,188
0.463412,0.0341034,0.11457,188
0.463464,0.0340992,0.115475,185
0.463284,0.0341049,0.116322,184
0.463163,0.0341081,0.117184,185
0.463101,0.0341088,0.118062,185
0.462923,0.0341144,0.118909,186
0.462804,0.0341175,0.119772,187
0.462859,0.0341131,0.120681,186
0.462972,0.0341062,0.121607,184
0.463087,0.0340993,0.122534,179
0.462796,0.0341098,0.123353,184
0.463201,0.0340903,0.124361,180
0.463259,0.0340857,0.125275,185
0.463434,0.0340762,0.126223,186
0.463377,0.0340766,0.127108,181
0.463321,0.034077,0.127993,178
0.463148,0.0340824,0.128846,181
0.463093,0.0340827,0.129732,178
0.46298,0.0340856,0.130603,182
0.462867,0.0340884,0.131473,184
0.462697,0.0340937,0.132327,176
0.462469,0.0341015,0.133165,175
0.462881,0.0340817,0.13419,177
0.463004,0.0340743,0.135132,179
0.462138,0.0341097,0.135781,179
0.462377,0.0340973,0.136758,172
0.461688,0.034125,0.137457,174
0.462334,0.0340951,0.138559,172
0.461298,0.0341378,0.13915,170
0.460728,0.0341603,0.139882,171
0.460506,0.0341679,0.140719,173
0.460227,0.0341779,0.141539,176
0.458742,0.03424,0.14198,176
0.458523,0.0342475,0.142815,173
0.457447,0.0342919,0.143378,172
0.457344,0.0342944,0.144249,170
0.456899,0.0343116,0.14501,172
0.456058,0.0343459,0.145641,172
0.456182,0.0343385,0.146585,171
0.454667,0.034402,0.146992,172
0.454397,0.0344116,0.147805,172
0.45424,0.0344164,0.148655,173
0.453746,0.0344357,0.149393,176
0.452693,0.0344792,0.149941,170
0.452147,0.0345008,0.150658,171
0.451881,0.0345103,0.151468,173
