ply
format ascii 1.0
comment Created by CloudCompare v2.11 alpha (Anoia)
comment Created 2025/12/9 16:18
obj_info Generated by CloudCompare!
element vertex 1428
property float x
property float y
property float z
property float scalar_Scalar_field
end_header
0.329082 -0.509772 0.0103249 205 
0.329146 -0.509783 0.01113 195 
0.329466 -0.50983 0.0119318 200 
0.329531 -0.509841 0.0127378 203 
0.329035 -0.509773 0.0135499 205 
0.328999 -0.50977 0.0143562 203 
0.329372 -0.509824 0.0151596 206 
0.32949 -0.509843 0.0159656 203 
0.329354 -0.509825 0.0167728 206 
0.329525 -0.509851 0.0175792 207 
0.329748 -0.509884 0.0183862 206 
0.329818 -0.509896 0.0191937 208 
0.329735 -0.509886 0.0200008 201 
0.329652 -0.509876 0.0208075 201 
0.330031 -0.509931 0.0216179 202 
0.330206 -0.509958 0.0224276 204 
0.330023 -0.509934 0.0232336 205 
0.331743 -0.510177 0.0240655 203 
0.331714 -0.510175 0.0248763 204 
0.330965 -0.510071 0.0256742 206 
0.331143 -0.510098 0.0264876 207 
0.331426 -0.51014 0.0273039 205 
0.332278 -0.510261 0.0281346 212 
0.331014 -0.510086 0.0289153 213 
0.331969 -0.510221 0.0297513 213 
0.332463 -0.510292 0.0305776 216 
0.332542 -0.510305 0.0313931 217 
0.332157 -0.510253 0.0321938 214 
0.332445 -0.510296 0.0330164 214 
0.332578 -0.510316 0.0338345 219 
0.332557 -0.510315 0.0346473 218 
0.332588 -0.510321 0.0354623 216 
0.33236 -0.510291 0.0362666 214 
0.332444 -0.510305 0.0370838 217 
0.332944 -0.510377 0.0379205 221 
0.333134 -0.510405 0.0387444 219 
0.333012 -0.51039 0.0395537 219 
0.332891 -0.510375 0.0403627 215 
0.33329 -0.510433 0.0411992 213 
0.333066 -0.510403 0.0420029 211 
0.333155 -0.510417 0.0428237 212 
0.333505 -0.510468 0.0436604 212 
0.334693 -0.510637 0.0445494 213 
0.334994 -0.510681 0.0453875 216 
0.335506 -0.510755 0.0462406 218 
0.335126 -0.510703 0.0470365 214 
0.335219 -0.510718 0.0478635 215 
0.335366 -0.510741 0.0486947 213 
0.335618 -0.510778 0.0495343 214 
0.335503 -0.510764 0.0503479 214 
0.335704 -0.510794 0.0511852 214 
0.335485 -0.510765 0.0519908 211 
0.335056 -0.510706 0.0527791 210 
0.335364 -0.510752 0.053626 208 
0.335936 -0.510834 0.0544963 209 
0.335825 -0.51082 0.0553107 205 
0.335608 -0.510791 0.0561157 203 
0.335603 -0.510793 0.056939 203 
0.335704 -0.510809 0.0577721 203 
0.336598 -0.510936 0.0586794 208 
0.337603 -0.511079 0.0596007 214 
0.337175 -0.511021 0.0603879 215 
0.336431 -0.510918 0.0611426 214 
0.336377 -0.510913 0.0619639 212 
0.337331 -0.511048 0.0628881 216 
0.337863 -0.511125 0.0637724 214 
0.336906 -0.510993 0.0645014 210 
0.336801 -0.51098 0.0653187 209 
0.335903 -0.510855 0.0660491 208 
0.335799 -0.510843 0.0668649 207 
0.336013 -0.510875 0.0677166 209 
0.336228 -0.510907 0.0685695 208 
0.336126 -0.510894 0.0693864 209 
0.335761 -0.510845 0.0701718 207 
0.335766 -0.510848 0.071001 205 
0.336406 -0.510939 0.0719086 203 
0.335778 -0.510853 0.0726606 206 
0.335573 -0.510826 0.0734642 207 
0.335264 -0.510785 0.074254 206 
0.335167 -0.510773 0.0750705 210 
0.336603 -0.510976 0.0760899 213 
0.335765 -0.510861 0.0768098 213 
0.335352 -0.510805 0.0775848 215 
0.335415 -0.510815 0.0784243 212 
0.335268 -0.510796 0.0792348 212 
0.334647 -0.510711 0.0799781 208 
0.334711 -0.510722 0.0808178 212 
0.333725 -0.510585 0.0815053 213 
0.334368 -0.510678 0.0824295 209 
0.333228 -0.510519 0.0830902 215 
0.333242 -0.510523 0.0839216 219 
0.332786 -0.510461 0.0846814 220 
0.332488 -0.510421 0.0854643 217 
0.332086 -0.510366 0.0862303 218 
0.331842 -0.510334 0.0870201 212 
0.330665 -0.510171 0.0876594 211 
0.329906 -0.510066 0.0883628 207 
0.329769 -0.510048 0.0891658 210 
0.329426 -0.510002 0.0899345 212 
0.329547 -0.510021 0.0907804 214 
0.329927 -0.510076 0.0916713 213 
0.329636 -0.510037 0.0924486 215 
0.329811 -0.510064 0.0933062 208 
0.329728 -0.510054 0.0941196 211 
0.329594 -0.510037 0.0949241 210 
0.329358 -0.510006 0.09571 207 
0.329483 -0.510025 0.0965611 208 
0.33028 -0.510139 0.0975367 202 
0.329528 -0.510035 0.0982282 203 
0.329397 -0.510019 0.0990337 201 
0.330662 -0.510199 0.100104 203 
0.3296 -0.510051 0.100734 204 
0.329367 -0.51002 0.10152 205 
0.329341 -0.510018 0.102347 202 
0.329316 -0.510017 0.103174 199 
0.329549 -0.510051 0.104053 202 
0.329679 -0.510072 0.104912 204 
0.329449 -0.510041 0.1057 197 
0.329374 -0.510033 0.106519 201 
0.329402 -0.510038 0.107359 199 
0.32969 -0.510081 0.108254 201 
0.329979 -0.510123 0.109151 201 
0.330061 -0.510137 0.110006 202 
0.329678 -0.510085 0.110762 203 
0.329916 -0.51012 0.111651 199 
0.330104 -0.510149 0.112531 199 
0.329825 -0.510111 0.113309 199 
0.329651 -0.510089 0.11411 198 
0.329736 -0.510103 0.114969 197 
0.32946 -0.510066 0.115747 195 
0.329598 -0.510087 0.116619 197 
0.329684 -0.510101 0.11748 199 
0.329513 -0.510079 0.118282 201 
0.329652 -0.5101 0.119157 199 
0.329481 -0.510078 0.11996 197 
0.329986 -0.510151 0.120923 200 
0.329867 -0.510136 0.12174 200 
0.329594 -0.5101 0.122519 198 
0.329736 -0.510122 0.123399 192 
0.329775 -0.510129 0.124254 190 
0.329763 -0.510129 0.125098 191 
0.330011 -0.510166 0.126007 194 
0.330416 -0.510225 0.126957 194 
0.330406 -0.510226 0.127804 188 
0.330708 -0.51027 0.128732 190 
0.330646 -0.510263 0.129567 188 
0.331108 -0.51033 0.130539 188 
0.330419 -0.510235 0.131213 189 
0.330463 -0.510243 0.132077 190 
0.330403 -0.510237 0.132914 187 
0.3305 -0.510253 0.133794 188 
0.330649 -0.510276 0.134689 186 
0.331114 -0.510343 0.135671 185 
0.330899 -0.510315 0.136469 186 
0.332261 -0.510508 0.137701 186 
0.330678 -0.510287 0.138124 185 
0.330936 -0.510326 0.139054 185 
0.331352 -0.510386 0.14003 185 
0.331138 -0.510358 0.140831 180 
0.330925 -0.51033 0.141631 181 
0.331027 -0.510346 0.142522 177 
0.331762 -0.510452 0.143596 177 
0.331496 -0.510416 0.144384 175 
0.331811 -0.510463 0.14534 172 
0.332286 -0.510532 0.146346 176 
0.332445 -0.510556 0.147261 175 
0.332445 -0.510558 0.148129 173 
0.33234 -0.510545 0.148967 174 
0.332765 -0.510607 0.149965 170 
0.332396 -0.510557 0.150723 172 
0.332769 -0.510611 0.151709 173 
0.332772 -0.510614 0.152582 174 
0.332934 -0.510639 0.153506 171 
0.333098 -0.510664 0.154431 170 
0.332836 -0.510629 0.155224 172 
0.333053 -0.510661 0.156168 164 
0.333005 -0.510657 0.15703 169 
0.334024 -0.510802 0.158234 162 
0.334674 -0.510896 0.159324 165 
0.334734 -0.510906 0.160225 167 
0.334526 -0.510879 0.16104 168 
0.334588 -0.51089 0.161944 170 
0.335188 -0.510976 0.163026 173 
0.335682 -0.511048 0.164077 174 
0.335637 -0.511044 0.164949 170 
0.335971 -0.511093 0.16595 173 
0.336035 -0.511104 0.166862 173 
0.335938 -0.511092 0.167719 164 
0.336491 -0.511172 0.1688 164 
0.336448 -0.511168 0.169679 165 
0.336841 -0.511225 0.170709 160 
0.336962 -0.511245 0.171647 167 
0.337466 -0.511318 0.17272 158 
0.338027 -0.511399 0.173816 161 
0.338919 -0.511527 0.175033 162 
0.338604 -0.511484 0.175824 161 
0.340607 -0.511769 0.177446 149 
0.340014 -0.511687 0.17814 144 
0.340142 -0.511707 0.179093 141 
0.339993 -0.511688 0.179947 147 
0.340121 -0.511708 0.180903 147 
0.340361 -0.511744 0.181902 146 
0.340157 -0.511718 0.182738 146 
0.340621 -0.511785 0.183823 151 
0.340974 -0.511837 0.184869 144 
0.340938 -0.511834 0.18577 145 
0.341182 -0.51187 0.186779 141 
0.341147 -0.511868 0.187682 141 
0.341391 -0.511904 0.188694 142 
0.341749 -0.511957 0.189751 140 
0.341603 -0.511938 0.190616 133 
0.341514 -0.511928 0.191502 132 
0.341929 -0.511988 0.192587 128 
0.341841 -0.511978 0.193476 131 
0.342033 -0.512007 0.194477 126 
0.34262 -0.512092 0.195636 126 
0.343096 -0.512161 0.196755 122 
0.343518 -0.512223 0.197854 128 
0.342584 -0.512093 0.198408 122 
0.34261 -0.512099 0.199349 116 
0.342919 -0.512145 0.200406 113 
0.343116 -0.512175 0.20142 113 
0.342805 -0.512133 0.202225 116 
0.342663 -0.512115 0.203101 119 
0.342805 -0.512137 0.204095 117 
0.342777 -0.512136 0.20502 120 
0.34275 -0.512134 0.205945 118 
0.342836 -0.512148 0.206919 121 
0.343206 -0.512203 0.208016 122 
0.34284 -0.512153 0.2088 129 
0.342701 -0.512136 0.209681 128 
0.343243 -0.512214 0.210856 127 
0.343502 -0.512253 0.211912 113 
0.342966 -0.512179 0.212624 106 
0.342488 -0.512114 0.213359 113 
0.342125 -0.512065 0.214144 119 
0.341197 -0.511936 0.214679 116 
0.341625 -0.511999 0.215813 114 
0.341376 -0.511966 0.216648 112 
0.340846 -0.511893 0.217356 113 
0.340598 -0.51186 0.218191 114 
0.340802 -0.511891 0.219229 115 
0.340217 -0.511811 0.219911 117 
0.339914 -0.51177 0.22072 117 
0.322001 -0.504911 -0.186992 4 
0.321802 -0.504887 -0.185982 3 
0.321916 -0.504904 -0.185123 5 
0.322392 -0.504969 -0.184436 5 
0.328347 -0.505751 -0.186332 4 
0.320965 -0.504786 -0.181943 4 
0.325873 -0.505431 -0.183328 3 
0.324361 -0.505235 -0.181708 5 
0.323432 -0.505115 -0.180365 6 
0.321888 -0.504915 -0.178743 6 
0.322935 -0.505054 -0.178318 8 
0.324249 -0.505229 -0.178011 4 
0.32447 -0.50526 -0.177202 5 
0.3249 -0.505318 -0.176488 7 
0.323661 -0.505158 -0.175021 7 
0.324507 -0.505271 -0.174496 7 
0.321619 -0.504894 -0.172301 8 
0.3222 -0.504972 -0.17166 10 
0.324235 -0.505241 -0.17166 8 
0.32259 -0.505028 -0.170034 9 
0.323952 -0.505208 -0.169732 8 
0.323604 -0.505165 -0.168679 10 
0.323516 -0.505155 -0.167742 10 
0.32405 -0.505227 -0.167075 10 
0.322102 -0.504974 -0.16534 10 
0.323098 -0.505107 -0.164873 14 
0.324099 -0.50524 -0.164404 14 
0.323236 -0.505129 -0.163143 13 
0.325642 -0.505446 -0.163263 12 
0.325659 -0.505451 -0.162373 13 
0.323909 -0.505223 -0.160747 14 
0.32341 -0.50516 -0.159648 15 
0.324464 -0.5053 -0.159193 13 
0.323499 -0.505175 -0.157905 13 
0.324346 -0.505288 -0.157363 14 
0.322868 -0.505097 -0.155872 16 
0.323816 -0.505223 -0.15537 11 
0.324509 -0.505316 -0.154762 13 
0.321036 -0.504862 -0.152484 16 
0.320498 -0.504794 -0.15139 17 
0.318699 -0.504559 -0.149799 14 
0.319579 -0.504677 -0.149273 16 
0.318745 -0.504569 -0.148072 17 
0.317464 -0.504403 -0.1467 17 
0.317188 -0.504369 -0.145725 20 
0.317062 -0.504354 -0.144809 24 
0.315992 -0.504216 -0.143532 22 
0.315819 -0.504195 -0.142603 25 
0.315646 -0.504174 -0.141676 20 
0.315721 -0.504186 -0.140843 23 
0.315302 -0.504133 -0.139826 24 
0.31518 -0.504119 -0.138921 26 
0.315503 -0.504164 -0.138184 26 
0.314741 -0.504065 -0.137045 25 
0.314769 -0.504071 -0.136199 26 
0.314747 -0.50407 -0.135337 27 
0.31507 -0.504114 -0.134601 32 
0.315542 -0.504178 -0.133917 28 
0.315719 -0.504203 -0.133127 33 
0.315501 -0.504177 -0.132196 34 
0.315875 -0.504228 -0.131476 34 
0.315609 -0.504195 -0.13053 32 
0.315441 -0.504175 -0.12962 36 
0.315767 -0.50422 -0.128883 38 
0.316093 -0.504264 -0.128146 35 
0.316025 -0.504257 -0.127273 35 
0.316698 -0.504348 -0.126655 39 
0.31673 -0.504354 -0.125816 39 
0.317505 -0.504457 -0.12523 39 
0.316793 -0.504366 -0.124139 40 
0.317469 -0.504457 -0.123518 40 
0.3177 -0.504489 -0.122747 37 
0.317485 -0.504463 -0.121827 45 
0.317816 -0.504508 -0.121089 43 
0.318247 -0.504567 -0.120383 45 
0.318331 -0.50458 -0.119562 46 
0.318315 -0.504579 -0.11871 42 
0.319097 -0.504684 -0.118115 45 
0.319531 -0.504743 -0.117407 45 
0.319566 -0.50475 -0.116571 52 
0.320302 -0.504848 -0.115957 49 
0.319987 -0.504809 -0.11501 47 
0.320324 -0.504855 -0.114269 50 
0.320762 -0.504915 -0.113558 49 
0.3211 -0.504961 -0.112816 48 
0.321489 -0.505014 -0.112089 59 
0.321326 -0.504994 -0.111192 61 
0.321766 -0.505054 -0.11048 56 
0.322865 -0.505201 -0.109963 55 
0.322095 -0.505101 -0.108887 63 
0.322084 -0.505102 -0.108038 63 
0.322932 -0.505215 -0.107443 72 
0.323073 -0.505236 -0.106638 73 
0.323214 -0.505256 -0.105834 69 
0.323407 -0.505283 -0.105045 68 
0.323905 -0.505351 -0.104343 69 
0.324658 -0.505452 -0.103712 68 
0.324853 -0.505479 -0.102921 66 
0.324691 -0.50546 -0.10203 63 
0.325653 -0.505588 -0.101453 68 
0.325542 -0.505576 -0.100576 77 
0.325483 -0.50557 -0.0997154 75 
0.326193 -0.505665 -0.0990644 78 
0.326853 -0.505754 -0.0983974 79 
0.32767 -0.505863 -0.0977704 77 
0.327354 -0.505824 -0.0968394 77 
0.327606 -0.505859 -0.0960604 75 
0.327806 -0.505887 -0.0952674 75 
0.328369 -0.505963 -0.0945694 76 
0.328519 -0.505985 -0.0937624 79 
0.32867 -0.506007 -0.0929554 85 
0.329236 -0.506083 -0.0922534 89 
0.329492 -0.506118 -0.0914724 88 
0.330164 -0.506209 -0.0907954 89 
0.329797 -0.506163 -0.0898574 88 
0.330628 -0.506274 -0.0892174 88 
0.330782 -0.506296 -0.0884094 94 
0.331303 -0.506366 -0.0876894 92 
0.331354 -0.506375 -0.0868554 93 
0.331772 -0.506432 -0.0861094 96 
0.331667 -0.50642 -0.0852384 99 
0.332086 -0.506477 -0.0844914 101 
0.333085 -0.506611 -0.0838794 101 
0.33335 -0.506647 -0.0830934 101 
0.333615 -0.506684 -0.0823064 105 
0.333247 -0.506638 -0.0813754 98 
0.33346 -0.506668 -0.0805781 108 
0.333252 -0.506642 -0.0796857 102 
0.333994 -0.506742 -0.0790054 102 
0.334526 -0.506814 -0.0782767 100 
0.334425 -0.506802 -0.0774082 105 
0.334853 -0.506861 -0.0766551 97 
0.335548 -0.506954 -0.0759581 88 
0.335713 -0.506978 -0.0751463 91 
0.336252 -0.507051 -0.074413 91 
0.336685 -0.50711 -0.0736562 89 
0.336799 -0.507127 -0.0728322 96 
0.337448 -0.507214 -0.0721179 99 
0.337671 -0.507245 -0.0713149 98 
0.337733 -0.507255 -0.0704795 96 
0.337849 -0.507273 -0.069655 98 
0.337751 -0.507262 -0.0687885 98 
0.338298 -0.507336 -0.0680485 100 
0.338308 -0.507339 -0.0672033 103 
0.338104 -0.507314 -0.0663175 108 
0.33833 -0.507346 -0.0655144 106 
0.338289 -0.507342 -0.0646607 108 
0.33857 -0.507381 -0.0638675 109 
0.338529 -0.507378 -0.0630146 113 
0.338274 -0.507346 -0.0621234 109 
0.338396 -0.507364 -0.0613012 116 
0.338626 -0.507396 -0.0604982 114 
0.338695 -0.507407 -0.0596665 119 
0.338872 -0.507432 -0.0588538 122 
0.339427 -0.507508 -0.0581058 124 
0.340146 -0.507604 -0.057384 126 
0.34038 -0.507637 -0.0565783 130 
0.339211 -0.507485 -0.0555387 126 
0.339176 -0.507482 -0.0546905 128 
0.33855 -0.507401 -0.0537468 117 
0.338516 -0.507399 -0.052901 121 
0.339343 -0.50751 -0.0521922 113 
0.33931 -0.507507 -0.0513459 124 
0.339709 -0.507562 -0.0505669 129 
0.339408 -0.507524 -0.0496798 133 
0.339323 -0.507515 -0.0488268 128 
0.338433 -0.507399 -0.0478545 127 
0.338511 -0.507412 -0.0470283 124 
0.33875 -0.507445 -0.0462257 135 
0.33856 -0.507422 -0.0453611 135 
0.337837 -0.507328 -0.0444219 132 
0.337863 -0.507334 -0.0435905 132 
0.337463 -0.507283 -0.0427006 140 
0.336958 -0.507218 -0.0417983 132 
0.336402 -0.507147 -0.0408914 137 
0.336219 -0.507125 -0.0400362 140 
0.335983 -0.507095 -0.0391752 144 
0.336119 -0.507115 -0.038363 146 
0.335779 -0.507072 -0.0374905 145 
0.335018 -0.506974 -0.0365672 144 
0.334997 -0.506973 -0.0357378 150 
0.335029 -0.506979 -0.0349151 148 
0.334063 -0.506854 -0.033974 147 
0.333625 -0.506798 -0.0330986 150 
0.333868 -0.506832 -0.0323036 150 
0.333014 -0.506721 -0.0313836 156 
0.332632 -0.506672 -0.0305197 158 
0.332511 -0.506658 -0.0296862 159 
0.332132 -0.50661 -0.0288254 164 
0.331857 -0.506576 -0.0279775 157 
0.330963 -0.506459 -0.0270665 158 
0.330897 -0.506453 -0.0262436 153 
0.330111 -0.506351 -0.0253492 154 
0.329944 -0.506331 -0.0245187 148 
0.329983 -0.506338 -0.0237089 155 
0.330537 -0.506413 -0.0229479 157 
0.329806 -0.506318 -0.022066 157 
0.33031 -0.506386 -0.0212991 156 
0.329735 -0.506312 -0.0204347 159 
0.32952 -0.506286 -0.019604 159 
0.329717 -0.506314 -0.0188093 168 
0.328941 -0.506213 -0.0179332 168 
0.328984 -0.506221 -0.0171268 167 
0.329284 -0.506262 -0.0163408 167 
0.329432 -0.506283 -0.015542 172 
0.328965 -0.506224 -0.0146965 168 
0.328399 -0.506151 -0.0138454 165 
0.328649 -0.506186 -0.0130555 165 
0.328442 -0.50616 -0.0122326 168 
0.328438 -0.506162 -0.0114246 171 
0.329406 -0.506291 -0.0106813 184 
0.329199 -0.506266 -0.00985874 176 
0.328533 -0.50618 -0.00900844 182 
0.328278 -0.506148 -0.00818564 182 
0.328838 -0.506223 -0.00741194 182 
0.328787 -0.506219 -0.00660154 180 
0.329349 -0.506295 -0.00582524 184 
0.327923 -0.506108 -0.00494104 186 
0.329199 -0.506278 -0.00420114 186 
0.328844 -0.506233 -0.00337584 188 
0.328847 -0.506236 -0.00256904 192 
0.329617 -0.506339 -0.00179744 189 
0.329416 -0.506315 -0.000980442 197 
0.328961 -0.506256 -0.000153643 191 
0.328507 -0.506198 0.000671257 193 
0.328411 -0.506187 0.00148076 188 
0.328571 -0.50621 0.00228046 191 
0.329088 -0.50628 0.00306836 187 
0.329146 -0.50629 0.00387306 204 
0.329308 -0.506313 0.00467466 190 
0.329521 -0.506343 0.00547536 194 
0.329224 -0.506306 0.00629066 191 
0.329336 -0.506322 0.00709446 193 
0.329551 -0.506353 0.00789616 201 
0.329562 -0.506356 0.00870302 199 
0.329472 -0.506346 0.00951187 199 
0.329535 -0.506356 0.0103176 199 
0.329548 -0.506359 0.0111243 198 
0.329715 -0.506383 0.0119289 199 
0.329934 -0.506414 0.0127335 198 
0.330256 -0.506459 0.0135377 206 
0.330169 -0.506449 0.0143466 205 
0.330802 -0.506534 0.0151505 207 
0.330253 -0.506464 0.0159622 206 
0.330116 -0.506447 0.0167708 208 
0.330133 -0.506452 0.0175786 204 
0.330306 -0.506476 0.0183867 208 
0.330273 -0.506474 0.0191949 208 
0.330087 -0.506451 0.0200022 206 
0.329953 -0.506435 0.0208092 203 
0.330333 -0.506487 0.02162 204 
0.330457 -0.506505 0.0224296 203 
0.33053 -0.506517 0.0232392 202 
0.331532 -0.506651 0.0240619 199 
0.331865 -0.506697 0.0248779 199 
0.33163 -0.506668 0.0256852 200 
0.331603 -0.506666 0.0264956 202 
0.331938 -0.506712 0.0273138 209 
0.33186 -0.506704 0.0281237 215 
0.332145 -0.506743 0.0289425 215 
0.33212 -0.506742 0.0297541 213 
0.331941 -0.50672 0.0305611 208 
0.332279 -0.506767 0.0313835 211 
0.332671 -0.50682 0.032209 215 
0.332649 -0.506819 0.0330217 213 
0.332731 -0.506832 0.0338383 216 
0.332709 -0.506831 0.0346513 214 
0.332481 -0.506802 0.035456 211 
0.332772 -0.506843 0.0362818 214 
0.33296 -0.50687 0.0371043 213 
0.333671 -0.506965 0.0379514 212 
0.333966 -0.507006 0.0387816 212 
0.333113 -0.506895 0.0395563 212 
0.33294 -0.506874 0.0403627 208 
0.333236 -0.506915 0.0411936 211 
0.333846 -0.506998 0.0420431 213 
0.333621 -0.50697 0.0428474 212 
0.335125 -0.507171 0.0437527 213 
0.335269 -0.507192 0.0445813 216 
0.335413 -0.507213 0.0454106 215 
0.335505 -0.507227 0.0462372 215 
0.33523 -0.507192 0.04704 216 
0.335165 -0.507185 0.0478563 214 
0.335207 -0.507193 0.04868 211 
0.335144 -0.507186 0.0494965 214 
0.335186 -0.507194 0.0503207 212 
0.335493 -0.507236 0.0511652 214 
0.335695 -0.507265 0.052003 213 
0.335634 -0.507259 0.0528209 214 
0.335785 -0.507281 0.053656 213 
0.335883 -0.507295 0.0544875 217 
0.335824 -0.507289 0.0553062 215 
0.336082 -0.507326 0.0561524 209 
0.33666 -0.507404 0.0570282 204 
0.335809 -0.507293 0.0577769 206 
0.335752 -0.507287 0.0585961 207 
0.336066 -0.507331 0.0594504 208 
0.336486 -0.507388 0.0603163 207 
0.336643 -0.507411 0.0611582 209 
0.337279 -0.507497 0.0620489 212 
0.337172 -0.507485 0.0628664 212 
0.337012 -0.507466 0.0636784 209 
0.33627 -0.507369 0.0644285 209 
0.33606 -0.507343 0.0652332 205 
0.335797 -0.50731 0.0660317 207 
0.33755 -0.507544 0.067054 203 
0.337659 -0.507561 0.067897 203 
0.336281 -0.50738 0.0685695 204 
0.337774 -0.50758 0.069573 204 
0.337939 -0.507603 0.0704246 205 
0.336772 -0.507451 0.0711163 205 
0.338378 -0.507665 0.0721439 205 
0.337263 -0.50752 0.0728391 205 
0.336102 -0.507368 0.0735245 207 
0.336162 -0.507378 0.0743626 205 
0.335958 -0.507352 0.0751669 207 
0.335967 -0.507356 0.0759988 204 
0.335659 -0.507317 0.0767886 206 
0.335722 -0.507327 0.0776279 206 
0.335626 -0.507316 0.0784461 208 
0.335478 -0.507298 0.079257 211 
0.335649 -0.507323 0.0801127 212 
0.335661 -0.507326 0.0809467 212 
0.335621 -0.507323 0.0817735 212 
0.335422 -0.507298 0.0825772 206 
0.334644 -0.507197 0.083294 209 
0.335503 -0.507313 0.0842557 212 
0.335571 -0.507324 0.0850999 214 
0.335375 -0.5073 0.0859039 212 
0.334441 -0.507178 0.0865918 210 
0.333039 -0.506994 0.0872023 208 
0.332637 -0.506943 0.0879685 208 
0.332185 -0.506885 0.0887253 211 
0.332046 -0.506868 0.0895324 210 
0.332064 -0.506872 0.0903655 213 
0.33203 -0.50687 0.0911903 215 
0.331789 -0.50684 0.0919801 213 
0.331705 -0.50683 0.0927964 209 
0.331933 -0.506863 0.0936673 211 
0.331902 -0.50686 0.0944937 211 
0.331663 -0.506831 0.0952835 211 
0.331529 -0.506815 0.0960917 210 
0.33176 -0.506847 0.0969661 206 
0.331678 -0.506838 0.0977846 204 
0.331181 -0.506774 0.098526 205 
0.330581 -0.506697 0.0992469 203 
0.330814 -0.506729 0.100123 206 
0.330423 -0.506679 0.100882 206 
0.330345 -0.506671 0.1017 203 
0.33089 -0.506745 0.10264 201 
0.331855 -0.506875 0.103665 206 
0.330165 -0.506653 0.104166 204 
0.330192 -0.506658 0.105006 204 
0.330324 -0.506678 0.105868 203 
0.33082 -0.506745 0.106805 203 
0.330174 -0.506662 0.107509 201 
0.330515 -0.506709 0.108417 200 
0.330337 -0.506687 0.109217 200 
0.331045 -0.506783 0.110205 195 
0.330972 -0.506775 0.111029 202 
0.33184 -0.506892 0.112057 200 
0.33182 -0.506891 0.112895 194 
0.3306 -0.506732 0.113469 197 
0.330633 -0.506738 0.114317 200 
0.330876 -0.506772 0.115213 199 
0.330962 -0.506785 0.116075 193 
0.330997 -0.506792 0.116927 194 
0.331923 -0.506917 0.117983 191 
0.331697 -0.506889 0.118778 192 
0.331996 -0.50693 0.119694 192 
0.331562 -0.506874 0.120439 190 
0.330867 -0.506784 0.121121 196 
0.330748 -0.50677 0.121939 196 
0.3311 -0.506819 0.122871 199 
0.330617 -0.506757 0.123601 193 
0.330761 -0.506778 0.124484 190 
0.330801 -0.506785 0.125343 189 
0.330946 -0.506806 0.126228 189 
0.330987 -0.506814 0.127089 189 
0.331815 -0.506926 0.128149 191 
0.331805 -0.506926 0.128999 190 
0.331008 -0.506822 0.129648 189 
0.330999 -0.506823 0.130498 184 
0.3312 -0.506852 0.131404 188 
0.331664 -0.506915 0.13238 188 
0.331446 -0.506888 0.133178 183 
0.331176 -0.506854 0.133962 185 
0.331275 -0.506869 0.134844 187 
0.331742 -0.506933 0.135828 186 
0.331894 -0.506955 0.136727 187 
0.331783 -0.506943 0.137556 184 
0.332042 -0.506979 0.138488 186 
0.332672 -0.507065 0.139524 183 
0.331559 -0.506919 0.140075 187 
0.33203 -0.506983 0.141069 185 
0.332238 -0.507013 0.141991 183 
0.332448 -0.507043 0.142915 180 
0.333135 -0.507136 0.143978 177 
0.333453 -0.50718 0.144937 175 
0.333505 -0.507189 0.145821 176 
0.333451 -0.507184 0.146674 174 
0.333558 -0.5072 0.147576 172 
0.333665 -0.507216 0.148478 174 
0.334093 -0.507275 0.149478 177 
0.333988 -0.507263 0.150319 179 
0.333777 -0.507237 0.151128 176 
0.333779 -0.507239 0.152003 174 
0.333408 -0.507192 0.152763 169 
0.333625 -0.507223 0.153705 169 
0.334057 -0.507282 0.154715 168 
0.334275 -0.507313 0.155661 175 
0.334763 -0.50738 0.156693 169 
0.334715 -0.507376 0.157558 167 
0.334989 -0.507414 0.158526 168 
0.334996 -0.507417 0.15941 174 
0.334895 -0.507406 0.16026 174 
0.335441 -0.50748 0.161321 174 
0.335773 -0.507526 0.162315 173 
0.335565 -0.507501 0.163133 178 
0.335736 -0.507525 0.164077 173 
0.335583 -0.507507 0.164913 173 
0.336242 -0.507597 0.166023 172 
0.336361 -0.507615 0.166954 164 
0.336535 -0.50764 0.167904 163 
0.33709 -0.507716 0.168987 164 
0.337648 -0.507792 0.170073 162 
0.338482 -0.507905 0.171258 159 
0.338166 -0.507865 0.172047 156 
0.338618 -0.507927 0.173104 153 
0.339238 -0.508011 0.174223 156 
0.338977 -0.507979 0.175033 150 
0.339544 -0.508056 0.176138 147 
0.339946 -0.508112 0.177187 140 
0.340073 -0.508131 0.17814 143 
0.340478 -0.508187 0.179194 147 
0.340718 -0.50822 0.18019 147 
0.341292 -0.508299 0.181312 143 
0.341088 -0.508274 0.182148 143 
0.34133 -0.508308 0.183151 147 
0.341182 -0.50829 0.18401 146 
0.341984 -0.508399 0.185225 139 
0.342172 -0.508426 0.186213 141 
0.341969 -0.508402 0.187054 140 
0.342495 -0.508474 0.188174 138 
0.342911 -0.508531 0.189253 138 
0.342146 -0.508431 0.189881 147 
0.342562 -0.508489 0.190964 141 
0.342417 -0.508471 0.19183 141 
0.342778 -0.508522 0.192895 137 
0.342633 -0.508504 0.193764 134 
0.343052 -0.508562 0.194856 129 
0.343926 -0.508681 0.196131 125 
0.343328 -0.508603 0.196822 124 
0.342394 -0.508481 0.197377 130 
0.343324 -0.508607 0.198681 123 
0.343691 -0.508658 0.199762 126 
0.343548 -0.508641 0.200637 117 
0.343689 -0.508662 0.201629 120 
0.343831 -0.508683 0.202623 121 
0.343802 -0.508681 0.203547 119 
0.343434 -0.508634 0.204331 117 
0.344773 -0.508815 0.205829 127 
0.343493 -0.508646 0.206231 128 
0.343296 -0.508622 0.207087 128 
0.343724 -0.508682 0.208209 127 
0.343698 -0.50868 0.209139 124 
0.343729 -0.508687 0.210095 119 
0.343761 -0.508693 0.211052 122 
0.343452 -0.508654 0.211863 116 
0.343256 -0.50863 0.212723 121 
0.343346 -0.508644 0.213707 127 
0.343322 -0.508643 0.214643 130 
0.342503 -0.508536 0.215229 115 
0.34163 -0.508422 0.215788 118 
0.34223 -0.508504 0.217001 120 
0.342094 -0.508488 0.217888 114 
0.341336 -0.508389 0.218495 115 
0.340919 -0.508336 0.219255 128 
0.341349 -0.508395 0.220398 126 
0.340537 -0.508289 0.220977 117 
0.323048 -0.501624 -0.187491 5 
0.319488 -0.501188 -0.184875 4 
0.321663 -0.501458 -0.185 4 
0.324382 -0.501795 -0.185375 5 
0.32413 -0.501766 -0.184339 7 
0.321538 -0.501449 -0.182209 6 
0.323836 -0.501734 -0.182373 3 
0.328599 -0.502322 -0.183673 5 
0.324642 -0.501837 -0.180921 4 
0.325282 -0.501918 -0.180303 5 
0.322891 -0.501626 -0.178294 7 
0.322695 -0.501604 -0.177298 7 
0.322138 -0.501537 -0.176139 8 
0.321068 -0.501408 -0.174752 4 
0.3217 -0.501487 -0.174136 11 
0.323059 -0.501657 -0.173843 9 
0.322451 -0.501584 -0.172669 10 
0.325066 -0.501908 -0.172929 10 
0.322686 -0.501617 -0.170973 9 
0.321618 -0.501487 -0.169603 12 
0.323493 -0.501721 -0.169527 13 
0.321906 -0.501527 -0.167937 13 
0.323265 -0.501697 -0.16763 12 
0.324319 -0.501828 -0.167187 12 
0.323245 -0.501698 -0.165828 13 
0.323417 -0.501721 -0.165005 15 
0.32204 -0.501554 -0.163526 14 
0.324125 -0.501813 -0.163515 10 
0.323054 -0.501683 -0.16217 13 
0.325304 -0.501962 -0.16222 13 
0.324281 -0.501838 -0.160898 12 
0.323781 -0.501778 -0.159798 13 
0.322663 -0.501643 -0.158447 16 
0.32522 -0.50196 -0.158608 15 
0.323734 -0.501779 -0.157109 15 
0.322773 -0.501662 -0.15583 15 
0.321716 -0.501534 -0.154517 11 
0.320359 -0.501369 -0.153089 15 
0.321553 -0.501518 -0.152688 14 
0.319742 -0.501297 -0.151087 17 
0.32022 -0.501358 -0.1504 15 
0.318071 -0.501095 -0.148678 16 
0.31895 -0.501205 -0.148151 18 
0.318369 -0.501135 -0.147052 21 
0.318594 -0.501165 -0.146269 19 
0.316815 -0.500948 -0.144713 18 
0.317039 -0.500977 -0.143933 22 
0.315126 -0.500743 -0.142339 24 
0.316441 -0.500908 -0.141977 22 
0.316119 -0.50087 -0.140993 23 
0.31555 -0.500802 -0.139918 26 
0.316022 -0.500862 -0.139236 23 
0.314763 -0.500708 -0.137909 26 
0.315729 -0.500829 -0.137409 27 
0.314916 -0.500731 -0.136254 28 
0.314698 -0.500706 -0.135319 29 
0.315416 -0.500797 -0.134726 33 
0.315099 -0.50076 -0.133757 31 
0.315769 -0.500844 -0.133145 33 
0.315403 -0.500801 -0.13216 34 
0.315531 -0.500819 -0.131353 34 
0.315807 -0.500855 -0.130599 35 
0.315146 -0.500775 -0.129516 33 
0.315374 -0.500805 -0.128745 32 
0.31565 -0.500841 -0.127992 36 
0.31578 -0.500859 -0.127188 37 
0.316404 -0.500938 -0.126553 39 
0.317079 -0.501023 -0.125934 42 
0.316615 -0.500968 -0.124927 35 
0.316746 -0.500986 -0.124123 35 
0.318767 -0.501237 -0.123952 34 
0.317406 -0.501071 -0.122647 39 
0.318035 -0.501151 -0.122008 40 
0.318118 -0.501163 -0.121187 43 
0.317952 -0.501145 -0.120285 45 
0.319482 -0.501335 -0.119936 45 
0.319316 -0.501317 -0.119033 44 
0.318951 -0.501274 -0.118067 50 
0.319836 -0.501385 -0.117503 49 
0.319321 -0.501323 -0.116492 48 
0.320559 -0.501478 -0.116036 54 
0.320093 -0.501422 -0.115042 56 
0.32023 -0.501441 -0.114238 56 
0.320116 -0.501429 -0.113357 58 
0.320454 -0.501473 -0.112615 61 
0.320792 -0.501516 -0.111874 62 
0.321635 -0.501622 -0.111284 64 
0.322937 -0.501785 -0.11083 58 
0.322216 -0.501698 -0.109766 59 
0.322457 -0.50173 -0.108992 65 
0.322344 -0.501718 -0.108113 63 
0.322789 -0.501774 -0.107398 65 
0.323132 -0.501819 -0.106653 65 
0.322515 -0.501744 -0.105629 63 
0.323619 -0.501883 -0.105103 66 
0.324118 -0.501946 -0.104401 73 
0.324465 -0.501991 -0.103654 67 
0.32466 -0.502017 -0.102863 68 
0.325008 -0.502062 -0.102115 73 
0.32546 -0.50212 -0.101396 77 
0.325298 -0.502102 -0.100506 75 
0.325188 -0.50209 -0.0996314 75 
0.325692 -0.502154 -0.0989244 80 
0.325993 -0.502193 -0.0981614 82 
0.326345 -0.502239 -0.0974114 84 
0.327367 -0.502367 -0.0968394 82 
0.327464 -0.502381 -0.0960194 82 
0.327253 -0.502357 -0.0951194 85 
0.327866 -0.502434 -0.0944344 80 
0.328017 -0.502455 -0.0936284 78 
0.328271 -0.502488 -0.0928494 80 
0.328474 -0.502515 -0.0920564 77 
0.328677 -0.502542 -0.0912634 87 
0.329037 -0.502589 -0.0905094 90 
0.329397 -0.502635 -0.0897544 87 
0.329863 -0.502695 -0.0890244 89 
0.330329 -0.502754 -0.0882944 96 
0.331059 -0.502846 -0.0876264 96 
0.331371 -0.502887 -0.0868554 97 
0.331737 -0.502934 -0.0860974 99 
0.331842 -0.502949 -0.0852754 107 
0.331894 -0.502957 -0.0844424 104 
0.332367 -0.503018 -0.0837074 110 
0.332526 -0.503039 -0.0828984 110 
0.332685 -0.503061 -0.0820894 113 
0.333108 -0.503115 -0.0813399 109 
0.33385 -0.503209 -0.0806614 118 
0.333799 -0.503204 -0.0798037 113 
0.334067 -0.503239 -0.0790171 109 
0.334441 -0.503288 -0.0782534 109 
0.334657 -0.503316 -0.0774544 112 
0.335086 -0.503371 -0.076701 108 
0.335517 -0.503426 -0.0759467 103 
0.335469 -0.503422 -0.0750899 94 
0.335369 -0.503412 -0.0742228 102 
0.336281 -0.503527 -0.0735672 107 
0.336128 -0.50351 -0.072689 109 
0.336402 -0.503546 -0.0718992 104 
0.33641 -0.503548 -0.0710549 106 
0.337381 -0.503671 -0.0704042 104 
0.337069 -0.503634 -0.0694954 99 
0.337668 -0.50371 -0.0687674 96 
0.337892 -0.50374 -0.0679647 102 
0.338494 -0.503816 -0.0672344 101 
0.338505 -0.503819 -0.0663894 103 
0.338678 -0.503843 -0.0655755 101 
0.338906 -0.503873 -0.0647715 109 
0.338326 -0.503803 -0.0638177 111 
0.338554 -0.503833 -0.0630146 118 
0.339269 -0.503923 -0.0622992 122 
0.339229 -0.50392 -0.0614462 128 
0.339622 -0.503971 -0.0606705 129 
0.339799 -0.503995 -0.059856 125 
0.339707 -0.503985 -0.0589944 121 
0.340156 -0.504043 -0.0582266 122 
0.340282 -0.50406 -0.0574024 116 
0.339758 -0.503997 -0.0564692 127 
0.339398 -0.503955 -0.0555656 131 
0.339687 -0.503992 -0.0547702 136 
0.339922 -0.504023 -0.0539655 126 
0.33951 -0.503974 -0.0530564 124 
0.340125 -0.504052 -0.052312 123 
0.340146 -0.504057 -0.0514727 121 
0.339789 -0.504015 -0.0505753 117 
0.340352 -0.504086 -0.0498201 122 
0.339996 -0.504044 -0.0489245 124 
0.339696 -0.504009 -0.0480389 127 
0.33999 -0.504047 -0.0472422 130 
0.33969 -0.504012 -0.0463586 129 
0.339823 -0.50403 -0.0455385 127 
0.340173 -0.504076 -0.0447489 134 
0.339822 -0.504034 -0.0438604 128 
0.339148 -0.503952 -0.0429293 131 
0.339337 -0.503978 -0.0421181 134 
0.33915 -0.503956 -0.0412563 137 
0.339125 -0.503955 -0.0404168 136 
0.339208 -0.503967 -0.0395918 142 
0.338219 -0.503847 -0.0386294 143 
0.337555 -0.503766 -0.037712 147 
0.337159 -0.503719 -0.0368309 144 
0.337244 -0.503732 -0.0360105 148 
0.337117 -0.503718 -0.0351645 151 
0.336937 -0.503697 -0.0343129 155 
0.336758 -0.503677 -0.0334624 155 
0.33642 -0.503637 -0.0325947 157 
0.336031 -0.503591 -0.0317227 155 
0.335484 -0.503525 -0.0308349 157 
0.334835 -0.503446 -0.0299382 158 
0.334713 -0.503433 -0.0291009 160 
0.33475 -0.50344 -0.0282811 156 
0.334472 -0.503407 -0.0274287 157 
0.333776 -0.503323 -0.0265351 152 
0.333291 -0.503264 -0.0256654 156 
0.33401 -0.503355 -0.024916 152 
0.333526 -0.503297 -0.0240483 153 
0.332732 -0.503201 -0.0231533 157 
0.333398 -0.503285 -0.0223967 159 
0.332553 -0.503182 -0.0215008 159 
0.33166 -0.503073 -0.020604 163 
0.33191 -0.503106 -0.0198101 162 
0.33159 -0.503068 -0.0189671 162 
0.331685 -0.503082 -0.0181599 160 
0.331522 -0.503064 -0.0173316 169 
0.330895 -0.502988 -0.0164673 166 
0.330682 -0.502963 -0.0156376 165 
0.330625 -0.502958 -0.0148207 168 
0.330723 -0.502972 -0.0140156 168 
0.329843 -0.502865 -0.0131401 170 
0.329685 -0.502847 -0.0123186 173 
0.330298 -0.502925 -0.0115503 167 
0.330141 -0.502907 -0.0107289 172 
0.330139 -0.502909 -0.00991824 175 
0.330343 -0.502936 -0.00912064 181 
0.33029 -0.502931 -0.00830674 177 
0.330135 -0.502914 -0.00748734 178 
0.329673 -0.502858 -0.00665104 175 
0.329725 -0.502867 -0.00584494 180 
0.329521 -0.502843 -0.00502514 181 
0.329113 -0.502794 -0.00419584 185 
0.329782 -0.502879 -0.00342134 180 
0.329784 -0.502881 -0.00261284 187 
0.329788 -0.502884 -0.00180444 187 
0.329638 -0.502867 -0.000989442 190 
0.329541 -0.502857 -0.000177342 193 
0.329597 -0.502865 0.000628258 193 
0.329705 -0.502881 0.00143186 191 
0.329866 -0.502902 0.00223396 191 
0.329258 -0.502829 0.00306306 192 
0.329726 -0.502889 0.00385466 190 
0.329837 -0.502904 0.00465896 189 
0.33 -0.502926 0.00546206 192 
0.329804 -0.502904 0.00627546 191 
0.329763 -0.502901 0.00708416 192 
0.33003 -0.502936 0.00788536 194 
0.330144 -0.502952 0.0086909 193 
0.330412 -0.502987 0.00949374 199 
0.330373 -0.502984 0.010303 200 
0.329924 -0.50293 0.0111186 201 
0.330812 -0.503042 0.0119138 201 
0.330517 -0.503007 0.0127266 201 
0.330532 -0.503011 0.0135351 199 
0.33065 -0.503027 0.0143427 198 
0.330872 -0.503057 0.0151501 198 
0.330682 -0.503035 0.0159603 203 
0.330802 -0.503052 0.0167688 205 
0.330769 -0.503049 0.017578 206 
0.331561 -0.50315 0.0183878 206 
0.331528 -0.503147 0.0191982 203 
0.331962 -0.503203 0.0200107 203 
0.331879 -0.503195 0.0208215 204 
0.331227 -0.503116 0.0216273 203 
0.330424 -0.503018 0.0224291 202 
0.331219 -0.503118 0.0232473 204 
0.331914 -0.503206 0.024067 204 
0.332144 -0.503237 0.024882 205 
0.332012 -0.503222 0.0256916 200 
0.331623 -0.503176 0.0264956 201 
0.331855 -0.503206 0.0273116 200 
0.331984 -0.503224 0.0281261 208 
0.332321 -0.503268 0.0289464 211 
0.332296 -0.503267 0.0297583 214 
0.33248 -0.503291 0.0305761 210 
0.33256 -0.503303 0.0313915 215 
0.332329 -0.503276 0.0321972 209 
0.332306 -0.503276 0.0330092 210 
0.332492 -0.5033 0.0338289 209 
0.332315 -0.50328 0.0346354 209 
0.332657 -0.503325 0.0354623 207 
0.332637 -0.503324 0.0362753 210 
0.33366 -0.503453 0.037134 209 
0.333745 -0.503465 0.0379538 214 
0.333779 -0.503471 0.0387717 212 
0.333761 -0.503471 0.0395872 211 
0.334058 -0.50351 0.0404189 206 
0.334827 -0.503607 0.041277 209 
0.335337 -0.503673 0.0421239 210 
0.335111 -0.503646 0.0429309 208 
0.333838 -0.50349 0.0436757 208 
0.334399 -0.503562 0.0445272 210 
0.334753 -0.503607 0.0453678 207 
0.334898 -0.503627 0.0461966 204 
0.335148 -0.50366 0.047033 210 
0.335611 -0.50372 0.047885 211 
0.335599 -0.50372 0.0487058 218 
0.335536 -0.503714 0.0495229 211 
0.334999 -0.503649 0.0503052 210 
0.335253 -0.503683 0.0511453 211 
0.33535 -0.503697 0.0519745 208 
0.335817 -0.503756 0.0528335 218 
0.336232 -0.50381 0.0536903 217 
0.336013 -0.503785 0.0544963 219 
0.336007 -0.503786 0.0553196 214 
0.336001 -0.503787 0.0561433 209 
0.335891 -0.503775 0.0569578 207 
0.336415 -0.503842 0.0578296 210 
0.338167 -0.504062 0.0588172 211 
0.336302 -0.503832 0.0594703 211 
0.336353 -0.50384 0.060301 211 
0.336404 -0.503848 0.0611322 209 
0.336296 -0.503837 0.061948 209 
0.336667 -0.503885 0.0628123 209 
0.336719 -0.503893 0.0636453 206 
0.337731 -0.504021 0.0645801 205 
0.33832 -0.504096 0.0654735 206 
0.337894 -0.504045 0.0662584 205 
0.337683 -0.504021 0.0670659 203 
0.338113 -0.504076 0.0679454 208 
0.33801 -0.504065 0.0687655 204 
0.337961 -0.504061 0.0695918 201 
0.337966 -0.504063 0.0704246 201 
0.33733 -0.503986 0.0711805 199 
0.33787 -0.504055 0.0720783 199 
0.33713 -0.503965 0.0728192 204 
0.336498 -0.503888 0.0735714 202 
0.336559 -0.503898 0.0744103 202 
0.336993 -0.503954 0.0752982 199 
0.336098 -0.503844 0.0760128 201 
0.336055 -0.503841 0.0768382 204 
0.337021 -0.503963 0.0778011 198 
0.336234 -0.503867 0.0785264 202 
0.33683 -0.503943 0.0794422 207 
0.33631 -0.50388 0.0802027 209 
0.337174 -0.503989 0.0811601 211 
0.336282 -0.50388 0.0818659 212 
0.335818 -0.503824 0.0826317 205 
0.33562 -0.503802 0.0834359 207 
0.335634 -0.503805 0.0842717 209 
0.335384 -0.503776 0.0850675 208 
0.3354 -0.50378 0.0859039 210 
0.335522 -0.503797 0.0867574 208 
0.335539 -0.503801 0.087595 212 
0.335132 -0.503752 0.0883653 204 
0.334358 -0.503658 0.0890746 201 
0.333323 -0.503531 0.0897387 203 
0.332765 -0.503463 0.0904784 204 
0.332574 -0.503441 0.0912782 203 
0.332437 -0.503426 0.0920866 207 
0.332248 -0.503404 0.0928861 209 
0.332425 -0.503428 0.093749 213 
0.332394 -0.503426 0.0945764 212 
0.332154 -0.503398 0.095367 211 
0.332385 -0.503429 0.0962417 212 
0.332408 -0.503434 0.0970799 213 
0.332379 -0.503432 0.0979091 209 
0.332298 -0.503424 0.0987291 207 
0.332113 -0.503403 0.0995298 207 
0.33219 -0.503414 0.10038 203 
0.331954 -0.503387 0.101171 200 
0.331875 -0.503379 0.101991 202 
0.331902 -0.503384 0.102833 200 
0.33172 -0.503363 0.103634 198 
0.331069 -0.503284 0.104342 196 
0.332194 -0.503426 0.105403 200 
0.332065 -0.503412 0.106216 199 
0.33178 -0.503378 0.106997 199 
0.331967 -0.503404 0.107875 199 
0.332102 -0.503422 0.108743 201 
0.332185 -0.503435 0.109601 198 
0.332479 -0.503473 0.110505 202 
0.332301 -0.503453 0.111309 200 
0.332386 -0.503465 0.11217 199 
0.332419 -0.503471 0.11302 199 
0.332137 -0.503438 0.113802 198 
0.332119 -0.503438 0.114642 197 
0.332468 -0.503483 0.115565 201 
0.332188 -0.50345 0.116347 198 
0.332434 -0.503483 0.117249 195 
0.33247 -0.503489 0.118104 195 
0.332454 -0.503489 0.118948 196 
0.332281 -0.50347 0.119755 194 
0.332003 -0.503437 0.120538 189 
0.331988 -0.503437 0.121382 190 
0.332553 -0.503509 0.122366 195 
0.332487 -0.503503 0.1232 197 
0.33258 -0.503517 0.124073 195 
0.332462 -0.503504 0.124896 192 
0.332608 -0.503524 0.125784 188 
0.332808 -0.503551 0.126686 194 
0.33285 -0.503558 0.127551 185 
0.332786 -0.503552 0.128389 191 
0.333041 -0.503586 0.129309 193 
0.332714 -0.503547 0.130081 188 
0.333075 -0.503594 0.13103 188 
0.333173 -0.503608 0.131913 187 
0.3329 -0.503576 0.132699 185 
0.333052 -0.503597 0.133597 186 
0.333045 -0.503598 0.134454 183 
0.333038 -0.503599 0.135312 184 
0.33335 -0.50364 0.136257 187 
0.333398 -0.503648 0.137131 187 
0.333128 -0.503616 0.137919 183 
0.333442 -0.503657 0.138868 184 
0.333597 -0.503679 0.139775 182 
0.333807 -0.503707 0.140699 181 
0.333857 -0.503715 0.141578 183 
0.333908 -0.503723 0.142459 182 
0.334119 -0.503752 0.143387 182 
0.334011 -0.50374 0.144224 179 
0.33385 -0.503722 0.145046 177 
0.333956 -0.503737 0.145946 175 
0.333902 -0.503732 0.1468 170 
0.334169 -0.503768 0.147749 171 
0.334384 -0.503797 0.148685 169 
0.334439 -0.503805 0.149574 170 
0.334334 -0.503794 0.150416 170 
0.334497 -0.503817 0.15134 172 
0.334607 -0.503832 0.152249 170 
0.334771 -0.503855 0.153175 172 
0.334775 -0.503857 0.154053 170 
0.335047 -0.503893 0.155016 172 
0.335052 -0.503896 0.155897 172 
0.33538 -0.503939 0.15688 171 
0.335332 -0.503935 0.157746 171 
0.335554 -0.503965 0.158699 170 
0.335723 -0.503988 0.159636 172 
0.335784 -0.503997 0.16054 169 
0.335791 -0.504 0.161427 178 
0.336558 -0.504098 0.162564 174 
0.336295 -0.504067 0.163366 167 
0.33712 -0.504172 0.164527 174 
0.337075 -0.504169 0.165403 177 
0.337576 -0.504233 0.166463 181 
0.338463 -0.504346 0.167655 171 
0.338145 -0.504309 0.168443 171 
0.338321 -0.504333 0.169399 167 
0.338443 -0.50435 0.170337 164 
0.338676 -0.504381 0.171316 167 
0.339074 -0.504433 0.172353 162 
0.33964 -0.504506 0.173452 158 
0.340042 -0.504558 0.174496 155 
0.340057 -0.504562 0.175405 154 
0.340571 -0.504628 0.176494 153 
0.341422 -0.504737 0.177705 143 
0.341998 -0.504811 0.178822 142 
0.341959 -0.504808 0.179719 143 
0.342425 -0.504868 0.180801 147 
0.342332 -0.504858 0.181681 148 
0.342912 -0.504933 0.182809 145 
0.342538 -0.504888 0.183587 143 
0.343008 -0.504949 0.184678 147 
0.343536 -0.505017 0.185794 143 
0.343726 -0.505043 0.186786 144 
0.343296 -0.504992 0.187544 148 
0.343092 -0.504968 0.188388 152 
0.34334 -0.505001 0.189405 148 
0.343306 -0.504999 0.190315 146 
0.343216 -0.50499 0.191204 143 
0.343805 -0.505066 0.192357 144 
0.34349 -0.505028 0.193161 136 
0.34391 -0.505083 0.194253 140 
0.344617 -0.505174 0.195461 132 
0.344643 -0.505179 0.196402 123 
0.344328 -0.505142 0.197208 127 
0.343729 -0.505069 0.197899 128 
0.343585 -0.505053 0.198773 129 
0.343726 -0.505073 0.199762 129 
0.34381 -0.505085 0.20073 120 
0.343611 -0.505063 0.201582 122 
0.344435 -0.505168 0.202857 124 
0.34361 -0.505067 0.203453 127 
0.343753 -0.505087 0.204449 117 
0.343214 -0.505021 0.205162 121 
0.343414 -0.505049 0.206184 128 
0.344013 -0.505126 0.207376 128 
0.344844 -0.505232 0.208669 124 
0.344075 -0.505138 0.209285 128 
0.343537 -0.505073 0.209998 124 
0.343568 -0.505079 0.210954 123 
0.343943 -0.505128 0.21206 119 
0.34369 -0.505098 0.212896 128 
0.343495 -0.505076 0.213757 123 
0.342561 -0.504961 0.214293 116 
0.34197 -0.504889 0.214978 107 
0.342117 -0.50491 0.215989 110 
0.34164 -0.504852 0.216723 109 
0.34077 -0.504746 0.21728 110 
0.340917 -0.504766 0.218292 97 
0.340556 -0.504723 0.219076 107 
0.340591 -0.50473 0.220039 115 
0.340456 -0.504715 0.220926 114 
0.323551 -0.498262 -0.187741 4 
0.318339 -0.497664 -0.184338 3 
0.323988 -0.498316 -0.186114 5 
0.318769 -0.497717 -0.182731 6 
0.322909 -0.498196 -0.183774 5 
0.322503 -0.498151 -0.182671 6 
0.322046 -0.498101 -0.181547 5 
0.321798 -0.498074 -0.180523 7 
0.321345 -0.498024 -0.179406 4 
0.325581 -0.498514 -0.180449 7 
0.322767 -0.498192 -0.178247 11 
0.322209 -0.49813 -0.177085 6 
0.321756 -0.49808 -0.175975 7 
0.323273 -0.498257 -0.175757 6 
0.322922 -0.498218 -0.174694 7 
0.323299 -0.498264 -0.173959 8 
0.323105 -0.498243 -0.172969 8 
0.323795 -0.498325 -0.172373 8 
0.323029 -0.498239 -0.171133 11 
0.324449 -0.498404 -0.170855 9 
0.324412 -0.498402 -0.169937 10 
0.324166 -0.498376 -0.168928 9 
0.322779 -0.498218 -0.167428 11 
0.323729 -0.49833 -0.166941 12 
0.323537 -0.49831 -0.165961 11 
0.322467 -0.498188 -0.164608 12 
0.324714 -0.498449 -0.164669 15 
0.323639 -0.498327 -0.163318 13 
0.322932 -0.498248 -0.162127 12 
0.32357 -0.498324 -0.161502 14 
0.323744 -0.498346 -0.160682 13 
0.324177 -0.498398 -0.15997 14 
0.325654 -0.49857 -0.159687 13 
0.323386 -0.49831 -0.157863 15 
0.323871 -0.498368 -0.157172 12 
0.323321 -0.498307 -0.156061 11 
0.322054 -0.498163 -0.154662 13 
0.320185 -0.497949 -0.153028 12 
0.318434 -0.49775 -0.15145 15 
0.319112 -0.49783 -0.150845 16 
0.319134 -0.497834 -0.149979 15 
0.31835 -0.497746 -0.148796 18 
0.31782 -0.497687 -0.147717 21 
0.318547 -0.497772 -0.14713 21 
0.318118 -0.497725 -0.146094 19 
0.31734 -0.497637 -0.144925 22 
0.31557 -0.497435 -0.14338 19 
0.315844 -0.497469 -0.142622 22 
0.315225 -0.497399 -0.141525 23 
0.315944 -0.497484 -0.140937 25 
0.315029 -0.49738 -0.139733 27 
0.314611 -0.497334 -0.138719 27 
0.314195 -0.497288 -0.137708 22 
0.314468 -0.497322 -0.136954 26 
0.314496 -0.497327 -0.136109 31 
0.314819 -0.497366 -0.135373 27 
0.314847 -0.497371 -0.134529 34 
0.316111 -0.497519 -0.134132 36 
0.315644 -0.497467 -0.133109 38 
0.315032 -0.497398 -0.132037 32 
0.315801 -0.497489 -0.131459 35 
0.315534 -0.49746 -0.130512 33 
0.315219 -0.497426 -0.12955 29 
0.316089 -0.497528 -0.129004 31 
0.316912 -0.497625 -0.128439 28 
0.3161 -0.497533 -0.127307 32 
0.316033 -0.497527 -0.126434 37 
0.316015 -0.497527 -0.12558 34 
0.316294 -0.497561 -0.124826 42 
0.317069 -0.497653 -0.12424 40 
0.317299 -0.497681 -0.123468 40 
0.31763 -0.497721 -0.12273 42 
0.317663 -0.497727 -0.121893 39 
0.318493 -0.497825 -0.121318 38 
0.317482 -0.49771 -0.120139 43 
0.319962 -0.497998 -0.120099 39 
0.318545 -0.497837 -0.118791 44 
0.319529 -0.497952 -0.11826 48 
0.319514 -0.497952 -0.117407 50 
0.31985 -0.497993 -0.116666 50 
0.320086 -0.498022 -0.115893 54 
0.319871 -0.497999 -0.114979 56 
0.320259 -0.498046 -0.114253 54 
0.320045 -0.498023 -0.113341 59 
0.320785 -0.498111 -0.112723 64 
0.320571 -0.498088 -0.111812 60 
0.321212 -0.498164 -0.111162 65 
0.321805 -0.498234 -0.110495 61 
0.322298 -0.498293 -0.109797 56 
0.321731 -0.49823 -0.108782 66 
0.322224 -0.498289 -0.108083 67 
0.32277 -0.498353 -0.107398 66 
0.322962 -0.498378 -0.106609 66 
0.322901 -0.498372 -0.105746 67 
0.323043 -0.498391 -0.104943 67 
0.322882 -0.498374 -0.104053 68 
0.32404 -0.49851 -0.103538 71 
0.325256 -0.498652 -0.103036 72 
0.323819 -0.498488 -0.101788 73 
0.324932 -0.498619 -0.101254 74 
0.326205 -0.498768 -0.10076 78 
0.325172 -0.49865 -0.0996314 81 
0.325318 -0.498669 -0.0988274 82 
0.326029 -0.498753 -0.0981754 78 
0.326896 -0.498855 -0.0975634 79 
0.326427 -0.498803 -0.0965934 77 
0.326421 -0.498804 -0.0957484 75 
0.327084 -0.498883 -0.0950784 80 
0.327079 -0.498884 -0.0942334 84 
0.3279 -0.498981 -0.0936014 78 
0.32862 -0.499066 -0.0929414 82 
0.328513 -0.499056 -0.0920694 81 
0.328665 -0.499075 -0.0912634 90 
0.328661 -0.499077 -0.0904184 92 
0.329126 -0.499132 -0.0896904 96 
0.329331 -0.499158 -0.0888964 99 
0.329485 -0.499178 -0.0880904 97 
0.330213 -0.499264 -0.0874234 97 
0.330316 -0.499278 -0.0866044 103 
0.330785 -0.499334 -0.0858724 99 
0.331046 -0.499366 -0.0850894 102 
0.331675 -0.499441 -0.0843934 101 
0.331623 -0.499436 -0.0835364 102 
0.332202 -0.499505 -0.0828254 102 
0.332413 -0.499532 -0.0820284 107 
0.332889 -0.499589 -0.081292 101 
0.334054 -0.499725 -0.0807091 107 
0.333633 -0.499679 -0.0797683 105 
0.33406 -0.49973 -0.0790171 103 
0.334063 -0.499732 -0.078172 99 
0.334332 -0.499765 -0.0773851 104 
0.335346 -0.499885 -0.0767583 107 
0.335724 -0.49993 -0.0759922 102 
0.33557 -0.499914 -0.0751125 104 
0.336109 -0.499979 -0.0743794 103 
0.336009 -0.499969 -0.0735117 110 
0.336016 -0.499972 -0.072667 116 
0.336664 -0.500049 -0.0719538 105 
0.336993 -0.500089 -0.0711739 112 
0.337592 -0.50016 -0.0704472 109 
0.337386 -0.500138 -0.0695592 109 
0.337128 -0.50011 -0.068662 107 
0.337245 -0.500125 -0.0678394 113 
0.337631 -0.500172 -0.0670686 114 
0.338125 -0.500231 -0.0663175 113 
0.338406 -0.500266 -0.0655246 111 
0.33858 -0.500288 -0.0647111 110 
0.339024 -0.500341 -0.0639473 112 
0.339578 -0.500407 -0.0632024 115 
0.339051 -0.500348 -0.06226 114 
0.338957 -0.500339 -0.0613978 110 
0.339026 -0.500349 -0.0605651 114 
0.339527 -0.500409 -0.0598086 121 
0.340247 -0.500494 -0.0590884 116 
0.340915 -0.500574 -0.0583571 113 
0.340769 -0.500558 -0.0574854 113 
0.340896 -0.500575 -0.0566604 117 
0.340968 -0.500585 -0.0558264 124 
0.340444 -0.500527 -0.0548946 135 
0.340626 -0.50055 -0.0540797 136 
0.341407 -0.500642 -0.0533606 133 
0.341318 -0.500634 -0.0525012 135 
0.341339 -0.500638 -0.0516596 136 
0.341198 -0.500623 -0.0507932 136 
0.341111 -0.500615 -0.0499361 132 
0.340645 -0.500563 -0.0490225 133 
0.340614 -0.500562 -0.0481758 132 
0.34053 -0.500554 -0.0473218 128 
0.340771 -0.500584 -0.0465157 131 
0.340363 -0.500538 -0.0456159 129 
0.340714 -0.500581 -0.0448254 132 
0.340578 -0.500567 -0.043966 136 
0.34093 -0.50061 -0.0431746 140 
0.341012 -0.500621 -0.0423455 137 
0.340552 -0.50057 -0.041444 146 
0.340743 -0.500594 -0.0406305 131 
0.340664 -0.500587 -0.0397814 141 
0.341019 -0.50063 -0.0389885 143 
0.340616 -0.500585 -0.0380989 144 
0.340377 -0.500559 -0.0372315 148 
0.340085 -0.500527 -0.0363588 151 
0.339793 -0.500495 -0.0354876 153 
0.33961 -0.500476 -0.0346307 158 
0.339536 -0.500469 -0.0337875 158 
0.338603 -0.500363 -0.0328461 161 
0.338691 -0.500375 -0.032024 156 
0.338512 -0.500356 -0.0311721 157 
0.337906 -0.500288 -0.0302745 160 
0.337089 -0.500195 -0.0293568 164 
0.336648 -0.500145 -0.028482 159 
0.336155 -0.50009 -0.0276038 158 
0.335875 -0.50006 -0.0267494 154 
0.335755 -0.500048 -0.0259123 155 
0.33553 -0.500023 -0.0250656 157 
0.335729 -0.500048 -0.0242607 157 
0.335716 -0.500049 -0.0234354 160 
0.335493 -0.500025 -0.0225909 162 
0.334849 -0.499952 -0.0217094 162 
0.335102 -0.499983 -0.02091 163 
0.334619 -0.499929 -0.0200459 161 
0.334452 -0.499911 -0.0192108 163 
0.333918 -0.499851 -0.0183461 163 
0.333596 -0.499816 -0.0175007 165 
0.333328 -0.499786 -0.0166609 159 
0.33306 -0.499757 -0.0158225 165 
0.332949 -0.499746 -0.0149971 166 
0.333257 -0.499784 -0.0142031 167 
0.333252 -0.499785 -0.0133857 166 
0.332778 -0.499732 -0.0125357 170 
0.332099 -0.499655 -0.0116735 168 
0.332044 -0.49965 -0.0108555 169 
0.332093 -0.499658 -0.0100446 170 
0.332195 -0.499672 -0.00923694 174 
0.33235 -0.499692 -0.00843224 175 
0.331622 -0.499609 -0.00757524 180 
0.33126 -0.499569 -0.00674194 184 
0.330796 -0.499517 -0.00590444 185 
0.330539 -0.499489 -0.00507984 183 
0.33085 -0.499527 -0.00428544 186 
0.330698 -0.499511 -0.00346714 187 
0.330546 -0.499495 -0.00264954 187 
0.330859 -0.499533 -0.00185384 194 
0.330915 -0.499542 -0.00104584 195 
0.330404 -0.499484 -0.000213943 196 
