0.444629,-0.0218666,0.0216868,212
0.445025,-0.0219369,0.0225221,213
0.444906,-0.0219181,0.0233305,206
0.444684,-0.0218817,0.0241327,206
0.444927,-0.0219256,0.0249617,204
0.445171,-0.0219696,0.0257919,208
0.445261,-0.0219869,0.0266134,205
0.445559,-0.0220401,0.0274489,208
0.445858,-0.0220935,0.0282857,207
0.446886,-0.0222728,0.0291739,203
0.447188,-0.0223268,0.030015,201
0.447282,-0.0223449,0.0308423,200
0.446959,-0.022291,0.0316392,207
0.447315,-0.0223543,0.0324868,208
0.447463,-0.0223817,0.0333197,204
0.447298,-0.0223551,0.0341283,206
0.447499,-0.0223918,0.0349666,204
0.448069,-0.0224919,0.0358365,204
0.44801,-0.0224836,0.0366551,204
0.448057,-0.0224936,0.0374829,203
0.448419,-0.022558,0.0383393,207
0.448099,-0.0225047,0.0391351,203
0.447519,-0.0224064,0.0399056,197
0.447149,-0.0223445,0.0406942,194
0.447303,-0.022373,0.0415324,192
0.447144,-0.0223474,0.0423405,195
0.447561,-0.0224213,0.0432063,198
0.447875,-0.0224773,0.0440632,195
0.447298,-0.0223796,0.0448287,196
0.447508,-0.0224177,0.0456758,199
0.447666,-0.0224469,0.0465184,204
0.447719,-0.022458,0.0473504,207
0.448299,-0.02256,0.0482418,205
0.447986,-0.0225079,0.0490341,208
0.448095,-0.0225285,0.0498741,207
0.447993,-0.0225129,0.0506903,205
0.447945,-0.0225065,0.0515127,203
0.44795,-0.0225093,0.0523417,205
0.447851,-0.022494,0.0531581,206
0.447909,-0.022506,0.0539942,208
0.447758,-0.0224819,0.0548043,207
0.447503,-0.0224397,0.0556006,211
0.447354,-0.0224158,0.0564101,214
0.447362,-0.0224191,0.0572404,214
0.447214,-0.0223954,0.05805,213
0.447066,-0.0223718,0.0588593,215
0.447076,-0.0223755,0.0596904,212
0.447402,-0.0224335,0.0605661,217
0.447623,-0.0224737,0.0614286,216
0.445699,-0.0221434,0.0619827,219
0.445555,-0.0221204,0.0627901,221
0.445256,-0.0220706,0.0635743,223
0.444698,-0.0219761,0.0643189,224
0.444659,-0.0219714,0.0651407,222
0.444674,-0.0219758,0.0659709,220
0.444481,-0.0219444,0.0667692,218
0.444496,-0.0219489,0.0676,221
0.443684,-0.0218105,0.0682992,221
0.441848,-0.0214954,0.0688303,219
0.441608,-0.0214559,0.0696157,218
0.441114,-0.0213724,0.0703584,215
0.441131,-0.0213772,0.0711853,215
0.441098,-0.0213734,0.072004,215
0.440555,-0.0212815,0.0727359,215
0.440065,-0.0211987,0.0734752,215
0.439627,-0.0211249,0.0742221,216
0.438431,-0.0209203,0.074834,215
0.438451,-0.0209256,0.0756588,215
0.438724,-0.0209746,0.0765299,214
0.438947,-0.0210151,0.0773934,218
0.438261,-0.0208984,0.0780904,208
0.43798,-0.0208518,0.0788608,209
0.437952,-0.0208488,0.0796781,210
0.437924,-0.0208459,0.0804959,208
0.437696,-0.0208082,0.0812754,205
0.43782,-0.0208316,0.0821231,203
0.437693,-0.0208116,0.0829224,203
0.437919,-0.0208526,0.0837916,203
0.438096,-0.020885,0.0846523,204
0.438071,-0.0208826,0.0854734,204
0.438148,-0.0208978,0.0863157,203
0.438024,-0.0208781,0.0871173,201
0.437798,-0.0208411,0.087898,198
0.438028,-0.0208827,0.0887737,201
0.437955,-0.0208721,0.0895868,200
0.438035,-0.0208877,0.0904326,198
0.438165,-0.0209121,0.0912902,196
0.438246,-0.0209279,0.092138,200
0.438428,-0.0209614,0.093009,198
0.438155,-0.0209161,0.0937804,200
0.437681,-0.020836,0.0945063,197
0.438168,-0.0209221,0.0954474,207
0.438099,-0.0209121,0.0962647,197
0.438081,-0.0209109,0.0970939,198
0.438064,-0.0209098,0.0979237,196
0.43825,-0.0209438,0.0988013,192
0.438284,-0.0209517,0.0996446,200
0.438624,-0.0210123,0.100561,195
0.438507,-0.020994,0.10137,197
0.438848,-0.0210549,0.10229,202
0.438782,-0.0210455,0.103112,201
0.438463,-0.0209923,0.103873,199
0.43845,-0.0209919,0.104709,196
0.438487,-0.0210003,0.105558,195
0.438882,-0.0210705,0.106497,191
0.438819,-0.0210615,0.107323,194
0.439063,-0.0211056,0.108227,190
0.439205,-0.0211321,0.109107,185
0.439194,-0.0211322,0.109948,184
0.439286,-0.02115,0.110816,187
0.439481,-0.0211857,0.111713,189
0.439319,-0.0211595,0.112516,185
0.439361,-0.0211688,0.113374,187
0.439404,-0.0211781,0.114233,188
0.439447,-0.0211876,0.115093,187
0.440056,-0.0212948,0.116107,185
0.439792,-0.0212511,0.116886,183
0.439837,-0.0212609,0.117749,182
0.439934,-0.0212796,0.118627,181
0.440032,-0.0212984,0.119507,181
0.439872,-0.0212728,0.120315,183
0.440331,-0.0213541,0.121299,180
0.440172,-0.0213286,0.122108,175
0.439963,-0.0212943,0.122903,184
0.440578,-0.0214027,0.123937,174
0.441144,-0.0215027,0.12496,174
0.440987,-0.0214774,0.125773,173
0.441815,-0.0216227,0.126878,175
0.44171,-0.0216065,0.127709,177
0.442074,-0.0216714,0.12868,177
0.442282,-0.0217094,0.129607,178
0.442231,-0.0217024,0.130456,176
0.441711,-0.0216144,0.131162,177
0.442441,-0.0217429,0.132253,175
0.442809,-0.0218085,0.133234,179
0.442916,-0.021829,0.134136,177
0.443024,-0.0218496,0.13504,175
0.443814,-0.0219884,0.13616,172
0.443713,-0.0219729,0.137001,180
0.443717,-0.0219757,0.137876,176
0.443722,-0.0219785,0.138751,178
0.443833,-0.0219996,0.139662,173
0.444418,-0.022103,0.140729,177
0.444848,-0.0221793,0.141747,178
0.444908,-0.0221917,0.142646,175
0.444915,-0.0221949,0.143529,172
0.445081,-0.0222258,0.144465,173
0.445302,-0.022266,0.145422,172
0.445257,-0.0222603,0.14629,173
0.446492,-0.0224761,0.147594,173
0.446662,-0.0225076,0.148539,169
0.447155,-0.0225949,0.149597,162
0.447058,-0.0225802,0.150454,162
0.447768,-0.0227052,0.151591,165
0.448157,-0.0227746,0.152621,161
0.448332,-0.0228068,0.153576,160
0.448291,-0.0228018,0.154457,163
0.448682,-0.0228717,0.155493,161
0.448967,-0.022923,0.156493,161
0.44909,-0.0229464,0.157437,159
0.449214,-0.0229698,0.158381,156
0.449991,-0.0231065,0.159566,147
0.45017,-0.0231397,0.160536,151
0.450023,-0.0231162,0.161386,154
0.450313,-0.0231685,0.162399,151
0.451262,-0.0233349,0.16366,141
0.451445,-0.0233687,0.164638,144
0.451353,-0.0233549,0.165514,143
0.452309,-0.0235225,0.166788,146
0.452439,-0.0235472,0.167751,146
0.45246,-0.0235528,0.168674,145
0.45248,-0.0235585,0.169598,139
0.452391,-0.0235451,0.17048,138
0.452191,-0.0235126,0.17132,130
0.452822,-0.023624,0.172485,129
0.452844,-0.02363,0.173414,126
0.452701,-0.0236072,0.174278,128
0.453224,-0.0237,0.175408,137
0.453415,-0.0237351,0.176408,143
0.453718,-0.0237897,0.177455,130
0.45391,-0.0238252,0.178459,132
0.454103,-0.0238608,0.179465,132
0.454353,-0.0239061,0.180496,131
0.454603,-0.0239517,0.181529,125
0.45435,-0.0239099,0.182356,122
0.454209,-0.0238876,0.183229,124
0.454012,-0.0238557,0.18408,121
0.453872,-0.0238335,0.184955,120
0.454236,-0.0238988,0.186042,131
0.454209,-0.0238962,0.186965,128
0.454406,-0.0239326,0.187986,118
0.455055,-0.0240471,0.1892,118
0.454803,-0.0240057,0.190032,123
0.454721,-0.0239936,0.190937,128
0.45464,-0.0239816,0.191842,131
0.454446,-0.0239502,0.1927,130
0.45414,-0.0238993,0.193508,127
0.454566,-0.0239752,0.194638,119
0.45353,-0.0237979,0.195124,122
0.453731,-0.0238348,0.196157,114
0.453202,-0.0237454,0.196865,116
0.453179,-0.0237435,0.197799,111
0.452317,-0.0235962,0.198356,110
0.45263,-0.0236526,0.199442,107
0.452664,-0.0236606,0.200404,111
0.451915,-0.023533,0.201009,113
0.451893,-0.0235314,0.201945,113
0.436298,-0.0164576,-0.206513,5
0.437612,-0.016674,-0.206226,7
0.436003,-0.0164137,-0.204537,5
0.437629,-0.016681,-0.204395,6
0.437847,-0.0167188,-0.20358,6
0.439222,-0.0169452,-0.20331,5
0.436926,-0.0165726,-0.201313,4
0.436728,-0.0165424,-0.200306,5
0.43904,-0.0169218,-0.200469,6
0.438315,-0.0168057,-0.199217,5
0.436657,-0.016537,-0.197538,4
0.440495,-0.0171656,-0.198389,8
0.432974,-0.0159401,-0.194038,8
0.441205,-0.0172857,-0.196879,8
0.436653,-0.0165448,-0.193903,7
0.434601,-0.0162119,-0.192073,9
0.43549,-0.016359,-0.19157,9
0.438777,-0.0168976,-0.192134,8
0.437018,-0.0166126,-0.190445,7
0.435997,-0.0164479,-0.189091,8
0.436735,-0.0165706,-0.188515,9
0.438623,-0.0168808,-0.18844,10
0.437699,-0.0167321,-0.187134,9
0.437299,-0.0166688,-0.186059,11
0.435198,-0.0163279,-0.184253,12
0.436347,-0.0165175,-0.183852,12
0.436467,-0.0165391,-0.183007,14
0.437207,-0.0166621,-0.182426,11
0.435317,-0.0163555,-0.18073,15
0.436106,-0.0164863,-0.180171,15
0.435815,-0.0164408,-0.179157,15
0.435474,-0.0163871,-0.178124,10
0.436417,-0.0165433,-0.177626,13
0.435562,-0.0164057,-0.176383,14
0.435274,-0.0163606,-0.175377,16
0.435858,-0.0164579,-0.174729,17
0.436545,-0.0165723,-0.174121,11
0.436823,-0.0166196,-0.173346,12
0.434537,-0.0162484,-0.17154,14
0.432228,-0.0158732,-0.169734,12
0.431898,-0.0158212,-0.168726,14
0.431017,-0.0156793,-0.167503,14
0.43139,-0.0157423,-0.166778,16
0.429766,-0.0154789,-0.165269,15
0.428649,-0.0152984,-0.163966,15
0.429664,-0.0154662,-0.163495,20
0.428154,-0.0152216,-0.162046,23
0.427,-0.0150349,-0.160741,21
0.428599,-0.0152982,-0.160492,22
0.42897,-0.0153608,-0.159771,24
0.427616,-0.0151415,-0.158398,24
0.427495,-0.0151237,-0.157495,28
0.427374,-0.0151059,-0.156592,28
0.428827,-0.0153453,-0.156276,26
0.427624,-0.0151507,-0.154973,25
0.428044,-0.0152213,-0.154272,26
0.428515,-0.0153001,-0.153589,31
0.428838,-0.0153549,-0.15285,26
0.428177,-0.0152489,-0.151756,36
0.428255,-0.0152636,-0.150931,36
0.428628,-0.0153265,-0.150211,32
0.429298,-0.0154379,-0.149596,31
0.428884,-0.0153721,-0.148596,35
0.428913,-0.0153789,-0.147754,36
0.42914,-0.015418,-0.146982,39
0.429171,-0.0154249,-0.146142,36
0.428955,-0.0153917,-0.145217,35
0.430517,-0.0156488,-0.144903,37
0.430994,-0.0157289,-0.144214,36
0.430877,-0.0157116,-0.143322,38
0.430413,-0.0156378,-0.142315,38
0.430495,-0.0156531,-0.141493,36
0.430627,-0.0156765,-0.140688,41
0.431106,-0.0157568,-0.139998,44
0.431586,-0.0158372,-0.139307,42
0.431868,-0.0158853,-0.13855,43
0.431951,-0.0159009,-0.137728,50
0.432933,-0.0160634,-0.137197,46
0.433768,-0.0162019,-0.136615,47
0.433152,-0.0161031,-0.135568,46
0.433588,-0.0161763,-0.134857,48
0.433623,-0.016184,-0.134019,50
0.43406,-0.0162574,-0.133308,55
0.434096,-0.0162653,-0.13247,55
0.434635,-0.0163553,-0.131789,58
0.434873,-0.0163962,-0.131013,57
0.435919,-0.0165693,-0.130484,58
0.435755,-0.0165443,-0.129584,57
0.435995,-0.0165855,-0.128808,56
0.436033,-0.0165937,-0.127971,57
0.436375,-0.0166517,-0.127224,62
0.436769,-0.016718,-0.126493,66
0.436657,-0.0167015,-0.125611,65
0.436899,-0.0167432,-0.124835,69
0.437346,-0.0168181,-0.124116,73
0.436575,-0.016694,-0.123048,73
0.437631,-0.0168686,-0.122503,70
0.439357,-0.017153,-0.122146,68
0.438733,-0.0170529,-0.121121,74
0.438724,-0.0170534,-0.120271,77
0.439535,-0.0171879,-0.119648,77
0.439066,-0.0171131,-0.118671,80
0.43957,-0.0171976,-0.117962,79
0.43946,-0.0171815,-0.117086,81
0.440428,-0.0173419,-0.1165,84
0.441091,-0.0174523,-0.11583,79
0.441342,-0.0174954,-0.115049,82
0.441233,-0.0174795,-0.114172,73
0.442003,-0.0176073,-0.113526,74
0.442049,-0.0176169,-0.11269,75
0.441579,-0.0175419,-0.111721,75
0.442195,-0.0176447,-0.111033,72
0.443021,-0.0177818,-0.110396,74
0.443642,-0.0178853,-0.109704,78
0.443951,-0.0179379,-0.108933,91
0.443896,-0.0179308,-0.108071,82
0.444154,-0.0179751,-0.107287,83
0.44457,-0.0180451,-0.10654,78
0.445459,-0.0181925,-0.105907,89
0.445878,-0.018263,-0.105159,95
0.445929,-0.0182734,-0.104322,96
0.446245,-0.0183269,-0.103547,91
0.446455,-0.0183634,-0.102747,93
0.446825,-0.0184258,-0.101984,95
0.446667,-0.018402,-0.101099,105
0.446511,-0.0183783,-0.100215,102
0.446724,-0.0184151,-0.0994154,103
0.447095,-0.0184778,-0.0986515,99
0.448421,-0.0186969,-0.0980994,105
0.447577,-0.0185606,-0.0970632,104
0.447686,-0.0185805,-0.0962397,103
0.447638,-0.0185745,-0.095382,97
0.448119,-0.0186552,-0.0946388,94
0.447754,-0.0185973,-0.093714,89
0.448077,-0.0186522,-0.0929364,92
0.448242,-0.0186812,-0.0921251,91
0.447773,-0.0186063,-0.091182,93
0.447992,-0.0186441,-0.0903825,88
0.448317,-0.0186993,-0.0896044,91
0.448326,-0.0187026,-0.0887617,91
0.448653,-0.0187581,-0.0879829,96
0.448715,-0.0187703,-0.0871511,91
0.44846,-0.0187304,-0.0862573,98
0.448577,-0.0187514,-0.085437,104
0.448853,-0.0187986,-0.0846473,106
0.449183,-0.0188546,-0.0838673,105
0.448877,-0.0188063,-0.0829668,108
0.448995,-0.0188277,-0.082147,110
0.448532,-0.0187537,-0.0812199,111
0.448916,-0.0188186,-0.0804497,112
0.448507,-0.0187535,-0.0795352,121
0.447782,-0.0186367,-0.0785665,124
0.447482,-0.0185894,-0.0776758,126
0.447498,-0.0185939,-0.076842,123
0.447409,-0.0185813,-0.0759905,126
0.446482,-0.0184312,-0.0749964,131
0.446186,-0.0183846,-0.0741129,129
0.445734,-0.0183125,-0.0732049,127
0.445284,-0.0182406,-0.0722994,126
0.444628,-0.018135,-0.0713623,120
0.444337,-0.0180892,-0.0704871,116
0.443685,-0.0179843,-0.0695558,119
0.44381,-0.0180066,-0.0687496,120
0.443109,-0.0178937,-0.067815,123
0.442566,-0.0178065,-0.0669076,126
0.441974,-0.0177113,-0.0659952,128
0.441895,-0.0177002,-0.0651623,130
0.441051,-0.0175637,-0.0642169,127
0.440566,-0.0174861,-0.0633275,131
0.439931,-0.0173839,-0.0624187,127
0.440414,-0.0174649,-0.0616715,136
0.439426,-0.0173049,-0.0607166,141
0.439605,-0.017336,-0.0599272,143
0.438824,-0.0172099,-0.0590065,141
0.438348,-0.0171337,-0.0581301,147
0.437774,-0.0170415,-0.0572428,145
0.437202,-0.0169495,-0.0563582,146
0.437182,-0.016948,-0.0555472,152
0.436762,-0.016881,-0.0546859,156
0.437542,-0.0170108,-0.0539766,155
0.437323,-0.0169767,-0.0531415,153
0.436357,-0.0168201,-0.0522169,149
0.435842,-0.0167375,-0.0513502,153
0.435676,-0.0167121,-0.0505266,155
0.435511,-0.0166869,-0.0497041,151
0.435396,-0.0166698,-0.0488882,153
0.435479,-0.0166854,-0.0480952,156
0.435464,-0.0166848,-0.0472913,153
0.435698,-0.0167249,-0.0465145,156
0.435882,-0.016757,-0.045732,153
0.436216,-0.0168136,-0.0449646,159
0.435608,-0.0167157,-0.0440997,159
0.435794,-0.016748,-0.0433171,159
0.43608,-0.0167967,-0.042544,161
0.436516,-0.0168701,-0.0417845,170
0.436356,-0.0168457,-0.0409671,170
0.436246,-0.0168296,-0.0401552,166
0.436187,-0.0168217,-0.0393485,169
0.436277,-0.0168383,-0.0385556,174
0.436318,-0.0168469,-0.0377582,173
0.436758,-0.0169208,-0.036995,173
0.436352,-0.0168561,-0.0361597,172
0.436296,-0.0168487,-0.0353546,172
0.43619,-0.0168332,-0.034546,170
0.436184,-0.0168341,-0.0337458,172
0.436229,-0.0168432,-0.0329496,173
0.436224,-0.0168442,-0.0321497,175
0.436369,-0.0168698,-0.0313609,178
0.436614,-0.0169118,-0.0305787,185
0.43671,-0.0169294,-0.0297856,186
0.436857,-0.0169553,-0.0289957,185
0.436755,-0.0169405,-0.0281893,180
0.436903,-0.0169666,-0.0273991,180
0.436852,-0.0169601,-0.0265964,181
0.437649,-0.0170928,-0.0258441,186
0.43735,-0.0170455,-0.0250262,186
0.437351,-0.0170475,-0.0242262,190
0.437552,-0.0170822,-0.0234371,197
0.438003,-0.0171582,-0.0226602,200
0.438958,-0.0173167,-0.0219068,196
0.438961,-0.0173191,-0.0211044,200
0.437513,-0.0170831,-0.0202353,195
0.437667,-0.0171102,-0.0194424,198
0.438522,-0.0172524,-0.0186787,201
0.439179,-0.0173623,-0.0179039,203
0.438934,-0.0173238,-0.017092,200
0.439192,-0.0173679,-0.0162995,203
0.438646,-0.0172802,-0.0154783,205
0.438503,-0.0172586,-0.0146723,197
0.438812,-0.0173111,-0.013881,199
0.438971,-0.0173391,-0.0130843,199
0.43893,-0.0173342,-0.0122816,204
0.439141,-0.0173706,-0.0114854,200
0.43895,-0.0173412,-0.0106791,201
0.439313,-0.0174026,-0.00988556,203
0.439576,-0.0174476,-0.00908871,205
0.439337,-0.0174101,-0.00828194,203
0.43945,-0.0174305,-0.00748175,204
0.439463,-0.0174345,-0.00667975,202
0.439376,-0.0174221,-0.00587651,202
0.439642,-0.0174677,-0.00507727,203
0.440162,-0.0175548,-0.00427921,206
0.440632,-0.0176339,-0.0034789,212
0.44075,-0.017655,-0.00267515,206
0.441172,-0.0177262,-0.00187185,203
0.440632,-0.0176394,-0.00106601,209
0.441868,-0.0178442,-0.000260626,212
0.441175,-0.0177323,0.00054409,211
0.441601,-0.017804,0.0013514,211
0.44162,-0.0178091,0.00215768,208
0.441844,-0.0178477,0.00296576,212
0.442018,-0.0178781,0.0037742,209
0.441785,-0.0178417,0.00457839,208
0.44196,-0.0178722,0.00538745,210
0.441982,-0.0178778,0.0061948,208
0.441548,-0.0178082,0.00699416,204
0.441826,-0.0178558,0.00780592,207
0.44236,-0.0179454,0.00862429,207
0.442538,-0.0179765,0.0094364,211
0.442666,-0.0179994,0.010248,209
0.444334,-0.0182754,0.0111019,209
0.444568,-0.0183156,0.0119205,213
0.444596,-0.018322,0.0127337,213
0.444418,-0.0182947,0.0135404,213
0.443573,-0.0181576,0.0143234,213
0.443705,-0.0181812,0.015139,212
0.444713,-0.0183487,0.0159888,211
0.444641,-0.0183387,0.016799,212
0.444311,-0.0182864,0.0175982,213
0.444653,-0.0183444,0.0184258,215
0.444737,-0.0183601,0.019243,214
0.444977,-0.0184014,0.0200681,214
0.445217,-0.0184428,0.0208943,214
0.445045,-0.0184164,0.0217001,211
0.44508,-0.018424,0.0225166,213
0.445789,-0.0185424,0.0233706,211
0.446606,-0.0186785,0.0242336,215
0.445811,-0.0185497,0.0250046,214
0.446005,-0.0185834,0.025833,219
0.446147,-0.0186087,0.0266591,211
0.446706,-0.0187025,0.0275128,208
0.447268,-0.0187968,0.028369,205
0.447204,-0.0187881,0.0291847,201
0.447193,-0.0187881,0.0300039,202
0.447182,-0.0187883,0.0308234,204
0.447591,-0.0188573,0.0316741,197
0.447634,-0.0188663,0.0324987,200
0.448097,-0.0189443,0.0333564,201
0.448036,-0.0189362,0.0341743,206
0.447924,-0.0189196,0.034988,207
0.448074,-0.0189462,0.0358233,210
0.44791,-0.0189211,0.0366327,205
0.448114,-0.0189566,0.0374737,205
0.448214,-0.0189749,0.0383065,205
0.448105,-0.0189588,0.0391207,206
0.448311,-0.0189946,0.0399642,210
0.448571,-0.0190392,0.0408138,211
0.448726,-0.0190666,0.0416544,209
0.449886,-0.0192594,0.0425951,209
0.448933,-0.0191045,0.0433279,208
0.449513,-0.0192018,0.0442144,209
0.448827,-0.0190907,0.0449712,206
0.449302,-0.0191709,0.0458492,206
0.449673,-0.0192338,0.0467179,206
0.449675,-0.019236,0.0475476,208
0.44936,-0.019186,0.0483422,203
0.449521,-0.0192145,0.0491901,206
0.448363,-0.0190258,0.0498863,205
0.448209,-0.0190024,0.0506965,205
0.44795,-0.0189617,0.0514938,205
0.448534,-0.0190597,0.0523928,206
0.447961,-0.0189673,0.0531516,206
0.448125,-0.0189961,0.0540008,205
0.447974,-0.0189732,0.054811,206
0.447771,-0.0189417,0.0556142,213
0.447674,-0.0189275,0.0564308,212
0.447315,-0.0188704,0.0572126,213
0.447219,-0.0188565,0.0580288,213
0.447543,-0.0189118,0.0589023,214
0.447553,-0.0189153,0.059734,215
0.447774,-0.0189536,0.0605956,216
0.445587,-0.0185956,0.0611159,219
0.445339,-0.0185565,0.0619076,222
0.445247,-0.0185433,0.0627217,226
0.445207,-0.0185387,0.0635435,223
0.445272,-0.0185513,0.0643812,220
0.444922,-0.0184955,0.0651565,219
0.44421,-0.0183802,0.0658752,215
0.443604,-0.0182823,0.0666081,214
0.441716,-0.0179734,0.0671372,212
0.441834,-0.0179947,0.0679792,214
0.441338,-0.0179149,0.068723,213
0.441354,-0.0179194,0.0695489,211
0.441422,-0.0179325,0.0703838,211
0.440928,-0.0178531,0.0711255,212
0.440997,-0.0178663,0.0719608,209
0.441015,-0.0178712,0.0727882,210
0.441187,-0.0179014,0.0736426,212
0.440696,-0.0178224,0.0743822,208
0.440869,-0.0178528,0.0752377,208
0.440175,-0.0177404,0.0759396,209
0.439027,-0.0175533,0.0765573,209
0.439149,-0.0175753,0.0774026,210
0.438664,-0.0174973,0.078137,207
0.438585,-0.0174861,0.0789455,209
0.438557,-0.0174834,0.0797637,205
0.438529,-0.0174807,0.0805824,204
0.438452,-0.0174698,0.0813918,208
0.438425,-0.0174673,0.0822112,208
0.43855,-0.0174899,0.0830609,210
0.438626,-0.0175042,0.0839016,208
0.438652,-0.0175103,0.0847331,208
0.438728,-0.0175248,0.0855755,208
0.438704,-0.0175227,0.0863982,207
0.43868,-0.0175207,0.0872213,207
0.438708,-0.0175271,0.0880555,203
0.438837,-0.0175504,0.0889116,199
0.439018,-0.0175821,0.0897796,200
0.439048,-0.0175888,0.0906165,201
0.438925,-0.0175705,0.0914212,202
0.439006,-0.0175857,0.0922703,200
0.438935,-0.0175759,0.0930868,196
0.439119,-0.0176081,0.09396,200
0.439049,-0.0175985,0.0947777,200
0.439081,-0.0176057,0.0956188,201
0.439368,-0.0176549,0.0965184,202
0.439452,-0.0176708,0.0973731,197
0.439028,-0.0176026,0.0981113,194
0.439368,-0.0176606,0.0990263,196
0.439453,-0.0176766,0.0998836,196
0.439387,-0.0176675,0.100706,191
0.439269,-0.0176501,0.101516,190
0.439356,-0.0176664,0.102375,192
0.439751,-0.0177334,0.10331,195
0.439686,-0.0177246,0.104135,195
0.439417,-0.0176822,0.10491,195
0.439455,-0.0176904,0.105761,192
0.439545,-0.0177071,0.106625,190
0.440045,-0.0177915,0.107594,188
0.439522,-0.0177071,0.108305,192
0.439664,-0.0177326,0.109185,188
0.439961,-0.0177835,0.110107,191
0.4399,-0.0177753,0.110936,193
0.439839,-0.0177672,0.111767,190
0.439984,-0.017793,0.112652,187
0.440078,-0.0178105,0.113524,190
0.440276,-0.017845,0.114426,190
0.440732,-0.0179221,0.115398,193
0.440725,-0.0179229,0.116247,190
0.440666,-0.0179152,0.117083,185
0.440402,-0.0178737,0.117862,185
0.440551,-0.0179002,0.118756,185
0.441062,-0.0179864,0.119752,186
0.440644,-0.0179194,0.120489,187
0.441105,-0.0179974,0.121475,186
0.441516,-0.018067,0.122448,188
0.44115,-0.0180086,0.123201,182
0.441302,-0.0180357,0.124102,181
0.441923,-0.01814,0.125142,176
0.441973,-0.0181503,0.126017,175
0.441763,-0.0181177,0.126817,176
0.442075,-0.018171,0.127771,170
0.44197,-0.0181557,0.128602,170
0.442753,-0.0182868,0.129701,170
0.442753,-0.0182888,0.130567,173
0.443016,-0.0183341,0.131514,172
0.443174,-0.0183623,0.13243,167
0.443281,-0.0183819,0.133331,170
0.443599,-0.0184363,0.1343,171
0.443654,-0.0184474,0.135188,175
0.443763,-0.0184673,0.136094,172
0.44403,-0.0185134,0.137051,172
0.444404,-0.0185771,0.138044,176
0.444409,-0.0185799,0.138921,177
0.444625,-0.0186177,0.139867,174
0.444896,-0.0186643,0.140832,173
0.44538,-0.0187461,0.141869,173
0.445387,-0.0187493,0.142751,175
0.445713,-0.0188052,0.14374,175
0.446895,-0.0190023,0.145017,176
0.445942,-0.018847,0.145583,176
0.446806,-0.0189916,0.146759,169
0.446976,-0.0190217,0.147703,170
0.447147,-0.0190519,0.148649,171
0.447587,-0.0191266,0.149689,168
0.448029,-0.0192016,0.150733,168
0.44831,-0.0192501,0.151723,164
0.448484,-0.0192809,0.152677,167
0.448443,-0.0192761,0.153557,164
0.448726,-0.0193249,0.154553,162
0.449282,-0.0194187,0.155648,155
0.449568,-0.0194679,0.156649,156
0.450127,-0.0195623,0.15775,155
0.450088,-0.0195579,0.158638,149
0.450595,-0.0196437,0.159726,140
0.45105,-0.0197208,0.160796,151
0.4503,-0.0195991,0.161426,157
0.450919,-0.0197034,0.162561,157
0.450882,-0.0196994,0.163455,148
0.451669,-0.0198314,0.164658,144
0.451248,-0.0197639,0.16541,139
0.452148,-0.0199147,0.166662,140
0.452666,-0.0200022,0.167772,140
0.452354,-0.0199528,0.168568,144
0.452541,-0.0199858,0.169556,142
0.452783,-0.0200279,0.170566,147
0.452694,-0.0200153,0.171449,141
0.452994,-0.0200668,0.172485,134
0.453461,-0.0201461,0.173589,132
0.453484,-0.0201521,0.17452,138
0.453954,-0.0202317,0.17563,131
0.454313,-0.0202932,0.176698,127
0.45473,-0.0203642,0.177792,123
0.454475,-0.0203242,0.178617,127
0.454556,-0.0203398,0.179578,128
0.454582,-0.0203462,0.180518,130
0.454553,-0.0203434,0.181437,127
0.454524,-0.0203407,0.182356,123
0.454495,-0.0203381,0.183276,119
0.45441,-0.0203262,0.184173,124
0.454438,-0.020333,0.185119,122
0.453737,-0.0202194,0.185759,125
0.455058,-0.0204397,0.187251,121
0.455313,-0.0204839,0.188296,124
0.455455,-0.0205097,0.189296,125
0.455091,-0.0204516,0.19008,128
0.455009,-0.0204402,0.190985,125
0.454927,-0.0204288,0.191891,127
0.455015,-0.0204455,0.192871,127
0.455499,-0.0205276,0.194026,127
0.454796,-0.0204137,0.194663,123
0.454209,-0.0203188,0.195348,125
0.45458,-0.0203822,0.196456,119
0.453431,-0.0201945,0.19689,117
0.453408,-0.0201928,0.197825,117
0.453048,-0.0201356,0.198608,117
0.45297,-0.0201248,0.199518,112
0.453622,-0.0202347,0.200761,112
0.452646,-0.0200755,0.201264,114
0.451841,-0.0199446,0.201843,114
0.432795,-0.0124692,-0.204771,4
0.440102,-0.0136046,-0.207364,4
0.437895,-0.0132644,-0.205385,7
0.435764,-0.0129359,-0.203453,5
0.439544,-0.0135244,-0.204327,7
0.438604,-0.0133807,-0.202963,6
0.438456,-0.0133598,-0.201975,8
0.436324,-0.0130311,-0.200063,5
0.437795,-0.0132614,-0.199835,7
0.43619,-0.0130145,-0.198179,8
0.436305,-0.0130345,-0.197323,8
0.436837,-0.013119,-0.196658,7
0.435863,-0.01297,-0.195304,10
0.434277,-0.012726,-0.193679,8
0.436406,-0.0130585,-0.193739,8
0.438085,-0.013321,-0.193588,9
0.436381,-0.0130586,-0.191917,10
0.438739,-0.0134266,-0.192064,10
0.436616,-0.0130992,-0.190215,8
0.440711,-0.0137369,-0.191121,8
0.436282,-0.0130516,-0.188265,10
0.435729,-0.0129678,-0.187123,12
0.435384,-0.0129163,-0.186075,12
0.436949,-0.0131613,-0.185857,10
0.438473,-0.0133998,-0.185614,11
0.435999,-0.0130179,-0.183652,11
0.436842,-0.0131508,-0.183117,13
0.434645,-0.0128118,-0.181288,12
0.436617,-0.01312,-0.181231,16
0.436841,-0.0131568,-0.180431,15
0.434801,-0.0128422,-0.178685,16
0.435076,-0.0128868,-0.17791,15
0.437464,-0.0132596,-0.178011,16
0.434858,-0.012857,-0.176045,14
0.436263,-0.0130771,-0.175735,15
0.435717,-0.0129944,-0.174624,16
0.436045,-0.0130473,-0.173871,13
0.437043,-0.0132044,-0.173388,12
0.435931,-0.0130337,-0.172054,12
0.436054,-0.0130549,-0.171219,10
0.433018,-0.0125854,-0.169128,14
0.432636,-0.012528,-0.1681,16
0.433214,-0.0126198,-0.167452,14
0.430722,-0.0122348,-0.165601,19
0.430446,-0.0121939,-0.164624,18
0.430669,-0.0122306,-0.163842,20
0.428755,-0.0119352,-0.162237,21
0.429324,-0.0120256,-0.161592,22
0.427818,-0.0117936,-0.160154,23
0.427794,-0.0117919,-0.159285,24
0.428066,-0.0118361,-0.158528,23
0.42765,-0.0117733,-0.157513,24
0.427922,-0.0118176,-0.156757,25
0.42785,-0.0118084,-0.155874,25
0.428517,-0.011914,-0.155263,28
0.428151,-0.011859,-0.154272,28
0.428523,-0.0119188,-0.153553,33
0.428502,-0.0119175,-0.152689,33
0.428629,-0.0119391,-0.151881,31
0.428559,-0.0119302,-0.151001,38
0.428588,-0.0119366,-0.150158,40
0.428765,-0.0119661,-0.149368,35
0.428302,-0.0118962,-0.148353,38
0.428234,-0.0118875,-0.147479,35
0.429051,-0.0120165,-0.146914,33
0.429229,-0.0120461,-0.146125,35
0.428768,-0.0119763,-0.145115,35
0.429439,-0.0120826,-0.144497,37
0.430063,-0.0121816,-0.14386,35
0.430838,-0.0123039,-0.143272,36
0.430226,-0.0122107,-0.142215,38
0.430853,-0.0123101,-0.141576,43
0.430935,-0.0123248,-0.140754,37
0.431813,-0.0124632,-0.140195,36
0.4311,-0.0123544,-0.139111,43
0.431283,-0.0123847,-0.138323,45
0.431864,-0.0124769,-0.137664,45
0.432247,-0.0125384,-0.136939,45
0.43263,-0.0126,-0.136214,50
0.432815,-0.0126307,-0.135425,48
0.433551,-0.012747,-0.13481,49
0.433988,-0.0128169,-0.134098,53
0.433672,-0.0127698,-0.133151,50
0.43396,-0.0128164,-0.132392,58
0.434348,-0.0128787,-0.131664,56
0.434787,-0.0129489,-0.130951,56
0.435379,-0.0130429,-0.130284,63
0.435064,-0.0129958,-0.12934,59
0.43672,-0.0132554,-0.128991,61
0.435544,-0.0130743,-0.12779,67
0.436138,-0.0131688,-0.127119,66
0.435975,-0.0131453,-0.126224,72
0.436166,-0.013177,-0.125433,74
0.436409,-0.0132166,-0.124658,76
0.436753,-0.0132721,-0.123911,75
0.437607,-0.0134068,-0.12331,71
0.43775,-0.013431,-0.122503,62
0.438046,-0.013479,-0.121741,63
0.438445,-0.013543,-0.121006,63
0.438794,-0.0135992,-0.120256,70
0.439348,-0.0136875,-0.119563,75
0.438982,-0.0136324,-0.118615,75
0.441081,-0.0139609,-0.118342,80
0.440506,-0.0138734,-0.117336,78
0.440345,-0.0138502,-0.116445,76
0.441059,-0.0139634,-0.115789,73
0.441363,-0.0140125,-0.115021,75
0.441305,-0.0140055,-0.114158,76
0.441093,-0.0139744,-0.113256,79
0.441656,-0.014064,-0.112556,73
0.441962,-0.0141135,-0.111788,76
0.442528,-0.0142034,-0.111086,80
0.442524,-0.0142048,-0.110238,82
0.443247,-0.0143193,-0.109573,83
0.443713,-0.0143937,-0.108842,87
0.444337,-0.0144927,-0.108148,80
0.444648,-0.0145431,-0.107377,81
0.444384,-0.014504,-0.106464,82
0.444801,-0.0145709,-0.105717,85
0.445272,-0.014646,-0.104982,89
0.445639,-0.0147051,-0.104222,97
0.445481,-0.0146824,-0.103336,92
0.446269,-0.0148072,-0.102673,101
0.446217,-0.014801,-0.101813,99
0.446904,-0.0149098,-0.101123,99
0.447698,-0.0150355,-0.100456,99
0.44733,-0.01498,-0.099523,99
0.447703,-0.01504,-0.0987584,97
0.448129,-0.0151084,-0.0980048,97
0.448239,-0.0151273,-0.0971801,100
0.447924,-0.0150803,-0.0962629,102
0.448088,-0.0151077,-0.0954509,103
0.448199,-0.0151269,-0.0946274,105
0.448522,-0.0151792,-0.0938494,102
0.447998,-0.0150995,-0.0928917,102
0.448641,-0.0152015,-0.0921805,107
0.448647,-0.0152045,-0.0913356,114
0.448602,-0.0151993,-0.0904804,104
0.448981,-0.0152604,-0.0897123,106
0.448724,-0.0152223,-0.088815,109
0.448786,-0.0152339,-0.0879829,108
0.4497,-0.0153781,-0.0873191,104
0.44939,-0.0153318,-0.0864131,104
0.449348,-0.0153271,-0.0855604,101
0.449572,-0.0153639,-0.0847595,98
0.448945,-0.0152682,-0.0837967,95
0.449276,-0.0153217,-0.0830167,100
0.449608,-0.0153753,-0.082236,107
0.449887,-0.0154208,-0.0814448,113
0.448997,-0.015284,-0.08044,105
0.449277,-0.0153295,-0.0796499,113
0.449132,-0.015309,-0.0787835,120
0.449307,-0.0153381,-0.0779744,122
0.44927,-0.0153342,-0.0771281,121
0.449605,-0.0153884,-0.0763465,125
0.448774,-0.0152607,-0.075365,119
0.448738,-0.0152571,-0.0745214,126
0.448439,-0.0152124,-0.0736344,127
0.447561,-0.0150775,-0.0726535,123
0.447475,-0.015066,-0.0718054,122
0.447127,-0.0150137,-0.0709158,120
0.447569,-0.0150844,-0.0701535,119
0.446383,-0.0149015,-0.0691341,126
0.445725,-0.0148009,-0.0682017,124
0.445383,-0.0147494,-0.0673204,130
0.44499,-0.01469,-0.0664332,131
0.444494,-0.0146147,-0.0655325,134
0.444156,-0.0145638,-0.0646572,136
0.443405,-0.0144487,-0.0637235,136
0.442915,-0.0143742,-0.0628305,132
0.44253,-0.014316,-0.0619545,134
0.441941,-0.0142261,-0.0610519,135
0.441661,-0.0141843,-0.0601944,137
0.441688,-0.0141904,-0.0593803,137
0.44034,-0.0139822,-0.0583816,141
0.440369,-0.0139884,-0.0575706,140
0.440601,-0.0140265,-0.0567865,143
0.440326,-0.0139854,-0.0559365,144
0.439292,-0.0138262,-0.0549917,146
0.439171,-0.0138092,-0.0541651,141
0.439051,-0.0137922,-0.0533394,148
0.43878,-0.0137519,-0.0524961,147
0.438208,-0.0136646,-0.0516183,149
0.438141,-0.0136559,-0.0508021,150
0.438124,-0.0136551,-0.0499923,152
0.437606,-0.0135761,-0.0491259,153
0.437841,-0.0136146,-0.0483458,157
0.437525,-0.0135672,-0.0475046,156
0.43726,-0.0135277,-0.0466704,161
0.437196,-0.0135196,-0.0458588,157
0.436983,-0.0134881,-0.0450321,154
0.43687,-0.0134724,-0.0442167,161
0.436459,-0.0134101,-0.043372,160
0.436845,-0.0134723,-0.0426077,161
0.437133,-0.013519,-0.0418327,165
0.437322,-0.0135503,-0.0410474,167
0.437162,-0.0135272,-0.0402292,167
0.437552,-0.0135898,-0.0394619,165
0.437343,-0.013559,-0.0386399,171
0.437434,-0.0135751,-0.0378452,169
0.437077,-0.0135211,-0.037012,173
0.43687,-0.0134907,-0.0361929,175
0.437412,-0.0135771,-0.0354359,171
0.437405,-0.0135779,-0.0346334,176
0.437299,-0.0135632,-0.0338233,177
0.437694,-0.0136266,-0.0330518,170
0.437289,-0.0135653,-0.0322198,178
0.437585,-0.0136132,-0.0314401,178
0.437731,-0.0136379,-0.0306489,180
0.437928,-0.0136704,-0.0298608,181
0.437625,-0.013625,-0.0290389,182
0.437573,-0.0136187,-0.0282344,179
0.437722,-0.0136437,-0.027443,179
0.437072,-0.0135442,-0.0266024,184
0.43782,-0.0136628,-0.0258471,179
0.438421,-0.0137585,-0.0250806,181
0.439075,-0.0138623,-0.0243149,187
0.438875,-0.013833,-0.0235013,190
0.439229,-0.01389,-0.0227171,190
0.439181,-0.0138844,-0.0219118,191
0.439184,-0.0138867,-0.0211092,193
0.439037,-0.0138655,-0.0202997,191
0.439242,-0.0138994,-0.0195065,193
0.439196,-0.0138941,-0.018702,198
0.439252,-0.0139046,-0.0179019,200
0.439207,-0.0138995,-0.0170978,201
0.439264,-0.0139102,-0.0162977,200
0.439321,-0.0139209,-0.0154974,197
0.439329,-0.0139239,-0.0146954,195
0.439387,-0.0139349,-0.0138951,195
0.439446,-0.0139459,-0.0130945,198
0.439556,-0.013965,-0.0122953,198
0.439717,-0.0139919,-0.0114969,202
0.439829,-0.0140111,-0.0106969,204
0.440143,-0.014062,-0.0099008,205
0.439851,-0.0140183,-0.00909169,203
0.439863,-0.014022,-0.00828914,201
0.440078,-0.0140574,-0.0074898,203
0.440344,-0.0141008,-0.00669043,205
0.441016,-0.0142076,-0.00589505,205
0.44215,-0.0143865,-0.00510196,208
0.441961,-0.0143589,-0.00429342,206
0.441977,-0.0143632,-0.00348696,210
0.442146,-0.0143914,-0.00268118,212
0.44201,-0.014372,-0.00187389,210
0.441824,-0.0143448,-0.00106707,210
0.441944,-0.0143654,-0.00026067,212
0.442064,-0.014386,0.000546188,212
0.441981,-0.014375,0.00135257,211
0.441747,-0.0143401,0.00215768,212
0.442073,-0.0143929,0.00296661,209
0.441992,-0.0143821,0.00377263,207
0.442217,-0.0144192,0.00458209,203
0.442495,-0.0144644,0.00539316,204
0.442364,-0.0144458,0.00619884,204
0.44295,-0.0145392,0.00701678,205
0.44277,-0.0145128,0.00782193,209
0.442948,-0.0145425,0.00863417,208
0.442871,-0.0145323,0.00944118,209
0.442948,-0.0145462,0.0102519,211
0.443641,-0.0146564,0.0110796,212
0.444079,-0.0147268,0.0119026,211
0.443747,-0.0146767,0.0127036,212
0.444703,-0.0148279,0.0135455,212
0.444783,-0.0148424,0.0143608,213
0.444607,-0.0148166,0.0151672,212
0.444999,-0.0148797,0.0159948,212
0.444926,-0.0148702,0.0168053,215
0.445113,-0.0149013,0.0176265,213
0.444938,-0.0148758,0.0184327,216
0.445178,-0.0149151,0.0192573,216
0.445056,-0.0148979,0.0200656,218
0.445141,-0.0149132,0.020884,214
0.445176,-0.0149204,0.0217001,216
0.445574,-0.0149845,0.022536,214
0.446858,-0.0151872,0.0234224,211
0.445854,-0.015032,0.024183,214
0.446047,-0.0150641,0.0250107,215
0.447703,-0.0153248,0.0259283,215
0.447846,-0.0153491,0.0267574,214
0.447257,-0.0152589,0.0275398,215
0.447245,-0.0152589,0.0283586,211
0.447757,-0.0153407,0.0292133,211
0.447903,-0.0153655,0.0300444,210
0.44763,-0.0153247,0.0308461,209
0.447673,-0.0153332,0.0316702,203
0.447611,-0.0153254,0.0324868,205
0.447602,-0.0153259,0.0333075,202
0.447856,-0.0153675,0.0341492,205
0.448374,-0.0154504,0.0350137,209
0.448841,-0.0155253,0.035876,209
0.448782,-0.0155179,0.0366955,210
0.448407,-0.0154613,0.0374875,212
0.44856,-0.015487,0.0383252,208
0.448608,-0.0154965,0.0391543,208
0.44929,-0.015605,0.0400426,209
0.449076,-0.0155734,0.0408487,211
0.449549,-0.0156492,0.0417208,209
0.449918,-0.0157088,0.0425846,205
0.449281,-0.0156111,0.0433491,206
0.449121,-0.0155881,0.0441603,208
0.448435,-0.0154826,0.0449163,207
0.448646,-0.0155175,0.0457651,207
0.448437,-0.0154866,0.0465695,205
0.448227,-0.0154557,0.0473735,204
0.449232,-0.0156148,0.0483126,203
0.448865,-0.0155592,0.0491,204
0.448446,-0.0154956,0.0498802,207
0.448344,-0.0154816,0.0506965,207
0.448243,-0.0154677,0.0515127,204
0.448407,-0.0154951,0.0523608,205
0.448359,-0.0154896,0.053184,205
0.448524,-0.0155173,0.0540338,205
0.44832,-0.0154872,0.0548377,206
0.448274,-0.015482,0.0556616,209
0.448072,-0.0154522,0.0564651,216
0.44787,-0.0154224,0.0572683,214
0.44751,-0.0153681,0.05805,214
0.447941,-0.0154374,0.0589382,216
0.447741,-0.0154079,0.0597413,213
0.447541,-0.0153786,0.060544,214
0.447921,-0.0154399,0.0614286,217
0.445836,-0.0151154,0.0619602,218
0.445431,-0.0150539,0.0627293,220
0.445235,-0.0150252,0.0635281,223
0.44504,-0.0149966,0.0643267,218
0.444846,-0.014968,0.065125,216
0.444756,-0.0149559,0.065939,218
0.444355,-0.0148951,0.0667047,212
0.44282,-0.0146566,0.0672908,212
0.441808,-0.0144999,0.0679547,206
0.441465,-0.0144481,0.068723,212
0.44143,-0.0144445,0.0695405,211
0.441344,-0.014433,0.07035,208
0.441259,-0.0144216,0.0711596,208
0.441431,-0.0144503,0.0720126,210
0.441449,-0.0144551,0.0728406,210
0.441417,-0.0144519,0.0736603,210
0.441129,-0.0144087,0.0744358,210
0.441251,-0.0144297,0.0752829,208
0.441477,-0.0144669,0.0761493,208
0.441344,-0.014448,0.0769524,210
0.441314,-0.0144453,0.0777742,208
0.441439,-0.0144667,0.0786248,210
0.441052,-0.0144079,0.0793811,207
0.44128,-0.0144455,0.080252,209
0.441252,-0.0144431,0.0810757,208
0.441225,-0.0144408,0.0818998,204
0.441198,-0.0144385,0.0827244,209
0.441121,-0.0144283,0.0835395,207
0.440942,-0.0144021,0.0843346,205
0.441071,-0.0144242,0.0851909,206
0.439208,-0.0141342,0.0856471,207
0.43954,-0.0141882,0.0865429,204
0.439669,-0.0142103,0.0873988,204
0.44031,-0.0143126,0.0883616,207
0.440697,-0.0143751,0.0892744,204
0.440675,-0.0143735,0.0901029,203
0.439784,-0.0142359,0.0907467,204
0.439865,-0.0142504,0.0915965,204
0.439946,-0.0142651,0.0924472,203
0.43962,-0.0142159,0.0932095,205
0.44006,-0.0142868,0.0941402,200
0.439734,-0.0142376,0.0949027,198
0.439869,-0.0142606,0.0957678,203
0.44026,-0.0143239,0.0966921,200
0.440294,-0.014331,0.0975368,202
0.440893,-0.0144268,0.0985124,201
0.439851,-0.0142654,0.0991095,201
0.44009,-0.0143049,0.100003,198
0.440177,-0.0143204,0.100863,198
0.440727,-0.0144085,0.101833,198
0.441639,-0.0145535,0.102894,196
0.440801,-0.0144239,0.103534,196
0.441612,-0.014553,0.104575,198
0.440055,-0.0143108,0.105036,197
0.439837,-0.0142786,0.105824,193
0.44003,-0.0143107,0.106715,191
0.44048,-0.0143833,0.107672,191
0.44052,-0.0143915,0.108527,191
0.440458,-0.0143836,0.109356,189
0.441582,-0.0145619,0.110492,192
0.441108,-0.0144894,0.111217,191
0.44115,-0.014498,0.112077,187
0.44078,-0.0144419,0.112828,189
0.441754,-0.0145965,0.113936,197
0.441539,-0.0145647,0.11473,192
0.442154,-0.0146631,0.115747,189
0.442303,-0.0146885,0.116642,187
0.441933,-0.0146324,0.117395,187
0.442238,-0.0146823,0.118333,187
0.442233,-0.0146834,0.119188,195
0.442072,-0.0146601,0.119999,187
0.442172,-0.0146777,0.120883,185
0.442272,-0.0146953,0.121769,180
0.441904,-0.0146396,0.122522,181
0.442682,-0.0147636,0.123604,179
0.442627,-0.014757,0.124449,180
0.442886,-0.0147996,0.125385,182
0.443094,-0.0148341,0.126308,181
0.443355,-0.014877,0.127249,173
0.443144,-0.014846,0.12805,174
0.443459,-0.0148973,0.129009,174
0.443669,-0.0149323,0.129938,173
0.443617,-0.0149261,0.13079,170
0.443829,-0.0149613,0.131722,168
0.443936,-0.0149801,0.132624,172
0.443464,-0.0149081,0.133348,175
0.444151,-0.0150179,0.134431,171
0.444102,-0.0150121,0.135287,171
0.44458,-0.0150892,0.13631,169
0.444162,-0.0150255,0.137051,179
0.445065,-0.0151693,0.138213,176
0.445176,-0.0151887,0.139125,180
0.445447,-0.0152333,0.14009,175
0.4454,-0.0152279,0.140953,173
0.445354,-0.0152226,0.141817,167
0.445626,-0.0152674,0.142786,167
0.446274,-0.015371,0.143882,167
0.44746,-0.0155592,0.14516,170
0.447361,-0.0155457,0.146014,169
0.447048,-0.0154987,0.146795,166
0.447112,-0.0155106,0.147703,167
0.447767,-0.0156155,0.148815,166
0.448101,-0.01567,0.149819,168
0.44849,-0.0157331,0.150845,167
0.448772,-0.0157794,0.151836,160
0.448947,-0.0158089,0.152791,161
0.449068,-0.01583,0.153729,161
0.449461,-0.0158938,0.154764,159
0.449693,-0.0159322,0.155745,159
0.449925,-0.0159707,0.156727,158
0.450103,-0.0160008,0.157691,157
0.450665,-0.016091,0.158796,156
0.451174,-0.016173,0.159885,148
0.45163,-0.0162467,0.160957,145
0.451923,-0.0162947,0.161972,139
0.45205,-0.0163169,0.162928,152
0.452565,-0.0163998,0.164029,151
0.452584,-0.0164048,0.164948,151
0.452714,-0.0164273,0.165909,151
0.453399,-0.016537,0.167081,151
0.453364,-0.0165335,0.167983,150
0.453273,-0.0165214,0.168865,148
0.453016,-0.0164832,0.169684,141
0.453316,-0.0165323,0.170717,135
0.453393,-0.0165465,0.171665,131
0.453471,-0.0165609,0.172616,135
0.453549,-0.0165753,0.173567,130
0.454131,-0.0166687,0.174719,123
0.453987,-0.0166482,0.175585,124
0.454123,-0.0166717,0.176564,131
0.454876,-0.0167921,0.177792,128
0.455519,-0.0168954,0.178979,126
0.455546,-0.0169016,0.17992,123
0.455065,-0.0168283,0.180656,126
0.45498,-0.016817,0.181552,125
0.45495,-0.0168145,0.182471,122
0.455034,-0.0168298,0.183439,120
0.455062,-0.0168363,0.184384,117
0.455541,-0.0169137,0.185519,119
0.455626,-0.0169293,0.186491,129
0.455712,-0.0169449,0.187465,130
0.455629,-0.016934,0.188368,131
0.455772,-0.0169586,0.189369,125
0.455407,-0.0169034,0.190153,128
0.455268,-0.0168837,0.191034,124
0.455356,-0.0168996,0.192013,129
0.454822,-0.0168179,0.192724,119
0.454798,-0.0168162,0.193656,127
0.45483,-0.0168234,0.194613,127
0.454129,-0.0167154,0.195248,121
0.454331,-0.0167493,0.196281,116
0.454702,-0.0168099,0.197392,121
0.453834,-0.0166754,0.19795,115
0.453698,-0.0166563,0.198836,112
0.453958,-0.0166992,0.199899,114
0.453373,-0.0166094,0.200582,115
0.453182,-0.0165817,0.201443,125
0.452936,-0.0165451,0.202279,128
0.445783,-0.0109674,-0.210978,6
0.44094,-0.0102572,-0.20772,6
0.435064,-0.00939512,-0.203992,5
0.440158,-0.0101464,-0.205496,5
0.439689,-0.0100796,-0.204352,8
0.44145,-0.0103408,-0.204259,5
0.435882,-0.00952378,-0.200727,5
0.442858,-0.010552,-0.203068,3
0.437676,-0.00979178,-0.199738,6
0.436903,-0.00968022,-0.198468,6
0.436863,-0.0096763,-0.197538,7
0.436095,-0.00956537,-0.196277,9
0.437616,-0.00979135,-0.196063,8
0.43586,-0.00953503,-0.194357,8
0.438688,-0.00995312,-0.194728,8
0.43599,-0.00955825,-0.192606,8
0.436314,-0.00960805,-0.191848,9
0.437263,-0.00974972,-0.191367,8
0.435618,-0.00950969,-0.189734,8
0.435788,-0.00953669,-0.188908,9
0.436475,-0.0096399,-0.18831,9
0.435714,-0.00953002,-0.187078,11
0.43604,-0.00957994,-0.186322,13
0.436728,-0.0096833,-0.185722,12
0.436744,-0.00968768,-0.184831,16
0.435933,-0.00957037,-0.183586,14
0.437295,-0.00977289,-0.183272,13
0.435863,-0.00956423,-0.181768,12
0.436035,-0.00959158,-0.180948,15
0.436053,-0.00959621,-0.180063,12
0.435865,-0.00957055,-0.179092,15
0.436863,-0.00971959,-0.178617,14
0.436727,-0.0097015,-0.177669,13
0.435612,-0.00953944,-0.176319,13
0.436352,-0.00965035,-0.175735,13
0.436165,-0.00962491,-0.174771,17
0.436391,-0.00966017,-0.173975,17
0.435743,-0.00956672,-0.172827,13
0.435455,-0.00952644,-0.171827,10
0.433082,-0.0091789,-0.169996,7
0.433154,-0.00919156,-0.169148,13
0.43116,-0.00889986,-0.167483,17
0.430432,-0.0087946,-0.166325,14
0.430855,-0.00885894,-0.165621,16
0.431932,-0.00901958,-0.16517,18
0.428662,-0.00853995,-0.163034,17
0.428736,-0.00855283,-0.162199,23
0.428959,-0.00858764,-0.161421,21
0.429629,-0.00868831,-0.160813,21
0.426793,-0.00827243,-0.158876,23
0.427408,-0.00836497,-0.15825,24
0.426601,-0.00824802,-0.157091,27
0.426872,-0.00828997,-0.156337,23
0.42734,-0.00836091,-0.155655,21
0.427319,-0.00835965,-0.154792,26
0.427199,-0.00834399,-0.153894,26
0.428111,-0.00848029,-0.153373,26
0.428041,-0.00847188,-0.152493,32
0.428315,-0.00851426,-0.151739,34
0.428984,-0.00861486,-0.151125,34
0.428471,-0.00854116,-0.150088,39
0.428009,-0.00847496,-0.149072,36
0.429121,-0.0086409,-0.148613,34
0.428511,-0.00855284,-0.147547,35
0.429824,-0.00874832,-0.147155,35
0.429805,-0.00874746,-0.146296,34
0.429194,-0.00865929,-0.145234,41
0.430015,-0.00878234,-0.144666,37
0.429849,-0.00875975,-0.143759,37
0.430425,-0.00884663,-0.143104,39
0.430556,-0.00886791,-0.142298,38
0.430044,-0.00879433,-0.141278,36
0.430324,-0.00883756,-0.140523,36
0.4312,-0.00896867,-0.139965,35
0.431283,-0.00898285,-0.139144,41
0.431218,-0.0089751,-0.138274,40
0.432098,-0.00910679,-0.137712,41
0.432132,-0.00911378,-0.136875,43
0.431968,-0.00909144,-0.135974,47
0.432951,-0.00923838,-0.13544,48
0.433688,-0.00934896,-0.134825,48
0.433172,-0.00927485,-0.133814,53
0.434413,-0.00945973,-0.133355,58
0.433495,-0.00932632,-0.132221,63
0.434385,-0.00945952,-0.131649,62
0.43407,-0.00941504,-0.130705,58
0.434711,-0.00951148,-0.130054,63
0.435657,-0.00965294,-0.129493,58
0.435847,-0.00968288,-0.128701,62
0.435835,-0.00968303,-0.12785,66
0.435773,-0.00967578,-0.126984,67
0.435863,-0.00969096,-0.126164,61
0.436307,-0.00975846,-0.125448,66
0.436449,-0.00978125,-0.124643,69
0.436946,-0.00985649,-0.12394,72
0.437749,-0.00997702,-0.123324,76
0.437944,-0.0100076,-0.122533,74
0.438087,-0.0100307,-0.121726,71
0.438231,-0.0100539,-0.12092,70
0.438427,-0.0100847,-0.120128,71
0.438674,-0.0101231,-0.11935,71
0.439127,-0.0101918,-0.118629,73
0.439222,-0.0102077,-0.117808,75
0.439933,-0.0103146,-0.117155,80
0.439874,-0.0103079,-0.116293,80
0.440382,-0.0103848,-0.115582,77
0.441253,-0.0105151,-0.114967,81
0.441298,-0.0105238,-0.114131,82
0.442536,-0.0107084,-0.113608,84
0.441805,-0.0106025,-0.112569,84
0.441593,-0.0105732,-0.111668,86
0.441796,-0.010605,-0.110874,85
0.442103,-0.0106522,-0.110106,82
0.442514,-0.0107149,-0.109364,85
0.442667,-0.0107394,-0.108556,89
0.442872,-0.0107716,-0.107761,84
0.44339,-0.01085,-0.107043,92
0.443285,-0.0108363,-0.106171,92
0.443908,-0.0109303,-0.105477,92
0.444378,-0.0110015,-0.104744,85
0.4449,-0.0110806,-0.104022,90
0.446953,-0.0113856,-0.103659,79
0.446109,-0.0112629,-0.102612,85
0.446795,-0.0113661,-0.101923,90
0.446585,-0.011337,-0.101026,93
0.446586,-0.0113392,-0.100179,90
0.446535,-0.0113336,-0.0993199,90
0.446643,-0.0113515,-0.0984976,94
0.447069,-0.0114162,-0.0977458,92
0.447389,-0.0114655,-0.0969699,89
0.448135,-0.0115776,-0.096286,97
0.448884,-0.01169,-0.0956005,98
0.448888,-0.0116927,-0.0947529,104
0.448894,-0.0116954,-0.093906,103
0.448793,-0.0116825,-0.0930372,111
0.448427,-0.0116304,-0.092114,106
0.448487,-0.0116412,-0.0912807,100
0.449719,-0.0118251,-0.0906878,100
0.449514,-0.0117966,-0.0897989,98
0.450163,-0.0118944,-0.0890831,93
0.450332,-0.0119214,-0.0882697,88
0.449914,-0.0118615,-0.0873402,86
0.450244,-0.0119123,-0.0865591,88
0.450683,-0.011979,-0.085798,100
0.450159,-0.0119035,-0.0848514,102
0.450277,-0.0119229,-0.0840291,104
0.450076,-0.0118951,-0.0831467,106
0.450035,-0.011891,-0.0822954,104
0.451011,-0.0120371,-0.0816316,100
0.450329,-0.0119382,-0.0806629,103
0.450343,-0.0119423,-0.0798226,107
0.449771,-0.0118597,-0.0788783,115
0.44984,-0.0118717,-0.0780494,121
0.450229,-0.0119312,-0.0772766,126
0.450085,-0.0119119,-0.0764108,126
0.449996,-0.0119006,-0.0755553,117
0.450067,-0.011913,-0.0747275,123
0.450565,-0.0119886,-0.0739711,123
0.450157,-0.0119301,-0.0730638,124
0.449272,-0.0118013,-0.0720809,123
0.449292,-0.0118061,-0.0712473,126
0.449313,-0.0118111,-0.0704142,125
0.448909,-0.0117534,-0.0695148,130
0.448984,-0.0117663,-0.0686914,131
0.448424,-0.0116855,-0.0677709,132
0.447919,-0.0116127,-0.0668612,135
0.446943,-0.0114704,-0.0658834,132
0.446339,-0.0113829,-0.0649645,135
0.445945,-0.0113266,-0.0640789,138
0.445605,-0.0112782,-0.0632029,138
0.445944,-0.0113301,-0.0624248,132
0.444565,-0.0111282,-0.0614054,135
0.444696,-0.0111494,-0.0606,136
0.444257,-0.0110863,-0.0597168,138
0.443664,-0.0110006,-0.058815,141
0.444158,-0.0110755,-0.0580595,141
0.443877,-0.0110358,-0.0572014,148
0.44303,-0.0109124,-0.0562719,145
0.442033,-0.0107669,-0.055327,146
0.442064,-0.0107733,-0.0545143,144
0.441993,-0.0107647,-0.0536894,147
0.441667,-0.0107183,-0.0528341,143
0.441444,-0.0106871,-0.0519926,150
0.441069,-0.0106335,-0.0511344,151
0.440746,-0.0105876,-0.0502839,155
0.440424,-0.0105418,-0.0494351,159
0.440255,-0.0105188,-0.0486048,158
0.439986,-0.0104808,-0.0477644,160
0.439414,-0.0103981,-0.0468927,158
0.439602,-0.0104277,-0.0461038,158
0.43868,-0.0102931,-0.045199,156
0.438516,-0.0102707,-0.0443754,154
0.438654,-0.010293,-0.0435829,155
0.438793,-0.0103153,-0.0427903,152
0.438882,-0.0103304,-0.0419925,157
0.438871,-0.0103306,-0.0411851,157
0.438357,-0.0102564,-0.0403315,162
0.439052,-0.010361,-0.0395897,164
0.43864,-0.0103019,-0.0387471,163
0.438631,-0.0103024,-0.0379413,164
0.438623,-0.010303,-0.0371359,168
0.43932,-0.0104081,-0.0363895,162
0.439111,-0.010379,-0.0355668,169
0.438953,-0.0103575,-0.0347492,174
0.439099,-0.0103808,-0.0339559,175
0.438992,-0.0103669,-0.0331432,173
0.439239,-0.0104053,-0.0323572,181
0.43853,-0.0103022,-0.0315015,182
0.438627,-0.0103184,-0.0307052,182
0.438724,-0.0103346,-0.0299088,179
0.438873,-0.0103584,-0.0291156,179
0.439626,-0.0104718,-0.0283611,179
0.439675,-0.0104809,-0.0275596,185
0.439472,-0.0104527,-0.0267429,181
0.439371,-0.0104395,-0.025933,178
0.439371,-0.0104413,-0.0251294,183
0.439725,-0.0104956,-0.0243456,185
0.44008,-0.01055,-0.0235605,184
0.43993,-0.0105296,-0.0227483,186
0.439832,-0.0105168,-0.0219393,186
0.440037,-0.010549,-0.0211453,192
0.43999,-0.0105439,-0.0203391,192
0.440196,-0.0105763,-0.0195443,199
0.4401,-0.0105638,-0.0187361,197
0.440105,-0.0105665,-0.0179324,198
0.440161,-0.0105766,-0.0171308,198
0.439965,-0.0105495,-0.0163198,194
0.440175,-0.0105823,-0.0155237,194
0.44003,-0.0105628,-0.0147153,196
0.439836,-0.0105359,-0.013906,194
0.440148,-0.0105839,-0.0131121,195
0.44107,-0.0107222,-0.0123338,196
0.439915,-0.010553,-0.0114995,197
0.440938,-0.0107063,-0.0107206,195
0.44105,-0.0107248,-0.00991829,200
0.440504,-0.0106458,-0.00910265,204
0.441379,-0.0107772,-0.00831443,201
0.441443,-0.0107885,-0.00751003,201
0.440846,-0.010702,-0.00669614,202
0.44147,-0.0107962,-0.0058994,201
0.441892,-0.0108606,-0.00509826,206
0.441144,-0.0107515,-0.00428566,205
0.442127,-0.010899,-0.0034873,206
0.442092,-0.0108957,-0.00268045,208
0.442211,-0.0109152,-0.00187419,209
0.442025,-0.0108894,-0.00106717,207
0.441992,-0.0108864,-0.000260715,209
0.442266,-0.0109288,0.000546468,211
0.442285,-0.0109335,0.00135351,212
0.442458,-0.010961,0.00216165,210
0.442479,-0.0109659,0.00296917,211
0.442858,-0.0110239,0.00378047,209
0.442828,-0.0110214,0.00458828,214
0.442902,-0.0110341,0.00539745,208
0.443746,-0.0111611,0.00621914,206
0.444594,-0.0112886,0.0070441,207
0.444722,-0.0113094,0.00785819,209
0.444798,-0.0113226,0.00867171,211
0.444979,-0.0113512,0.009488,211
0.444282,-0.0112498,0.0102829,209
0.444928,-0.0113474,0.0111117,212
0.445215,-0.0113917,0.0119325,213
0.445294,-0.0114054,0.0127481,219
0.444909,-0.0113501,0.0135489,212
0.444938,-0.0113563,0.0143626,216
