ply
format ascii 1.0
comment Created by CloudCompare v2.11 alpha (Anoia)
comment Created 2025/12/9 16:18
obj_info Generated by CloudCompare!
element vertex 1406
property float x
property float y
property float z
property float scalar_Scalar_field
end_header
0.429176 -0.100596 -0.118652 187 
0.429269 -0.10063 -0.117766 184 
0.429413 -0.100683 -0.116865 183 
0.429609 -0.100754 -0.115949 188 
0.430011 -0.100897 -0.114976 186 
0.430055 -0.100914 -0.114098 188 
0.430099 -0.100931 -0.11322 187 
0.430349 -0.101021 -0.112283 184 
0.431118 -0.101293 -0.111201 184 
0.431216 -0.101329 -0.110303 188 
0.431314 -0.101366 -0.109404 184 
0.431776 -0.10153 -0.1084 182 
0.432032 -0.101621 -0.107453 181 
0.431924 -0.101586 -0.106609 177 
0.432129 -0.10166 -0.105674 180 
0.432126 -0.101661 -0.104798 182 
0.432332 -0.101735 -0.10386 182 
0.43207 -0.101645 -0.10306 182 
0.43186 -0.101574 -0.102244 184 
0.43238 -0.101758 -0.101209 180 
0.43238 -0.10176 -0.100329 179 
0.432589 -0.101836 -0.0993845 178 
0.433009 -0.101985 -0.0983735 171 
0.433115 -0.102024 -0.0974565 172 
0.433169 -0.102045 -0.0965545 175 
0.433276 -0.102085 -0.0956355 173 
0.432911 -0.101959 -0.0948645 172 
0.432757 -0.101907 -0.0940275 169 
0.433232 -0.102076 -0.0929885 176 
0.432869 -0.101951 -0.0922165 177 
0.432716 -0.101899 -0.0913785 178 
0.432615 -0.101866 -0.0905225 172 
0.432883 -0.101962 -0.0895445 177 
0.432941 -0.101985 -0.0886355 177 
0.433105 -0.102044 -0.0876895 178 
0.432638 -0.101883 -0.0869525 179 
0.433118 -0.102053 -0.0858985 178 
0.433073 -0.102039 -0.0850205 178 
0.43224 -0.101749 -0.0844095 175 
0.432091 -0.101699 -0.0835675 172 
0.432257 -0.10176 -0.0826155 175 
0.432266 -0.101765 -0.0817175 170 
0.431855 -0.101623 -0.0809645 173 
0.431812 -0.10161 -0.0800845 173 
0.43156 -0.101524 -0.0792765 173 
0.430943 -0.10131 -0.0785995 173 
0.430849 -0.101279 -0.0777365 174 
0.43217 -0.101744 -0.0763645 178 
0.430193 -0.101053 -0.0761805 173 
0.429892 -0.10095 -0.0753925 179 
0.429956 -0.100974 -0.0744725 173 
0.429864 -0.100944 -0.0736085 174 
0.430189 -0.10106 -0.0725895 177 
0.429473 -0.100811 -0.0719555 171 
0.429434 -0.1008 -0.0710715 171 
0.429604 -0.100861 -0.0701075 166 
0.429462 -0.100814 -0.0692594 166 
0.429164 -0.100712 -0.0684715 163 
0.429491 -0.100828 -0.0674445 164 
0.428778 -0.10058 -0.0668165 163 
0.428638 -0.100533 -0.0659675 168 
0.428706 -0.100559 -0.0650385 162 
0.428514 -0.100494 -0.0642095 159 
0.428427 -0.100466 -0.0633395 152 
0.427511 -0.100147 -0.0627975 152 
0.42696 -0.0999555 -0.0621125 154 
0.426564 -0.0998189 -0.0613675 151 
0.425144 -0.099323 -0.0610355 154 
0.424293 -0.0990265 -0.0604785 158 
0.423801 -0.098856 -0.0597785 158 
0.423767 -0.0988463 -0.0588915 158 
0.423175 -0.0986407 -0.0582345 156 
0.423193 -0.098649 -0.0573265 150 
0.423261 -0.0986752 -0.0563975 150 
0.422873 -0.0985413 -0.0556565 150 
0.422993 -0.0985855 -0.0547045 142 
0.42286 -0.0985409 -0.0538575 142 
0.422018 -0.0982477 -0.0533105 135 
0.422442 -0.0983986 -0.0522265 133 
0.421753 -0.0981591 -0.0516165 124 
0.421218 -0.0979734 -0.0509435 132 
0.421238 -0.0979825 -0.0500305 133 
0.420754 -0.0978149 -0.0493365 139 
0.420674 -0.0977889 -0.0484675 136 
0.420895 -0.0978689 -0.0474645 135 
0.41931 -0.0973147 -0.0472585 131 
0.41913 -0.0972539 -0.0464335 137 
0.419151 -0.0972634 -0.0455195 136 
0.419022 -0.0972203 -0.0446725 143 
0.418594 -0.0970722 -0.0439585 137 
0.418217 -0.0969419 -0.0432235 137 
0.418588 -0.0970743 -0.0421495 131 
0.41856 -0.0970667 -0.0412535 132 
0.418383 -0.0970067 -0.0404265 129 
0.418456 -0.0970344 -0.0394845 134 
0.418779 -0.0971501 -0.0384245 130 
0.418702 -0.0971254 -0.0375475 126 
0.418526 -0.0970657 -0.0367175 117 
0.4183 -0.0969886 -0.0359105 110 
0.417526 -0.096719 -0.0353635 114 
0.4175 -0.0967123 -0.0344625 112 
0.418275 -0.0969862 -0.0331795 107 
0.41835 -0.0970149 -0.0322275 115 
0.399943 -0.0930964 -0.425999 3 
0.398089 -0.0924357 -0.424186 7 
0.403338 -0.094314 -0.425936 7 
0.404657 -0.0947878 -0.425706 4 
0.405655 -0.0951467 -0.425312 4 
0.402726 -0.0941017 -0.422974 6 
0.403296 -0.0943077 -0.422371 6 
0.400451 -0.0932927 -0.420095 6 
0.403788 -0.0944879 -0.420845 8 
0.403013 -0.0942128 -0.419585 7 
0.40312 -0.0942532 -0.418757 8 
0.399372 -0.0929152 -0.416076 8 
0.401995 -0.0938552 -0.41646 7 
0.401 -0.0935017 -0.415111 7 
0.402533 -0.0940519 -0.414965 9 
0.399983 -0.0931421 -0.412887 10 
0.402151 -0.0939193 -0.413036 7 
0.403321 -0.0943398 -0.41271 11 
0.401863 -0.0938204 -0.411158 8 
0.402662 -0.0941083 -0.410658 12 
0.401943 -0.0938534 -0.409455 15 
0.40362 -0.0944551 -0.409355 9 
0.404426 -0.0947453 -0.408852 11 
0.403517 -0.0944223 -0.407566 12 
0.403581 -0.0944474 -0.406726 10 
0.403184 -0.0943074 -0.405678 10 
0.403849 -0.0945474 -0.405108 12 
0.40336 -0.0943745 -0.404023 13 
0.404535 -0.094797 -0.403677 12 
0.406231 -0.0954055 -0.403557 9 
0.403234 -0.0943357 -0.401372 13 
0.404084 -0.0946419 -0.400879 14 
0.404752 -0.094883 -0.400305 12 
0.40394 -0.0945944 -0.399089 15 
0.403776 -0.0945378 -0.398156 14 
0.404999 -0.0949775 -0.397818 11 
0.406136 -0.0953863 -0.397439 11 
0.404856 -0.0949304 -0.396032 10 
0.405992 -0.0953388 -0.395649 12 
0.404622 -0.0948507 -0.394211 17 
0.403906 -0.0945966 -0.393053 17 
0.404343 -0.0947551 -0.392378 21 
0.404597 -0.0948478 -0.391625 15 
0.404066 -0.0946602 -0.39055 17 
0.405105 -0.0950338 -0.39012 19 
0.404113 -0.0946811 -0.38886 17 
0.405013 -0.0950051 -0.38837 20 
0.405315 -0.095115 -0.387637 18 
0.404646 -0.0948779 -0.386515 22 
0.405502 -0.0951862 -0.386003 18 
0.405435 -0.095164 -0.385122 21 
0.405506 -0.0951916 -0.384297 19 
0.407017 -0.0957343 -0.384037 21 
0.405557 -0.0952139 -0.382614 17 
0.406092 -0.0954074 -0.38197 20 
0.406072 -0.0954022 -0.381111 28 
0.405358 -0.095149 -0.379987 25 
0.404924 -0.0949956 -0.378974 25 
0.405458 -0.0951888 -0.378329 27 
0.405486 -0.0952007 -0.377493 27 
0.405929 -0.0953614 -0.376812 34 
0.406142 -0.0954396 -0.376045 31 
0.406217 -0.0954683 -0.375226 29 
0.406199 -0.0954639 -0.374374 25 
0.405166 -0.0950966 -0.373151 28 
0.40561 -0.0952574 -0.372471 29 
0.405824 -0.095336 -0.371706 29 
0.406825 -0.0956961 -0.371223 29 
0.405607 -0.0952625 -0.369945 32 
0.404948 -0.0950286 -0.36887 34 
0.404933 -0.0950252 -0.368027 35 
0.40524 -0.0951369 -0.367297 39 
0.40495 -0.0950352 -0.366358 39 
0.405303 -0.0951635 -0.365644 40 
0.404968 -0.0950457 -0.364693 40 
0.404771 -0.0949773 -0.36379 42 
0.405538 -0.0952536 -0.363218 48 
0.40502 -0.0950704 -0.362208 46 
0.405375 -0.0951992 -0.361494 49 
0.406006 -0.095427 -0.360872 51 
0.405396 -0.095211 -0.359836 52 
0.40566 -0.0953074 -0.359091 52 
0.40519 -0.0951413 -0.358105 53 
0.406512 -0.0956161 -0.357706 48 
0.405536 -0.0952688 -0.356557 58 
0.405342 -0.0952015 -0.355666 56 
0.405424 -0.0952328 -0.354863 57 
0.406148 -0.095494 -0.354265 59 
0.405268 -0.095181 -0.353159 56 
0.405901 -0.0954093 -0.352531 57 
0.4058 -0.0953754 -0.351672 56 
0.405289 -0.0951943 -0.350688 53 
0.404643 -0.094965 -0.349665 55 
0.40409 -0.0947692 -0.348674 54 
0.403178 -0.0944446 -0.347576 61 
0.403082 -0.0944121 -0.346729 65 
0.40258 -0.0942346 -0.345762 69 
0.402485 -0.0942025 -0.344918 65 
0.402121 -0.0940741 -0.343995 65 
0.402072 -0.0940585 -0.343167 67 
0.40162 -0.0938987 -0.342223 65 
0.40184 -0.0939795 -0.341475 72 
0.401524 -0.0938682 -0.340573 74 
0.401075 -0.0937094 -0.339635 80 
0.400628 -0.0935512 -0.3387 74 
0.401027 -0.0936959 -0.338004 69 
0.400936 -0.0936654 -0.337172 74 
0.400535 -0.0935237 -0.336254 77 
0.400756 -0.093605 -0.335509 78 
0.401157 -0.0937502 -0.334813 79 
0.401513 -0.0938798 -0.334104 81 
0.400934 -0.0936745 -0.333143 85 
0.400846 -0.0936449 -0.332316 85 
0.401159 -0.0937587 -0.331595 84 
0.401294 -0.093809 -0.330827 90 
0.401608 -0.0939232 -0.330105 92 
0.401387 -0.0938462 -0.329245 99 
0.401568 -0.0939128 -0.328489 99 
0.401883 -0.0940275 -0.327767 102 
0.401752 -0.0939827 -0.326932 100 
0.401845 -0.0940179 -0.326154 108 
0.401983 -0.0940692 -0.325387 106 
0.402837 -0.0943768 -0.324796 109 
0.402215 -0.0941562 -0.323843 104 
0.402444 -0.0942399 -0.323098 112 
0.402494 -0.0942598 -0.322309 107 
0.402634 -0.0943118 -0.321543 109 
0.403402 -0.0945887 -0.320924 108 
0.403498 -0.0946251 -0.320145 109 
0.40337 -0.0945813 -0.319316 111 
0.403288 -0.0945537 -0.318497 120 
0.403834 -0.0947513 -0.317822 124 
0.403932 -0.0947883 -0.317045 126 
0.403806 -0.094745 -0.316217 127 
0.403814 -0.09475 -0.31542 136 
0.403914 -0.0947875 -0.314644 131 
0.404013 -0.094825 -0.313868 128 
0.404789 -0.0951047 -0.313237 126 
0.405025 -0.0951912 -0.312488 125 
0.40499 -0.0951808 -0.311682 125 
0.404506 -0.0950091 -0.310783 126 
0.404652 -0.0950636 -0.310016 115 
0.4048 -0.0951182 -0.30925 121 
0.405173 -0.0952539 -0.308529 118 
0.405186 -0.0952604 -0.307735 127 
0.405109 -0.0952348 -0.306923 134 
0.405665 -0.0954358 -0.306236 138 
0.405815 -0.0954914 -0.305469 145 
0.405739 -0.0954661 -0.304658 142 
0.406025 -0.0955707 -0.303917 143 
0.406132 -0.0956106 -0.303141 144 
0.406057 -0.0955857 -0.302331 143 
0.406799 -0.0958535 -0.301673 141 
0.407408 -0.0960734 -0.300988 144 
0.407561 -0.0961305 -0.300218 146 
0.407488 -0.0961059 -0.299408 143 
0.407551 -0.0961306 -0.298623 145 
0.407478 -0.0961064 -0.297813 147 
0.407133 -0.0959845 -0.296958 157 
0.406925 -0.0959119 -0.296128 157 
0.407764 -0.0962145 -0.295475 160 
0.40783 -0.09624 -0.294691 160 
0.407896 -0.0962656 -0.293907 159 
0.407917 -0.0962751 -0.293116 151 
0.408076 -0.0963338 -0.292347 155 
0.408006 -0.0963108 -0.291541 155 
0.40812 -0.0963535 -0.290765 158 
0.407915 -0.0962818 -0.289939 158 
0.408715 -0.0965705 -0.289269 162 
0.408693 -0.0965645 -0.288471 163 
0.408717 -0.0965751 -0.28768 161 
0.409292 -0.0967831 -0.286971 158 
0.409455 -0.0968434 -0.2862 163 
0.409527 -0.0968709 -0.285416 164 
0.409599 -0.0968987 -0.284632 167 
0.40958 -0.0968936 -0.283835 164 
0.409929 -0.0970206 -0.283089 163 
0.410463 -0.0972141 -0.282367 163 
0.41003 -0.0970608 -0.281514 167 
0.410243 -0.097139 -0.280748 169 
0.410965 -0.0973995 -0.280047 172 
0.410902 -0.0973788 -0.279244 169 
0.411394 -0.0975574 -0.278511 171 
0.411518 -0.0976035 -0.277731 173 
0.411641 -0.0976497 -0.276951 175 
0.411534 -0.097613 -0.276142 173 
0.411798 -0.0977095 -0.275378 179 
0.411969 -0.097773 -0.274603 179 
0.412188 -0.0978534 -0.273833 181 
0.412129 -0.0978339 -0.27303 179 
0.412163 -0.097848 -0.272239 180 
0.411965 -0.097779 -0.271423 177 
0.412093 -0.0978267 -0.270642 174 
0.412826 -0.0980916 -0.269924 175 
0.41347 -0.0983241 -0.269194 173 
0.413834 -0.0984565 -0.268433 176 
0.413684 -0.0984046 -0.267622 175 
0.413815 -0.0984536 -0.266838 173 
0.413666 -0.098402 -0.266027 171 
0.413564 -0.0983674 -0.265222 172 
0.414071 -0.0985512 -0.264471 176 
0.413689 -0.0984162 -0.263642 175 
0.414057 -0.0985501 -0.262878 180 
0.414239 -0.098617 -0.262097 180 
0.414374 -0.0986674 -0.261311 184 
0.413947 -0.0985161 -0.260481 183 
0.414176 -0.0986004 -0.259704 180 
0.414266 -0.0986344 -0.258915 187 
0.41445 -0.0987023 -0.258133 189 
0.414635 -0.0987705 -0.25735 187 
0.414726 -0.0988051 -0.256561 189 
0.415431 -0.0990596 -0.255813 185 
0.415476 -0.0990778 -0.255018 184 
0.415334 -0.0990286 -0.254212 183 
0.4159 -0.0992334 -0.25345 184 
0.415427 -0.099066 -0.252624 184 
0.415475 -0.099085 -0.25183 181 
0.415523 -0.0991042 -0.251037 181 
0.415808 -0.0992082 -0.250255 183 
0.415668 -0.09916 -0.249451 183 
0.415105 -0.09896 -0.248626 186 
0.415438 -0.0990813 -0.247847 195 
0.4153 -0.0990338 -0.247044 192 
0.415304 -0.0990372 -0.246249 188 
0.41465 -0.0988046 -0.245426 190 
0.41428 -0.0986737 -0.244617 191 
0.414239 -0.0986609 -0.243822 193 
0.41448 -0.0987491 -0.243037 187 
0.414299 -0.0986862 -0.242237 192 
0.414494 -0.098758 -0.241451 192 
0.414549 -0.0987795 -0.240659 190 
0.414651 -0.0988181 -0.239868 192 
0.415648 -0.0991777 -0.239101 207 
0.415469 -0.0991153 -0.238301 204 
0.413976 -0.0985817 -0.237472 196 
0.413612 -0.0984532 -0.236673 194 
0.414232 -0.0986772 -0.235893 198 
0.413915 -0.0985657 -0.235095 200 
0.413413 -0.0983876 -0.234295 199 
0.414361 -0.0987295 -0.233517 198 
0.413439 -0.0984005 -0.232714 201 
0.413173 -0.0983069 -0.231921 199 
0.413187 -0.0983138 -0.23113 208 
0.414511 -0.0987906 -0.230346 208 
0.41289 -0.0982113 -0.229549 211 
0.413232 -0.0983358 -0.228759 213 
0.413155 -0.09831 -0.227969 216 
0.413125 -0.0983012 -0.227178 214 
0.413049 -0.0982758 -0.226388 215 
0.412741 -0.0981672 -0.2256 217 
0.412341 -0.0980256 -0.224814 214 
0.41185 -0.0978513 -0.224031 208 
0.412054 -0.0979265 -0.22324 209 
0.410826 -0.0974879 -0.22247 197 
0.410524 -0.0973814 -0.221689 197 
0.409215 -0.0969136 -0.220928 195 
0.409007 -0.0968411 -0.220149 193 
0.409029 -0.0968506 -0.219366 196 
0.409142 -0.0968931 -0.218581 198 
0.40889 -0.0968047 -0.217804 198 
0.409004 -0.0968475 -0.217019 199 
0.408982 -0.0968414 -0.216236 199 
0.409189 -0.0969174 -0.215447 204 
0.409304 -0.0969608 -0.21466 199 
0.408918 -0.0968241 -0.21389 202 
0.408989 -0.0968514 -0.213104 196 
0.409289 -0.0969609 -0.212309 204 
0.409773 -0.0971366 -0.211505 198 
0.410259 -0.0973128 -0.210698 199 
0.409278 -0.0969627 -0.209957 198 
0.409994 -0.0972212 -0.209139 203 
0.410114 -0.0972663 -0.208347 206 
0.409913 -0.0971963 -0.207571 207 
0.410035 -0.0972417 -0.206779 207 
0.411355 -0.0977173 -0.205919 212 
0.411571 -0.0977966 -0.205117 212 
0.411695 -0.097843 -0.20432 212 
0.411588 -0.0978065 -0.203537 215 
0.41162 -0.0978201 -0.202745 213 
0.411376 -0.0977342 -0.201971 211 
0.41127 -0.0976983 -0.201189 208 
0.411258 -0.0976958 -0.2004 208 
0.411293 -0.09771 -0.199608 208 
0.411605 -0.0978241 -0.198794 204 
0.411733 -0.097872 -0.197994 205 
0.411769 -0.0978868 -0.1972 206 
0.411667 -0.097852 -0.196416 204 
0.411658 -0.0978506 -0.195625 205 
0.411881 -0.0979325 -0.194815 205 
0.411965 -0.0979648 -0.194015 203 
0.412097 -0.0980139 -0.193211 205 
0.412043 -0.0979965 -0.192423 206 
0.412222 -0.0980627 -0.191613 201 
0.412402 -0.0981292 -0.190802 202 
0.412443 -0.0981457 -0.190004 200 
0.412485 -0.0981625 -0.189205 199 
0.412666 -0.0982296 -0.188392 201 
0.412849 -0.098297 -0.187578 200 
0.413687 -0.0985997 -0.186695 202 
0.413262 -0.0984493 -0.185941 201 
0.413962 -0.0987025 -0.185069 204 
0.41382 -0.0986532 -0.184285 204 
0.414194 -0.0987894 -0.183444 205 
0.414381 -0.0988585 -0.182623 206 
0.414428 -0.0988772 -0.181816 207 
0.414239 -0.0988116 -0.181037 205 
0.414287 -0.0988306 -0.18023 205 
0.414759 -0.099002 -0.179372 206 
0.414855 -0.0990384 -0.178557 202 
0.414622 -0.0989564 -0.177783 201 
0.416614 -0.0996736 -0.176727 200 
0.415667 -0.0993357 -0.176041 202 
0.415766 -0.099373 -0.175223 203 
0.416008 -0.0994617 -0.174384 205 
0.416964 -0.0998072 -0.173448 206 
0.416827 -0.0997597 -0.172657 203 
0.416881 -0.099781 -0.171841 204 
0.416935 -0.0998024 -0.171023 205 
0.417085 -0.0998583 -0.170191 206 
0.417093 -0.099863 -0.169379 205 
0.416386 -0.099611 -0.168672 209 
0.416014 -0.0994793 -0.167918 207 
0.417454 -0.0999984 -0.16689 208 
0.417655 -0.100073 -0.166046 206 
0.417953 -0.100182 -0.165186 205 
0.417916 -0.10017 -0.164377 206 
0.418264 -0.100297 -0.163507 205 
0.418324 -0.100321 -0.162681 207 
0.418337 -0.100327 -0.161863 207 
0.418301 -0.100316 -0.161051 204 
0.420444 -0.101088 -0.159876 211 
0.420849 -0.101235 -0.158986 213 
0.420571 -0.101137 -0.15821 212 
0.419373 -0.100709 -0.157594 211 
0.420603 -0.101153 -0.156558 209 
0.420133 -0.100986 -0.155817 207 
0.420588 -0.101151 -0.154912 208 
0.420752 -0.101212 -0.154058 208 
0.420965 -0.101291 -0.153193 208 
0.420984 -0.101299 -0.152363 207 
0.42115 -0.101361 -0.151505 209 
0.421365 -0.10144 -0.150637 207 
0.421337 -0.101432 -0.149814 204 
0.421358 -0.101442 -0.148981 209 
0.421722 -0.101575 -0.148081 207 
0.421646 -0.101549 -0.147265 204 
0.421963 -0.101665 -0.146371 203 
0.422331 -0.101799 -0.145465 207 
0.423441 -0.1022 -0.144406 208 
0.423962 -0.102389 -0.143463 207 
0.423937 -0.102382 -0.142631 206 
0.423566 -0.102251 -0.141871 208 
0.423939 -0.102387 -0.140954 206 
0.424066 -0.102434 -0.140088 204 
0.424342 -0.102535 -0.139189 203 
0.42437 -0.102547 -0.138342 200 
0.424498 -0.102595 -0.137473 199 
0.424876 -0.102733 -0.136547 200 
0.425156 -0.102836 -0.135641 203 
0.425036 -0.102795 -0.134824 201 
0.425517 -0.10297 -0.13387 199 
0.425699 -0.103037 -0.132982 196 
0.426587 -0.103358 -0.131929 196 
0.426872 -0.103462 -0.131013 194 
0.426804 -0.10344 -0.130178 189 
0.427141 -0.103563 -0.129247 188 
0.42662 -0.103378 -0.12852 188 
0.42716 -0.103574 -0.127537 186 
0.427297 -0.103625 -0.126651 188 
0.427739 -0.103786 -0.125688 185 
0.427674 -0.103765 -0.124848 185 
0.427914 -0.103853 -0.123932 187 
0.428156 -0.103942 -0.123014 189 
0.428041 -0.103903 -0.122185 188 
0.428131 -0.103938 -0.121303 187 
0.428936 -0.104229 -0.120236 189 
0.428567 -0.104098 -0.11947 187 
0.428506 -0.104078 -0.118625 184 
0.428854 -0.104205 -0.117671 183 
0.429973 -0.10461 -0.11651 184 
0.429091 -0.104295 -0.11588 182 
0.429288 -0.104368 -0.114962 184 
0.429228 -0.104348 -0.114112 182 
0.429067 -0.104292 -0.11329 182 
0.430294 -0.104736 -0.112084 184 
0.42931 -0.104384 -0.111489 191 
0.430282 -0.104735 -0.110347 189 
0.430794 -0.104921 -0.109331 185 
0.430375 -0.104773 -0.108577 184 
0.431303 -0.105108 -0.107438 188 
0.43104 -0.105016 -0.106639 188 
0.431192 -0.105073 -0.10572 189 
0.431345 -0.10513 -0.104798 187 
0.430927 -0.104982 -0.104045 183 
0.431497 -0.105189 -0.102998 184 
0.431703 -0.105265 -0.102057 182 
0.432015 -0.105379 -0.101083 183 
0.432067 -0.1054 -0.100186 182 
0.431963 -0.105365 -0.0993365 181 
0.432068 -0.105405 -0.0984215 177 
0.432174 -0.105445 -0.0975055 176 
0.432071 -0.10541 -0.0966525 175 
0.432544 -0.105582 -0.0956195 174 
0.432389 -0.105528 -0.0947815 176 
0.431504 -0.105212 -0.0941765 178 
0.431715 -0.105291 -0.0932235 180 
0.432504 -0.105576 -0.0920815 176 
0.432037 -0.10541 -0.0913445 178 
0.432461 -0.105565 -0.0903165 171 
0.432309 -0.105512 -0.0894755 171 
0.432262 -0.105498 -0.0886005 172 
0.432741 -0.105672 -0.0875495 174 
0.431855 -0.105356 -0.0869525 172 
0.431915 -0.105379 -0.0860405 172 
0.431765 -0.105327 -0.0851985 168 
0.43193 -0.105389 -0.0842485 176 
0.431728 -0.105319 -0.0834235 175 
0.431527 -0.105248 -0.0825975 176 
0.431327 -0.105178 -0.0817725 177 
0.430865 -0.105015 -0.0810385 182 
0.43077 -0.104983 -0.0801765 179 
0.430676 -0.104951 -0.0793135 178 
0.430895 -0.105032 -0.0783395 181 
0.430592 -0.104925 -0.0775495 182 
0.430499 -0.104894 -0.0766855 180 
0.430406 -0.104863 -0.0758215 179 
0.430053 -0.104738 -0.0750515 174 
0.430221 -0.1048 -0.0740905 180 
0.429556 -0.104563 -0.0734355 174 
0.429725 -0.104626 -0.0724735 175 
0.428802 -0.104297 -0.0719175 168 
0.42866 -0.104248 -0.0710715 172 
0.428985 -0.104367 -0.0700485 165 
0.428273 -0.104113 -0.0694175 162 
0.428028 -0.104027 -0.0686105 165 
0.428095 -0.104053 -0.0676835 163 
0.427851 -0.103967 -0.0668765 170 
0.427143 -0.103715 -0.0662485 174 
0.42618 -0.103371 -0.0657235 163 
0.425529 -0.103139 -0.0650795 165 
0.425339 -0.103073 -0.0642545 160 
0.425304 -0.103062 -0.0633685 159 
0.424808 -0.102886 -0.0626655 155 
0.424723 -0.102858 -0.0617985 159 
0.423771 -0.102517 -0.0612815 157 
0.423889 -0.102562 -0.0603335 151 
0.423093 -0.102278 -0.0597575 150 
0.422704 -0.10214 -0.0590165 151 
0.421862 -0.10184 -0.0584635 145 
0.421779 -0.101812 -0.0575995 153 
0.421544 -0.101729 -0.0567965 146 
0.421209 -0.101611 -0.0560375 144 
0.421126 -0.101583 -0.0551715 140 
0.420591 -0.101393 -0.0544965 138 
0.42066 -0.10142 -0.0535675 135 
0.420679 -0.101429 -0.0526575 140 
0.420547 -0.101384 -0.0518115 136 
0.420566 -0.101393 -0.0508995 134 
0.420034 -0.101203 -0.0502275 126 
0.419903 -0.101159 -0.0493805 136 
0.419722 -0.101096 -0.0485555 134 
0.419492 -0.101015 -0.0477515 133 
0.419112 -0.100881 -0.0470145 131 
0.419434 -0.100998 -0.0459665 138 
0.419305 -0.100954 -0.0451175 129 
0.418826 -0.100784 -0.0444255 136 
0.418747 -0.100758 -0.0435535 138 
0.418869 -0.100804 -0.0425905 138 
0.419092 -0.100886 -0.0415795 135 
0.418864 -0.100807 -0.0407735 143 
0.418887 -0.100817 -0.0398515 132 
0.41861 -0.10072 -0.0390685 130 
0.418934 -0.100838 -0.0380055 120 
0.419109 -0.100903 -0.0370105 117 
0.418932 -0.100842 -0.0361775 111 
0.419208 -0.100944 -0.0351315 113 
0.418681 -0.100756 -0.0344645 115 
0.418355 -0.100641 -0.0337025 124 
0.418331 -0.100634 -0.0327975 120 
0.418808 -0.100808 -0.0316495 116 
0.401065 -0.0969849 -0.426928 6 
0.399289 -0.0963364 -0.425147 4 
0.403126 -0.0977444 -0.426192 4 
0.398043 -0.0958841 -0.422764 5 
0.403151 -0.0977577 -0.424428 4 
0.399845 -0.0965487 -0.421905 4 
0.402481 -0.0975165 -0.422326 7 
0.401986 -0.0973373 -0.421199 7 
0.401355 -0.0971081 -0.420009 4 
0.401691 -0.0972336 -0.419294 5 
0.400101 -0.0966529 -0.417645 10 
0.403385 -0.0978585 -0.418353 7 
0.402797 -0.0976452 -0.41719 8 
0.400559 -0.096827 -0.415242 8 
0.399799 -0.0965507 -0.414008 10 
0.402659 -0.0976007 -0.41449 9 
0.400836 -0.0969349 -0.412756 8 
0.400715 -0.0968928 -0.411828 11 
0.401098 -0.0970352 -0.411137 9 
0.402033 -0.0973798 -0.4107 9 
0.401499 -0.0971863 -0.409582 9 
0.401563 -0.0972116 -0.408742 12 
0.403098 -0.0977766 -0.408576 11 
0.401828 -0.0973129 -0.407127 11 
0.403042 -0.09776 -0.406809 11 
0.403245 -0.0978364 -0.406031 10 
0.402342 -0.0975077 -0.404757 13 
0.404439 -0.0982783 -0.404827 11 
0.402932 -0.0977281 -0.403288 13 
0.402354 -0.0975182 -0.402166 13 
0.404356 -0.0982544 -0.402184 13 
0.401661 -0.0972684 -0.400136 11 
0.403195 -0.0978327 -0.399943 10 
0.404369 -0.0982654 -0.399589 8 
0.403927 -0.0981054 -0.398534 15 
0.40321 -0.0978447 -0.397363 9 
0.402451 -0.0975684 -0.396178 12 
0.401103 -0.0970765 -0.394747 14 
0.403045 -0.0977902 -0.394712 18 
0.402471 -0.0975818 -0.393613 16 
0.402814 -0.0977096 -0.3929 18 
0.403157 -0.0978376 -0.392187 16 
0.402539 -0.0976129 -0.391074 18 
0.40279 -0.0977073 -0.390324 17 
0.403778 -0.0980712 -0.389874 22 
0.403479 -0.0979639 -0.388898 19 
0.404239 -0.0982445 -0.388352 18 
0.403527 -0.0979856 -0.38721 19 
0.404149 -0.0982156 -0.386607 18 
0.403393 -0.0979403 -0.385452 19 
0.402184 -0.0974992 -0.384122 18 
0.403122 -0.0978453 -0.383645 23 
0.40356 -0.0980078 -0.382968 26 
0.403494 -0.0979857 -0.382093 20 
0.40352 -0.0979973 -0.381255 22 
0.403409 -0.0979586 -0.380365 24 
0.40307 -0.0978363 -0.379389 26 
0.403737 -0.098083 -0.378799 29 
0.40404 -0.0981959 -0.378068 34 
0.403015 -0.0978222 -0.376835 32 
0.40318 -0.0978847 -0.376055 32 
0.403528 -0.0980142 -0.375342 32 
0.40219 -0.0975257 -0.374003 30 
0.4029 -0.0977883 -0.373427 28 
0.403522 -0.0980183 -0.372815 30 
0.402686 -0.0977137 -0.37167 31 
0.403353 -0.0979603 -0.371074 37 
0.402973 -0.097823 -0.370099 39 
0.403276 -0.0979363 -0.369371 39 
0.40317 -0.0978994 -0.368496 42 
0.402747 -0.097746 -0.36751 45 
0.403323 -0.0979595 -0.366879 43 
0.4034 -0.0979898 -0.366071 42 
0.404299 -0.0983214 -0.365549 39 
0.403783 -0.0981342 -0.364535 40 
0.40377 -0.0981313 -0.363696 41 
0.403803 -0.0981453 -0.362874 42 
0.40379 -0.0981427 -0.362037 46 
0.40355 -0.0980567 -0.361125 50 
0.403538 -0.0980544 -0.36029 44 
0.403754 -0.0981356 -0.359532 46 
0.404107 -0.0982671 -0.358819 51 
0.403641 -0.0980981 -0.357836 51 
0.403949 -0.0982131 -0.357108 54 
0.404212 -0.0983115 -0.356365 55 
0.403929 -0.0982096 -0.355445 50 
0.403374 -0.0980082 -0.35444 57 
0.402958 -0.0978574 -0.353483 54 
0.402949 -0.0978562 -0.352656 50 
0.40362 -0.0981044 -0.352044 47 
0.402121 -0.0975564 -0.350752 54 
0.401485 -0.097325 -0.349735 55 
0.401568 -0.0973574 -0.348942 59 
0.401113 -0.0971926 -0.347985 54 
0.40075 -0.0970613 -0.347059 62 
0.400611 -0.0970121 -0.346202 62 
0.400695 -0.0970449 -0.345413 65 
0.400289 -0.096898 -0.344479 60 
0.400463 -0.0969637 -0.343718 63 
0.400281 -0.0968989 -0.342853 64 
0.399345 -0.0965576 -0.34177 73 
0.399608 -0.096656 -0.341037 76 
0.399517 -0.0966244 -0.340203 79 
0.399559 -0.0966417 -0.339407 78 
0.399645 -0.0966754 -0.338624 71 
0.399776 -0.0967255 -0.337855 67 
0.399465 -0.0966133 -0.336961 73 
0.399243 -0.0965338 -0.336095 74 
0.399906 -0.0967791 -0.335473 79 
0.400083 -0.0968459 -0.334716 71 
0.400305 -0.0969293 -0.333971 73 
0.400261 -0.0969151 -0.333155 82 
0.40044 -0.0969824 -0.332398 86 
0.400441 -0.0969847 -0.331595 85 
0.400531 -0.0970198 -0.330815 90 
0.400488 -0.0970061 -0.330001 90 
0.400446 -0.0969926 -0.329188 91 
0.400094 -0.0968654 -0.328296 97 
0.40054 -0.097031 -0.327609 99 
0.400721 -0.0970993 -0.326854 94 
0.401125 -0.0972493 -0.326154 94 
0.401129 -0.0972527 -0.325354 95 
0.4014 -0.0973542 -0.32462 107 
0.401005 -0.097211 -0.323723 101 
0.401632 -0.0974433 -0.323076 109 
0.402084 -0.0976109 -0.322384 110 
0.401867 -0.0975331 -0.321532 116 
0.402632 -0.0978159 -0.320913 121 
0.402907 -0.0979188 -0.320177 122 
0.402869 -0.0979068 -0.319367 123 
0.402117 -0.0976325 -0.318394 131 
0.402258 -0.0976864 -0.317629 125 
0.402803 -0.0978881 -0.316954 128 
0.403035 -0.0979753 -0.316207 124 
0.403268 -0.0980627 -0.31546 124 
0.403546 -0.0981668 -0.314723 131 
0.403556 -0.0981722 -0.313926 139 
0.403431 -0.0981284 -0.313101 127 
0.403801 -0.0982659 -0.312383 128 
0.403363 -0.0981071 -0.311492 131 
0.403688 -0.0982284 -0.310764 136 
0.40361 -0.0982017 -0.309951 130 
0.403801 -0.0982739 -0.309194 128 
0.404038 -0.0983628 -0.308446 125 
0.404141 -0.0984024 -0.307671 132 
0.404514 -0.0985413 -0.30695 127 
0.404934 -0.0986972 -0.306236 127 
0.404767 -0.0986381 -0.305407 134 
0.405143 -0.0987778 -0.304684 140 
0.405157 -0.0987852 -0.303891 143 
0.405761 -0.0990085 -0.303209 147 
0.405505 -0.0989165 -0.302365 146 
0.406246 -0.0991904 -0.301706 147 
0.405718 -0.0989988 -0.300813 147 
0.406007 -0.0991067 -0.30007 148 
0.406297 -0.0992149 -0.299326 150 
0.406723 -0.0993734 -0.298606 149 
0.406923 -0.0994488 -0.297845 150 
0.406988 -0.0994743 -0.29706 154 
0.407143 -0.0995334 -0.296291 150 
0.406981 -0.0994757 -0.295468 152 
0.407137 -0.0995351 -0.294699 153 
0.407204 -0.0995612 -0.293914 152 
0.407635 -0.0997215 -0.29319 154 
0.40761 -0.0997145 -0.292391 157 
0.407678 -0.0997412 -0.291606 154 
0.407883 -0.0998183 -0.290844 151 
0.408363 -0.0999965 -0.290124 154 
0.408523 -0.100057 -0.289353 153 
0.408822 -0.100169 -0.288602 156 
0.408754 -0.100146 -0.287797 160 
0.408504 -0.100056 -0.286964 160 
0.408804 -0.100168 -0.286214 162 
0.408876 -0.100196 -0.285429 160 
0.409177 -0.100309 -0.284677 166 
0.409203 -0.10032 -0.283886 166 
0.409093 -0.100282 -0.283076 171 
0.409258 -0.100344 -0.282305 170 
0.409653 -0.100491 -0.281563 169 
0.410004 -0.100622 -0.280815 170 
0.410772 -0.100906 -0.280119 175 
0.410709 -0.100885 -0.279315 171 
0.410739 -0.100898 -0.278523 173 
0.410861 -0.100945 -0.277742 173 
0.411077 -0.101026 -0.276973 174 
0.411109 -0.101039 -0.276181 175 
0.411512 -0.101189 -0.275433 177 
0.411544 -0.101203 -0.27464 176 
0.411438 -0.101166 -0.273833 175 
0.412028 -0.101385 -0.273103 173 
0.411551 -0.101211 -0.272254 172 
0.411725 -0.101277 -0.271478 175 
0.411713 -0.101275 -0.270681 171 
0.41212 -0.101426 -0.269929 171 
0.411924 -0.101356 -0.269113 174 
0.41196 -0.101371 -0.268322 172 
0.411904 -0.101352 -0.267521 173 
0.412593 -0.101607 -0.266793 173 
0.412538 -0.101589 -0.265992 181 
0.412763 -0.101674 -0.265217 180 
0.412895 -0.101724 -0.264434 180 
0.413074 -0.101792 -0.263654 178 
0.413348 -0.101894 -0.262882 180 
0.413202 -0.101843 -0.262073 180 
0.413149 -0.101825 -0.261273 178 
0.413191 -0.101842 -0.260481 178 
0.413373 -0.101911 -0.2597 182 
0.413509 -0.101963 -0.258915 183 
0.413599 -0.101998 -0.258126 186 
0.413737 -0.102051 -0.25734 186 
0.413547 -0.101983 -0.256531 183 
0.413591 -0.102001 -0.255739 180 
0.41359 -0.102002 -0.254944 183 
0.414292 -0.102262 -0.254194 180 
0.414949 -0.102506 -0.253439 183 
0.414761 -0.102438 -0.25263 178 
0.414057 -0.102182 -0.251792 181 
0.414574 -0.102374 -0.251026 185 
0.414435 -0.102324 -0.250222 186 
0.413874 -0.10212 -0.249397 181 
0.413643 -0.102037 -0.248591 186 
0.41449 -0.10235 -0.247838 187 
0.414399 -0.102319 -0.247038 195 
0.413981 -0.102167 -0.246224 193 
0.413565 -0.102016 -0.245412 197 
0.413476 -0.101985 -0.244615 191 
0.413062 -0.101835 -0.243806 195 
0.413068 -0.101839 -0.243013 196 
0.413869 -0.102136 -0.242249 196 
0.412709 -0.101711 -0.241417 192 
0.412903 -0.101784 -0.240632 196 
0.413145 -0.101875 -0.239847 193 
0.4132 -0.101897 -0.239056 198 
0.412976 -0.101817 -0.238258 200 
0.413406 -0.101977 -0.237476 201 
0.41295 -0.101811 -0.236674 200 
0.412821 -0.101766 -0.23588 201 
0.412647 -0.101703 -0.235086 204 
0.412519 -0.101658 -0.234293 204 
0.412299 -0.101579 -0.2335 204 
0.412451 -0.101637 -0.232711 206 
0.412977 -0.101832 -0.231926 204 
0.412479 -0.101651 -0.231131 209 
0.41254 -0.101676 -0.23034 209 
0.412555 -0.101683 -0.22955 211 
0.412524 -0.101674 -0.228759 212 
0.412494 -0.101664 -0.227969 213 
0.412231 -0.10157 -0.227179 214 
0.412109 -0.101527 -0.226389 214 
0.41171 -0.101382 -0.225602 208 
0.411543 -0.101322 -0.224815 207 
0.411284 -0.101229 -0.224029 209 
0.411118 -0.10117 -0.223243 210 
0.410907 -0.101094 -0.222458 204 
0.410098 -0.100799 -0.221684 203 
0.408745 -0.100303 -0.220923 201 
0.408492 -0.100212 -0.220144 197 
0.408331 -0.100155 -0.219365 200 
0.408535 -0.100232 -0.218577 206 
0.408512 -0.100225 -0.217795 205 
0.408262 -0.100135 -0.217019 203 
0.408194 -0.100112 -0.216238 199 
0.408036 -0.100056 -0.21546 198 
0.408789 -0.100335 -0.214652 199 
0.408358 -0.100178 -0.213883 202 
0.408155 -0.100105 -0.213108 200 
0.40809 -0.100083 -0.212327 201 
0.408298 -0.100162 -0.211535 201 
0.408189 -0.100123 -0.210757 208 
0.408489 -0.100236 -0.209959 203 
0.408836 -0.100365 -0.209159 204 
0.409276 -0.100529 -0.208352 205 
0.409947 -0.100777 -0.207531 206 
0.408603 -0.100285 -0.206816 206 
0.409319 -0.10055 -0.205991 207 
0.408846 -0.100378 -0.205232 208 
0.409289 -0.100543 -0.20442 212 
0.410055 -0.100826 -0.203586 209 
0.408941 -0.100419 -0.202869 207 
0.40911 -0.100483 -0.202071 205 
0.409969 -0.1008 -0.201226 206 
0.410739 -0.101086 -0.200384 208 
0.410589 -0.101032 -0.199604 204 
0.410578 -0.10103 -0.198815 201 
0.410337 -0.100943 -0.198043 200 
0.410511 -0.101009 -0.197239 201 
0.410685 -0.101075 -0.196435 203 
0.410769 -0.101108 -0.195637 204 
0.410714 -0.10109 -0.19485 205 
0.410567 -0.101038 -0.194071 205 
0.411114 -0.101241 -0.193232 206 
0.411199 -0.101274 -0.192431 206 
0.411563 -0.10141 -0.191605 204 
0.411557 -0.101409 -0.190811 202 
0.411597 -0.101426 -0.190013 204 
0.411499 -0.101392 -0.189228 203 
0.411588 -0.101426 -0.188424 204 
0.411398 -0.101358 -0.187649 199 
0.411858 -0.10153 -0.186806 206 
0.412181 -0.10165 -0.185976 205 
0.413299 -0.102063 -0.185059 209 
0.41325 -0.102047 -0.184264 203 
0.413529 -0.102152 -0.183434 204 
0.413622 -0.102188 -0.182623 205 
0.413575 -0.102173 -0.181827 204 
0.413481 -0.10214 -0.181037 213 
0.41381 -0.102263 -0.180197 207 
0.413671 -0.102214 -0.179411 207 
0.413954 -0.10232 -0.178574 203 
0.413815 -0.102271 -0.177789 204 
0.414288 -0.102447 -0.176925 205 
0.414574 -0.102554 -0.176084 206 
0.416094 -0.103115 -0.175079 207 
0.416288 -0.103188 -0.174245 209 
0.415202 -0.10279 -0.173583 203 
0.415729 -0.102986 -0.172703 204 
0.415687 -0.102973 -0.1719 201 
0.416026 -0.1031 -0.171043 201 
0.416319 -0.103209 -0.170191 205 
0.415708 -0.102986 -0.169469 202 
0.41643 -0.103254 -0.168553 206 
0.416534 -0.103294 -0.167726 204 
0.416638 -0.103335 -0.166897 206 
0.416935 -0.103446 -0.166039 207 
0.416897 -0.103434 -0.165231 212 
0.417099 -0.10351 -0.164385 210 
0.41759 -0.103693 -0.163492 209 
0.41717 -0.10354 -0.162743 208 
0.417326 -0.1036 -0.161902 203 
0.417675 -0.10373 -0.161028 208 
0.418411 -0.104003 -0.160087 212 
0.419731 -0.10449 -0.159043 209 
0.419795 -0.104516 -0.15821 208 
0.419664 -0.10447 -0.157409 209 
0.419729 -0.104496 -0.156575 210 
0.41994 -0.104575 -0.155714 208 
0.419908 -0.104565 -0.154895 206 
0.419731 -0.104502 -0.154102 205 
0.420187 -0.104672 -0.153193 204 
0.420108 -0.104645 -0.152381 205 
0.419933 -0.104582 -0.151588 202 
0.419904 -0.104574 -0.150767 203 
0.42046 -0.10478 -0.149833 206 
0.420872 -0.104934 -0.148924 207 
0.420698 -0.104872 -0.148128 204 
0.421307 -0.105098 -0.147178 201 
0.421526 -0.105181 -0.146302 198 
0.421352 -0.105119 -0.145505 204 
0.421523 -0.105184 -0.144637 203 
0.422089 -0.105394 -0.143687 201 
0.422953 -0.105714 -0.142672 203 
0.423176 -0.105798 -0.141788 208 
0.423798 -0.106029 -0.140817 206 
0.423626 -0.105968 -0.140014 204 
0.423504 -0.105925 -0.1392 198 
0.423532 -0.105937 -0.138353 197 
0.42366 -0.105986 -0.137484 201 
0.424087 -0.106146 -0.136547 201 
0.424515 -0.106305 -0.135608 205 
0.424446 -0.106282 -0.134779 203 
0.424426 -0.106277 -0.133938 203 
0.424507 -0.106308 -0.133074 202 
0.42539 -0.106636 -0.132023 201 
0.425122 -0.106539 -0.131237 199 
0.425908 -0.10683 -0.130202 196 
0.426093 -0.1069 -0.129307 192 
0.42643 -0.107026 -0.128375 190 
0.426869 -0.10719 -0.127415 189 
0.427158 -0.107299 -0.12649 191 
0.427448 -0.107407 -0.125563 192 
0.427586 -0.10746 -0.124672 190 
0.427522 -0.107439 -0.12383 186 
0.427458 -0.107417 -0.122988 189 
0.427446 -0.107415 -0.122133 188 
0.42779 -0.107544 -0.121186 185 
0.427727 -0.107523 -0.120342 184 
0.427767 -0.107539 -0.11947 186 
0.428165 -0.107688 -0.118504 187 
0.428563 -0.107837 -0.117536 187 
0.428605 -0.107854 -0.11666 185 
0.429571 -0.108212 -0.115535 180 
0.429717 -0.108268 -0.114628 181 
0.429195 -0.108078 -0.113902 184 
0.428931 -0.107982 -0.113107 186 
0.429592 -0.108228 -0.112055 185 
0.42974 -0.108285 -0.111144 182 
0.430199 -0.108456 -0.110143 183 
0.430503 -0.10857 -0.109184 182 
0.430602 -0.108608 -0.108282 183 
0.43065 -0.108628 -0.107393 183 
0.430646 -0.108629 -0.106519 184 
0.431006 -0.108763 -0.105538 183 
0.431159 -0.108822 -0.104615 181 
0.430897 -0.108728 -0.103814 179 
0.430688 -0.108653 -0.102998 177 
0.430583 -0.108616 -0.102151 177 
0.430893 -0.108732 -0.101177 179 
0.431309 -0.108888 -0.10017 179 
0.431309 -0.10889 -0.0992885 177 
0.430997 -0.108777 -0.0985015 173 
0.431102 -0.108818 -0.0975865 174 
0.431573 -0.108993 -0.0965545 180 
0.431888 -0.109112 -0.0955695 181 
0.43163 -0.109019 -0.0947655 178 
0.430746 -0.108695 -0.0941605 175 
0.431062 -0.108814 -0.0931725 175 
0.431483 -0.108971 -0.0921495 175 
0.431435 -0.108956 -0.0912765 179 
0.431492 -0.108979 -0.0903675 174 
0.431602 -0.109021 -0.0894415 174 
0.431712 -0.109064 -0.0885135 172 
0.431404 -0.108953 -0.0877245 176 
0.431777 -0.109092 -0.0867065 177 
0.432047 -0.109194 -0.0857215 177 
0.431425 -0.108967 -0.0850385 174 
0.431433 -0.108972 -0.0841404 180 
0.430553 -0.10865 -0.0835495 181 
0.430979 -0.108809 -0.0825075 181 
0.430831 -0.108756 -0.0816625 180 
0.430631 -0.108685 -0.0808365 185 
0.430589 -0.108672 -0.0799555 181 
0.430442 -0.10862 -0.0791095 187 
0.430453 -0.108626 -0.0782085 185 
0.430359 -0.108593 -0.0773435 182 
0.430214 -0.108542 -0.0764975 182 
0.429912 -0.108433 -0.0757075 180 
0.429716 -0.108363 -0.0748795 179 
0.429676 -0.10835 -0.0739945 175 
0.428804 -0.108031 -0.0734165 172 
0.428143 -0.10779 -0.0727625 169 
0.428001 -0.10774 -0.0719175 163 
0.427755 -0.107651 -0.0711105 162 
0.427562 -0.107582 -0.0702835 159 
0.427576 -0.10759 -0.0693785 154 
0.427383 -0.107521 -0.0685505 150 
0.426985 -0.107376 -0.0678035 154 
0.425817 -0.106948 -0.0673545 154 
0.426963 -0.107373 -0.0660085 164 
0.425181 -0.106718 -0.0658035 159 
0.425503 -0.106839 -0.0647765 152 
0.424496 -0.10647 -0.0642745 151 
0.423443 -0.106084 -0.0637935 154 
0.423357 -0.106054 -0.0629295 158 
0.422764 -0.105838 -0.0622695 161 
0.422477 -0.105734 -0.0614865 158 
0.421836 -0.1055 -0.0608485 158 
0.421298 -0.105304 -0.0601705 153 
0.421415 -0.10535 -0.0592235 153 
0.421332 -0.105321 -0.0583595 156 
0.420043 -0.104848 -0.0579955 153 
0.41956 -0.104672 -0.0572995 146 
0.419627 -0.104699 -0.0563735 151 
0.420798 -0.105133 -0.0549805 145 
0.419713 -0.104735 -0.0545395 148 
0.419231 -0.104559 -0.0538445 140 
0.419199 -0.10455 -0.0529575 137 
0.419668 -0.104725 -0.0518545 135 
0.419087 -0.104513 -0.0512035 138 
0.419407 -0.104633 -0.0501615 133 
0.419577 -0.104698 -0.0491835 133 
0.419296 -0.104597 -0.0484015 127 
0.418816 -0.104422 -0.0477075 128 
0.419237 -0.104579 -0.0466155 126 
0.419008 -0.104497 -0.0458105 131 
0.419029 -0.104507 -0.0448935 127 
0.418002 -0.10413 -0.0444475 121 
0.419023 -0.104509 -0.0430785 113 
0.419196 -0.104575 -0.0420895 124 
0.41957 -0.104715 -0.0410065 122 
0.419593 -0.104726 -0.0400825 122 
0.419315 -0.104625 -0.0392965 114 
0.419591 -0.104729 -0.0382545 117 
0.42017 -0.104945 -0.0370685 116 
0.419438 -0.104677 -0.0364925 117 
0.419715 -0.104782 -0.0354445 115 
0.419086 -0.104552 -0.0348235 115 
0.419212 -0.104601 -0.0338445 111 
0.420095 -0.104929 -0.0325035 114 
0.419516 -0.104717 -0.0318585 112 
0.419089 -0.104562 -0.0311415 110 
0.396185 -0.0986578 -0.424828 6 
0.396874 -0.0989186 -0.4243 5 
0.400071 -0.10012 -0.425031 6 
0.399489 -0.099904 -0.423856 8 
0.399228 -0.0998084 -0.422845 9 
0.39979 -0.100021 -0.422245 8 
0.397667 -0.0992266 -0.420315 6 
0.400321 -0.100225 -0.420747 6 
0.402176 -0.100923 -0.420777 8 
0.400716 -0.100378 -0.419182 4 
0.39895 -0.0997168 -0.417446 11 
0.39933 -0.0998613 -0.416755 8 
0.400944 -0.100469 -0.416658 7 
0.398816 -0.0996726 -0.414763 8 
0.400563 -0.100331 -0.414725 10 
0.400396 -0.10027 -0.413772 8 
0.401466 -0.100674 -0.413404 8 
0.399927 -0.100098 -0.411807 9 
0.400537 -0.100329 -0.411222 8 
0.399053 -0.0997741 -0.409661 8 
0.399569 -0.0999701 -0.409034 7 
0.400361 -0.100269 -0.408532 12 
0.401292 -0.100621 -0.408092 8 
0.401081 -0.100544 -0.407127 10 
0.400963 -0.100501 -0.406205 13 
0.400844 -0.100459 -0.405285 11 
0.401549 -0.100726 -0.404737 12 
0.402164 -0.100959 -0.404146 13 
0.400082 -0.100179 -0.402352 15 
0.401377 -0.100668 -0.402065 14 
0.400485 -0.100335 -0.400808 13 
0.402195 -0.100979 -0.400698 12 
0.400253 -0.100252 -0.398986 14 
0.401732 -0.100809 -0.39877 12 
0.40084 -0.100476 -0.397524 10 
0.400861 -0.100486 -0.396675 17 
0.401977 -0.100907 -0.396295 12 
0.400904 -0.100507 -0.394979 13 
0.400971 -0.100534 -0.394151 15 
0.401722 -0.100818 -0.393613 13 
0.402935 -0.101275 -0.393265 14 
0.40113 -0.100599 -0.391653 16 
0.400381 -0.10032 -0.390489 21 
0.400631 -0.100416 -0.389742 19 
0.402339 -0.10106 -0.389592 20 
0.402316 -0.101053 -0.388729 18 
0.403118 -0.101357 -0.388202 20 
0.401135 -0.100614 -0.386546 22 
0.401659 -0.100813 -0.385908 21 
0.402276 -0.101047 -0.385306 22 
0.402119 -0.100989 -0.384393 20 
0.402509 -0.101138 -0.383699 21 
0.40117 -0.100637 -0.382323 25 
0.401377 -0.100717 -0.381559 22 
0.401177 -0.100644 -0.380636 23 
0.401838 -0.100894 -0.380048 27 
0.402092 -0.100992 -0.379301 32 
0.40171 -0.10085 -0.378311 31 
0.402237 -0.10105 -0.377668 32 
0.401267 -0.100688 -0.376458 38 
0.401069 -0.100615 -0.375543 43 
0.401504 -0.100781 -0.374866 33 
0.400945 -0.100573 -0.373819 33 
0.401471 -0.100772 -0.373175 30 
0.400417 -0.100379 -0.37195 37 
0.401077 -0.100629 -0.371356 40 
0.401288 -0.10071 -0.370597 40 
0.401408 -0.100757 -0.369804 38 
0.401393 -0.100753 -0.368964 38 
0.401604 -0.100835 -0.368205 41 
0.401816 -0.100916 -0.367446 43 
0.401395 -0.10076 -0.366463 41 
0.402241 -0.10108 -0.365928 38 
0.402046 -0.101009 -0.365026 41 
0.40294 -0.101346 -0.364503 40 
0.402609 -0.101224 -0.363556 43 
0.402596 -0.101221 -0.362719 47 
0.402448 -0.101168 -0.361837 47 
0.402255 -0.101097 -0.360941 45 
0.402243 -0.101095 -0.360107 49 
0.401961 -0.100991 -0.359184 52 
0.40186 -0.100955 -0.358323 50 
0.402165 -0.101071 -0.357597 54 
0.401794 -0.100934 -0.356648 54 
0.402055 -0.101034 -0.355908 54 
0.401011 -0.100644 -0.354745 55 
0.401047 -0.100659 -0.353934 52 
0.40059 -0.10049 -0.352966 48 
0.400135 -0.100321 -0.352002 51 
0.399193 -0.0999687 -0.350886 53 
0.39892 -0.0998681 -0.349984 57 
0.398604 -0.0997512 -0.349071 56 
0.398598 -0.0997508 -0.348255 57 
0.398724 -0.0998005 -0.347481 58 
0.398807 -0.0998336 -0.346694 57 
0.398935 -0.0998835 -0.34592 57 
0.398488 -0.0997176 -0.344974 65 
0.398131 -0.0995853 -0.344057 73 
0.398347 -0.0996686 -0.343312 77 
0.398079 -0.0995698 -0.342424 74 
0.398076 -0.0995706 -0.341615 75 
0.397634 -0.0994063 -0.340679 77 
0.397719 -0.0994403 -0.339898 78 
0.397629 -0.0994085 -0.339067 76 
0.398023 -0.0995583 -0.338374 73 
0.397714 -0.0994442 -0.337482 80 
0.397757 -0.0994622 -0.336691 79 
0.398283 -0.099662 -0.336034 74 
0.398239 -0.0996473 -0.335218 78 
0.398371 -0.0996988 -0.334451 77 
0.398503 -0.0997504 -0.333684 76 
0.398768 -0.0998519 -0.332953 79 
0.398901 -0.0999039 -0.332186 85 
0.399035 -0.099956 -0.331419 86 
0.399168 -0.100008 -0.330652 88 
0.399435 -0.10011 -0.32992 86 
0.399924 -0.100296 -0.329245 97 
0.399926 -0.100299 -0.328444 100 
0.400062 -0.100352 -0.327677 99 
0.399623 -0.100189 -0.326765 97 
0.400335 -0.100458 -0.326143 102 
0.400206 -0.100412 -0.32531 106 
0.400255 -0.100432 -0.324522 110 
0.400525 -0.100536 -0.323788 108 
0.400575 -0.100556 -0.323001 113 
0.400403 -0.100493 -0.32216 107 
0.400497 -0.100531 -0.321384 116 
0.40157 -0.100936 -0.320839 117 
0.401621 -0.100957 -0.320051 117 
0.401672 -0.100978 -0.319264 112 
0.40159 -0.10095 -0.318446 115 
0.402133 -0.101156 -0.317771 117 
0.402409 -0.101261 -0.317034 119 
0.402283 -0.101216 -0.316207 122 
0.40265 -0.101356 -0.31549 128 
0.40257 -0.101327 -0.314673 127 
0.402311 -0.101232 -0.313819 129 
0.402455 -0.101288 -0.313053 126 
0.402421 -0.101277 -0.312248 126 
0.402789 -0.101418 -0.31153 125 
0.402934 -0.101474 -0.310764 122 
0.402678 -0.10138 -0.309914 123 
0.402913 -0.10147 -0.309167 126 
0.40306 -0.101527 -0.308401 129 
0.403207 -0.101584 -0.307635 126 
0.404118 -0.101929 -0.307022 130 
0.403997 -0.101885 -0.306201 135 
0.404325 -0.102011 -0.305469 134 
0.40407 -0.101916 -0.304623 141 
0.40404 -0.101907 -0.303822 142 
0.40446 -0.102067 -0.303106 147 
0.404611 -0.102126 -0.302339 149 
0.405711 -0.102541 -0.301748 156 
0.405592 -0.102498 -0.300929 150 
0.405609 -0.102507 -0.300136 153 
0.405355 -0.102413 -0.299294 145 
0.405825 -0.102592 -0.298582 144 
0.405571 -0.102498 -0.297742 142 
0.406224 -0.102746 -0.29706 150 
0.406017 -0.10267 -0.296229 155 
0.406082 -0.102696 -0.295445 153 
0.406328 -0.102791 -0.294691 153 
0.406667 -0.10292 -0.293952 154 
0.406415 -0.102827 -0.293116 154 
0.406573 -0.102888 -0.292347 160 
0.40714 -0.103104 -0.291643 154 
0.407345 -0.103183 -0.29088 153 
0.407322 -0.103176 -0.290081 153 
0.40771 -0.103324 -0.289346 154 
0.40787 -0.103386 -0.288575 156 
0.408123 -0.103483 -0.287817 161 
0.408193 -0.103511 -0.287032 164 
0.408539 -0.103643 -0.286287 165 
0.408427 -0.103603 -0.285475 165 
0.408178 -0.103512 -0.284645 171 
0.408388 -0.103592 -0.28388 163 
0.408965 -0.103811 -0.283165 168 
0.409084 -0.103858 -0.282386 171 
0.40902 -0.103836 -0.281582 171 
0.408956 -0.103814 -0.280778 168 
0.409215 -0.103913 -0.280018 170 
0.409428 -0.103995 -0.27925 168 
0.41001 -0.104216 -0.278529 171 
0.409994 -0.104212 -0.277731 171 
0.409841 -0.104156 -0.276917 173 
0.41001 -0.104222 -0.276142 171 
0.410457 -0.104392 -0.2754 174 
0.41049 -0.104406 -0.274608 172 
0.410661 -0.104472 -0.273833 172 
0.410602 -0.104452 -0.27303 172 
0.410728 -0.104501 -0.272249 173 
0.410855 -0.104551 -0.271468 169 
0.411075 -0.104636 -0.270696 169 
0.411249 -0.104703 -0.269919 169 
0.411795 -0.104911 -0.269179 173 
0.411785 -0.104909 -0.268382 167 
0.412101 -0.10503 -0.267617 177 
0.413915 -0.105714 -0.266995 175 
0.412642 -0.105237 -0.266075 176 
0.413475 -0.105553 -0.265355 179 
0.41244 -0.105165 -0.264463 183 
0.412572 -0.105217 -0.263678 179 
0.412566 -0.105216 -0.262882 182 
0.412466 -0.10518 -0.262077 183 
0.412321 -0.105128 -0.261269 185 
0.412455 -0.10518 -0.260485 186 
0.412684 -0.105268 -0.259707 186 
0.412307 -0.105128 -0.258883 186 
0.413892 -0.105727 -0.258206 180 
0.41272 -0.105287 -0.257323 182 
0.413792 -0.105693 -0.256604 179 
0.412995 -0.105395 -0.255752 180 
0.412667 -0.105273 -0.254935 190 
0.413226 -0.105485 -0.254176 183 
0.413834 -0.105716 -0.253418 184 
0.413132 -0.105454 -0.252579 185 
0.413132 -0.105456 -0.251784 190 
0.412853 -0.105353 -0.250973 189 
0.412808 -0.105338 -0.250176 188 
0.412857 -0.105358 -0.249385 190 
0.413466 -0.105589 -0.248621 190 
0.413844 -0.105734 -0.247844 191 
0.414035 -0.105807 -0.247057 199 
0.414086 -0.105829 -0.246264 199 
0.413809 -0.105726 -0.245456 199 
0.413347 -0.105554 -0.244641 201 
0.413633 -0.105664 -0.243858 196 
0.412891 -0.105387 -0.243036 197 
0.413552 -0.105637 -0.242265 201 
0.413887 -0.105765 -0.241481 200 
0.413708 -0.105699 -0.24068 199 
0.413622 -0.105669 -0.239883 198 
0.412325 -0.105183 -0.239054 199 
0.412381 -0.105206 -0.238263 200 
0.413089 -0.105474 -0.237487 206 
0.412634 -0.105305 -0.236684 206 
0.412086 -0.105101 -0.235881 202 
0.412702 -0.105334 -0.2351 204 
0.413602 -0.105675 -0.234321 205 
0.41324 -0.105541 -0.233522 205 
0.41316 -0.105512 -0.232728 208 
0.412474 -0.105256 -0.231928 210 
0.413 -0.105456 -0.23114 210 
0.413622 -0.105692 -0.23035 208 
0.412704 -0.105348 -0.229553 209 
0.412533 -0.105286 -0.22876 205 
0.411806 -0.105014 -0.227969 212 
0.411961 -0.105075 -0.227177 215 
0.412118 -0.105135 -0.226386 216 
0.411532 -0.104917 -0.225598 214 
0.410903 -0.104682 -0.224813 212 
0.410553 -0.104552 -0.224028 209 
0.410526 -0.104543 -0.22324 211 
0.408939 -0.103948 -0.222475 207 
0.409416 -0.104129 -0.221682 205 
0.408431 -0.10376 -0.220914 206 
0.407905 -0.103564 -0.220141 210 
0.40779 -0.103523 -0.21936 205 
0.40763 -0.103464 -0.218581 211 
0.407743 -0.103509 -0.217795 205 
0.407448 -0.1034 -0.21702 206 
0.407108 -0.103274 -0.216247 202 
0.407223 -0.103318 -0.215462 205 
0.407292 -0.103347 -0.214677 205 
0.407362 -0.103375 -0.213892 208 
0.407296 -0.103352 -0.213111 202 
0.407277 -0.103346 -0.212329 202 
0.407394 -0.103392 -0.211541 201 
0.40742 -0.103404 -0.210757 203 
0.407402 -0.103399 -0.209974 199 
0.40752 -0.103446 -0.209185 203 
0.40773 -0.103527 -0.208391 209 
0.40785 -0.103574 -0.2076 211 
0.408974 -0.103999 -0.206754 205 
0.409371 -0.10415 -0.205945 205 
0.408852 -0.103957 -0.205187 202 
0.408426 -0.103798 -0.204425 204 
0.408138 -0.103692 -0.203657 201 
0.408215 -0.103723 -0.202866 204 
0.409667 -0.104271 -0.201983 206 
0.410805 -0.104702 -0.201116 208 
0.408679 -0.103903 -0.200474 204 
0.410551 -0.10461 -0.199551 206 
0.40971 -0.104295 -0.198822 205 
0.409562 -0.104241 -0.198043 204 
0.409735 -0.104309 -0.197239 204 
0.409864 -0.104359 -0.196438 206 
0.409762 -0.104323 -0.195656 206 
0.409892 -0.104373 -0.194854 205 
0.409653 -0.104285 -0.194083 206 
0.409692 -0.104302 -0.193288 207 
0.409776 -0.104335 -0.192489 207 
0.410046 -0.104439 -0.191672 207 
0.410455 -0.104595 -0.190841 203 
0.410495 -0.104612 -0.190044 203 
0.410675 -0.104682 -0.189232 203 
0.412155 -0.105241 -0.18829 202 
0.41099 -0.104804 -0.187611 200 
0.411264 -0.104909 -0.186787 199 
0.410798 -0.104736 -0.18604 202 
0.411676 -0.105069 -0.185149 202 
0.411907 -0.105157 -0.184326 203 
0.412465 -0.105369 -0.183465 204 
0.412091 -0.10523 -0.182708 202 
0.412557 -0.105408 -0.181854 199 
0.41251 -0.105392 -0.181059 204 
0.412651 -0.105447 -0.180241 205 
0.412605 -0.105432 -0.179446 200 
0.41284 -0.105523 -0.178615 203 
0.41317 -0.105649 -0.177771 203 
0.413831 -0.1059 -0.176883 202 
0.413552 -0.105796 -0.176115 203 
0.413602 -0.105817 -0.175303 204 
0.413607 -0.105821 -0.174498 204 
0.413705 -0.10586 -0.173679 206 
0.413805 -0.1059 -0.172859 205 
0.413999 -0.105975 -0.172026 207 
0.414382 -0.106121 -0.171164 206 
0.414578 -0.106197 -0.170328 206 
0.415628 -0.106595 -0.169366 205 
0.415589 -0.106582 -0.16856 205 
0.415788 -0.106659 -0.167718 208 
0.416273 -0.106844 -0.166832 207 
0.416188 -0.106813 -0.166032 213 
0.416103 -0.106783 -0.165231 204 
0.4164 -0.106897 -0.16437 208 
0.416268 -0.106849 -0.163576 207 
0.416423 -0.10691 -0.162736 211 
0.416722 -0.107024 -0.161871 209 
0.416974 -0.107121 -0.161012 208 
0.417419 -0.107291 -0.160119 212 
0.418059 -0.107534 -0.159191 209 
0.419137 -0.107943 -0.158185 210 
0.419007 -0.107896 -0.157384 212 
0.418974 -0.107885 -0.156566 208 
0.418845 -0.107839 -0.155765 205 
0.418862 -0.107847 -0.154938 205 
0.418735 -0.107801 -0.154137 206 
0.419286 -0.108011 -0.153211 209 
0.419693 -0.108166 -0.152309 210 
0.41981 -0.108212 -0.15146 206 
0.419829 -0.108222 -0.150628 204 
0.419947 -0.108268 -0.149777 202 
