0.474087,0.035745,0.107289,184
0.474137,0.0357411,0.108207,184
0.474979,0.0357065,0.109311,182
0.474543,0.0357213,0.110118,178
0.475754,0.0356724,0.111315,185
0.475563,0.0356778,0.112181,172
0.475311,0.0356854,0.113032,174
0.475855,0.0356623,0.114077,173
0.475727,0.0356652,0.114959,172
0.47615,0.0356468,0.115978,165
0.4759,0.0356544,0.116832,166
0.476142,0.035643,0.117809,172
0.476261,0.0356363,0.118756,174
0.477058,0.0356034,0.119877,177
0.477056,0.0356014,0.120797,175
0.477363,0.0355874,0.121797,173
0.47798,0.0355615,0.122881,173
0.478042,0.035557,0.123821,178
0.478353,0.0355429,0.124828,180
0.478789,0.0355239,0.12587,180
0.478667,0.0355265,0.126765,173
0.478981,0.0355123,0.127778,171
0.479296,0.035498,0.128793,171
0.480738,0.03544,0.13012,173
0.479804,0.0354741,0.130795,171
0.479809,0.0354718,0.13173,165
0.479816,0.0354694,0.132665,167
0.480323,0.0354477,0.133743,167
0.481084,0.0354161,0.134896,161
0.480904,0.0354209,0.135782,161
0.481732,0.0353867,0.13696,163
0.481615,0.0353891,0.137867,168
0.482257,0.0353621,0.138996,159
0.482458,0.0353522,0.139999,156
0.48266,0.0353422,0.141003,146
0.482546,0.0353445,0.141915,143
0.482939,0.0353271,0.142979,144
0.482762,0.0353318,0.143874,149
0.483285,0.0353094,0.144981,150
0.484257,0.0352696,0.146228,148
0.48389,0.0352817,0.147068,145
0.483778,0.0352838,0.147986,139
0.483923,0.0352761,0.148984,136
0.48394,0.0352732,0.149944,142
0.484214,0.0352604,0.150986,145
0.484489,0.0352476,0.15203,145
0.48438,0.0352497,0.152953,140
0.484336,0.0352492,0.153897,142
0.484742,0.0352313,0.154987,140
0.485277,0.0352083,0.156122,133
0.485042,0.0352153,0.157008,135
0.485,0.0352148,0.157957,140
0.485088,0.0352092,0.158949,133
0.484468,0.0352311,0.159707,134
0.48385,0.0352529,0.160463,136
0.484195,0.0352373,0.161543,134
0.484542,0.0352217,0.162626,129
0.484246,0.035231,0.163492,132
0.483822,0.0352453,0.164313,130
0.483785,0.0352446,0.165267,126
0.484133,0.0352288,0.166356,126
0.483775,0.0352406,0.167199,128
0.48329,0.0352572,0.167998,113
0.483126,0.0352614,0.168909,112
0.483668,0.0352381,0.170072,114
0.48312,0.0352573,0.170847,114
0.483343,0.0352464,0.171899,112
0.482157,0.0352904,0.172442,115
0.481422,0.0353168,0.173145,122
0.481516,0.0353109,0.17415,126
0.481165,0.0353224,0.174992,120
0.47999,0.035366,0.175529,119
0.480275,0.0353527,0.176605,119
0.480689,0.0353344,0.177732,117
0.479896,0.0353631,0.178407,114
0.480755,0.0353274,0.179705,111
0.479963,0.0353561,0.180378,106
0.479426,0.0353748,0.181148,111
0.479461,0.0353712,0.182135,111
0.478863,0.0353923,0.182879,113
0.479215,0.0353764,0.183991,119
0.478871,0.0353876,0.184833,122
0.478843,0.0353865,0.185799,122
0.478311,0.035405,0.186567,118
0.477654,0.0354285,0.187283,110
0.477187,0.0354445,0.188074,114
0.476533,0.0354678,0.188789,111
0.475881,0.035491,0.189503,112
0.474732,0.0355337,0.190013,111
0.474085,0.0355567,0.190724,110
0.473563,0.0355749,0.191485,111
0.473974,0.0355566,0.192628,109
0.472772,0.0356014,0.193107,105
0.472377,0.0356146,0.193918,104
0.471367,0.0356518,0.194471,103
0.470668,0.0356769,0.195151,101
0.470646,0.0356756,0.196114,101
0.470317,0.0356862,0.196949,106
0.470295,0.0356849,0.197913,112
0.470028,0.0356931,0.198774,120
0.469517,0.0357109,0.19953,118
0.46858,0.0357453,0.200101,119
0.468194,0.0357582,0.200907,114
0.468296,0.035752,0.201926,111
0.467303,0.0357886,0.202467,108
0.466859,0.0358038,0.203246,106
0.467021,0.0357952,0.204292,106
0.466457,0.0358151,0.205017,111
0.466257,0.0358207,0.205904,112
0.466239,0.0358192,0.206872,109
0.464593,0.0358814,0.207107,111
0.464154,0.0358964,0.207883,114
0.442967,0.0341807,-0.210194,3
0.449625,0.0338797,-0.212419,4
0.723091,0.0215977,-0.341081,3
0.449577,0.0338775,-0.210501,5
0.448853,0.0339079,-0.209217,3
0.449812,0.0338627,-0.20872,6
0.448305,0.0339283,-0.207077,7
0.450838,0.0338123,-0.207306,7
0.450168,0.0338403,-0.206054,6
0.448382,0.0339185,-0.204294,6
0.450632,0.0338152,-0.204381,7
0.450076,0.0338381,-0.203188,4
0.45014,0.0338331,-0.202278,7
0.451444,0.0337723,-0.201925,6
0.450269,0.033823,-0.20046,4
0.455448,0.033588,-0.201828,8
0.451244,0.033775,-0.199019,8
0.449177,0.0338658,-0.19717,8
0.45313,0.0336859,-0.197973,7
0.452062,0.0337318,-0.196568,8
0.449265,0.0338555,-0.194415,11
0.452479,0.0337088,-0.194877,6
0.451192,0.0337646,-0.193387,7
0.450586,0.0337898,-0.192196,10
0.454272,0.0336218,-0.192839,8
0.453544,0.0336525,-0.191593,11
0.456757,0.0335057,-0.192017,11
0.452379,0.0337007,-0.189237,9
0.452618,0.0336878,-0.188408,10
0.451898,0.0337181,-0.187179,10
0.45389,0.0336263,-0.187077,7
0.452546,0.0336848,-0.185593,10
0.452448,0.0336871,-0.184626,12
0.453536,0.033636,-0.184144,12
0.452083,0.0336993,-0.182628,9
0.452549,0.0336763,-0.181893,13
0.452003,0.0336988,-0.18075,12
0.452694,0.0336656,-0.180105,16
0.45401,0.0336042,-0.179707,14
0.4538,0.0336115,-0.1787,15
0.453591,0.0336189,-0.177696,15
0.453608,0.033616,-0.176781,18
0.453683,0.0336106,-0.17589,16
0.453588,0.0336128,-0.174933,15
0.454682,0.0335614,-0.174436,12
0.454928,0.0335482,-0.173611,17
0.454947,0.0335453,-0.172698,17
0.454117,0.0335806,-0.171464,21
0.454986,0.0335393,-0.170876,19
0.454893,0.0335415,-0.169923,22
0.454574,0.0335538,-0.168888,23
0.457155,0.0334352,-0.168932,20
0.456035,0.0334837,-0.167598,23
0.456626,0.0334549,-0.166899,19
0.455,0.0335263,-0.165388,25
0.454457,0.0335487,-0.164278,25
0.45482,0.0335303,-0.163498,24
0.45592,0.0334786,-0.162983,27
0.456341,0.0334575,-0.162221,32
0.455231,0.0335056,-0.160914,37
0.455482,0.0334922,-0.160093,37
0.456528,0.0334428,-0.159552,35
0.455929,0.0334679,-0.158432,31
0.455784,0.0334724,-0.157474,27
0.455641,0.0334768,-0.156516,27
0.456575,0.0334325,-0.155931,25
0.457228,0.033401,-0.155246,28
0.456289,0.0334414,-0.154019,33
0.45734,0.0333918,-0.153469,36
0.457254,0.0333936,-0.152533,36
0.456714,0.033416,-0.151447,35
0.457425,0.0333818,-0.150779,30
0.457227,0.0333887,-0.149809,29
0.456859,0.0334033,-0.148785,31
0.458085,0.0333458,-0.148281,37
0.457545,0.0333682,-0.147203,32
0.457861,0.0333519,-0.146403,37
0.457551,0.0333638,-0.145401,36
0.457811,0.0333501,-0.144583,35
0.457673,0.0333543,-0.143639,34
0.457137,0.0333765,-0.142572,35
0.457284,0.0333678,-0.14172,37
0.456751,0.0333899,-0.140658,44
0.457466,0.0333555,-0.139982,43
0.457047,0.0333725,-0.138958,46
0.457763,0.033338,-0.13828,49
0.457856,0.0333318,-0.137413,55
0.457835,0.0333307,-0.136512,48
0.456965,0.0333681,-0.135358,51
0.456268,0.0333977,-0.13426,49
0.455574,0.0334271,-0.133166,59
0.455163,0.0334437,-0.132159,52
0.455258,0.0334374,-0.1313,56
0.453899,0.033497,-0.130023,63
0.454162,0.0334831,-0.129215,60
0.454314,0.0334742,-0.128376,58
0.453407,0.0335133,-0.127239,60
0.45306,0.0335271,-0.126262,63
0.453768,0.033493,-0.12558,67
0.452535,0.033547,-0.124361,71
0.452633,0.0335405,-0.123511,70
0.452455,0.0335466,-0.122587,74
0.452333,0.0335502,-0.12168,70
0.452211,0.0335537,-0.120773,74
0.452532,0.0335372,-0.119986,77
0.452191,0.0335507,-0.119023,76
0.452955,0.0335141,-0.118352,76
0.452669,0.0335251,-0.117405,74
0.451888,0.0335585,-0.116332,80
0.451826,0.0335594,-0.115446,79
0.452093,0.0335453,-0.114646,77
0.451427,0.0335736,-0.113609,79
0.450927,0.0335943,-0.112617,83
0.450484,0.0336125,-0.111642,76
0.448792,0.0336874,-0.11036,77
0.448463,0.0337004,-0.10942,77
0.447165,0.0337574,-0.108246,81
0.447109,0.033758,-0.107377,80
0.446462,0.0337855,-0.106367,88
0.4463,0.0337909,-0.105476,83
0.445178,0.03384,-0.104359,86
0.445018,0.0338453,-0.103473,91
0.443798,0.0338989,-0.102342,97
0.443535,0.0339089,-0.101435,93
0.443326,0.0339165,-0.100543,98
0.443012,0.0339289,-0.0996284,96
0.442856,0.033934,-0.0987511,96
0.442072,0.0339678,-0.0977351,97
0.441709,0.0339824,-0.0968156,101
0.441609,0.0339851,-0.0959552,98
0.440935,0.0340138,-0.0949717,101
0.440369,0.0340377,-0.0940142,99
0.440271,0.0340403,-0.093159,106
0.439811,0.0340593,-0.0922284,109
0.440597,0.0340217,-0.0915599,116
0.439774,0.0340572,-0.0905565,115
0.440509,0.0340219,-0.0898755,116
0.440673,0.0340126,-0.0890766,119
0.440838,0.0340032,-0.0882777,124
0.440536,0.034015,-0.0873856,122
0.44065,0.034008,-0.0865772,125
0.440765,0.0340009,-0.0857689,116
0.440932,0.0339914,-0.0849708,116
0.441048,0.0339842,-0.0841627,117
0.440904,0.0339889,-0.0833054,115
0.441281,0.0339699,-0.0825468,117
0.44093,0.033984,-0.081652,124
0.44136,0.0339625,-0.0809025,125
0.441635,0.0339481,-0.0801236,128
0.441702,0.0339432,-0.0793067,126
0.441093,0.0339691,-0.0783695,131
0.441264,0.0339594,-0.0775727,137
0.441385,0.033952,-0.0767667,145
0.441766,0.0339328,-0.0760057,141
0.442097,0.0339159,-0.075235,142
0.441906,0.0339227,-0.0743755,137
0.442185,0.0339081,-0.0735955,142
0.442204,0.0339053,-0.072772,142
0.442485,0.0338907,-0.0719914,143
0.442714,0.0338784,-0.0712019,135
0.442735,0.0338756,-0.0703786,136
0.442808,0.0338703,-0.069564,133
0.443196,0.0338508,-0.0687985,139
0.443061,0.0338551,-0.0679515,141
0.443608,0.0338282,-0.0672088,149
0.443474,0.0338325,-0.0663624,145
0.44397,0.033808,-0.0656101,141
0.444153,0.0337978,-0.0648105,144
0.444388,0.0337852,-0.0640181,149
0.444413,0.0337821,-0.0631954,148
0.444492,0.0337767,-0.0623804,151
0.444361,0.0337808,-0.0615364,152
0.44502,0.0337488,-0.0608012,153
0.445788,0.0337119,-0.0600786,157
0.445393,0.0337281,-0.0591988,161
0.445792,0.033708,-0.0584249,161
0.445716,0.0337096,-0.0575884,165
0.446064,0.0336918,-0.0568064,159
0.446148,0.0336861,-0.0559904,159
0.446763,0.0336562,-0.05524,157
0.446954,0.0336456,-0.0544361,164
0.447412,0.0336227,-0.0536637,163
0.447445,0.0336194,-0.0528398,169
0.447586,0.0336111,-0.0520284,165
0.4473,0.0336222,-0.0511682,160
0.447655,0.0336042,-0.0503813,158
0.44801,0.033586,-0.0495934,162
0.448527,0.0335605,-0.048822,165
0.449046,0.0335349,-0.0480492,168
0.449621,0.0335068,-0.0472805,165
0.449551,0.0335081,-0.0464435,167
0.449536,0.0335069,-0.0456126,165
0.449844,0.0334909,-0.044814,169
0.450207,0.0334725,-0.04402,166
0.450248,0.0334687,-0.043194,165
0.450343,0.0334625,-0.0423731,164
0.450492,0.0334538,-0.0415572,165
0.452105,0.0333781,-0.0408727,169
0.451931,0.0333842,-0.0400248,173
0.452572,0.0333529,-0.0392483,171
0.452617,0.033349,-0.0384191,170
0.452662,0.0333451,-0.03759,166
0.452817,0.0333361,-0.0367698,163
0.452972,0.0333271,-0.0359492,168
0.45351,0.0333006,-0.0351578,170
0.45323,0.0333115,-0.0343031,170
0.45388,0.0332799,-0.0335177,174
0.454148,0.0332657,-0.0327029,170
0.455793,0.0331885,-0.0319831,176
0.455899,0.0331817,-0.031153,175
0.456171,0.0331673,-0.0303337,175
0.456389,0.0331555,-0.0295101,172
0.457274,0.033113,-0.0287273,176
0.458497,0.0330551,-0.0279617,182
0.457771,0.0330864,-0.0270779,179
0.458104,0.0330693,-0.0262568,175
0.45911,0.0330213,-0.0254714,176
0.45939,0.0330065,-0.0246441,177
0.459616,0.0329942,-0.0238131,181
0.460349,0.0329587,-0.0230063,182
0.461141,0.0329205,-0.0221997,178
0.461936,0.0328821,-0.0213905,176
0.462394,0.0328592,-0.0205637,168
0.462853,0.0328362,-0.0197353,167
0.463542,0.0328027,-0.0189146,168
0.464808,0.0327427,-0.0181133,170
0.465792,0.0326956,-0.0172972,170
0.466203,0.0326748,-0.0164579,168
0.467485,0.032614,-0.0156455,168
0.468017,0.0325876,-0.0148054,168
0.469018,0.0325397,-0.0139769,167
0.469263,0.0325266,-0.0131243,165
0.469977,0.0324918,-0.0122828,170
0.470871,0.0324488,-0.0114428,168
0.471769,0.0324057,-0.0105996,176
0.472612,0.032365,-0.00975208,168
0.473042,0.0323433,-0.00889418,175
0.475148,0.0322446,-0.00806124,180
0.475404,0.0322308,-0.00719469,176
0.475721,0.0322143,-0.00632797,171
0.476099,0.032195,-0.00546073,163
0.476842,0.0321589,-0.00459516,167
0.477648,0.0321198,-0.00372727,170
0.477789,0.0321114,-0.00285328,167
0.478661,0.0320693,-0.00198085,172
0.478804,0.0320608,-0.00110447,167
0.47962,0.0320213,-0.000226971,170
0.480378,0.0319844,0.000653407,168
0.480525,0.0319757,0.00153381,167
0.480119,0.0319923,0.00241122,164
0.481066,0.0319468,0.00329837,168
0.48208,0.0318982,0.00418973,163
0.482416,0.0318807,0.00507676,168
0.483002,0.0318518,0.00596854,172
0.483964,0.0318055,0.00686844,170
0.484743,0.0317677,0.00776875,173
0.483775,0.0318102,0.00863807,177
0.483433,0.031824,0.00951717,177
0.483527,0.0318176,0.0104052,183
0.483249,0.0318284,0.0112843,185
0.483345,0.031822,0.0121725,185
0.48369,0.0318041,0.0130683,189
0.484474,0.031766,0.0139788,191
0.483886,0.0317911,0.0148479,192
0.483799,0.0317931,0.0157321,189
0.483774,0.0317922,0.0166183,189
0.483501,0.0318028,0.017495,189
0.483105,0.031819,0.018366,187
0.482897,0.0318266,0.0192435,190
0.483186,0.0318113,0.0201419,192
0.483165,0.0318102,0.0210275,198
0.482649,0.031832,0.0218897,198
0.481331,0.0318908,0.0227108,198
0.481437,0.0318839,0.0235996,197
0.480741,0.031914,0.0244467,194
0.480725,0.0319127,0.0253285,199
0.480402,0.0319256,0.026193,202
0.480018,0.0319413,0.027053,201
0.479575,0.0319598,0.0279081,203
0.47895,0.0319866,0.0287504,204
0.477901,0.032033,0.0295635,205
0.477161,0.0320652,0.0303931,204
0.47715,0.0320637,0.0312695,206
0.476776,0.032079,0.0321209,207
0.476524,0.0320886,0.0329798,205
0.476334,0.0320954,0.0338425,202
0.476325,0.0320938,0.0347183,205
0.475714,0.03212,0.0355479,198
0.475768,0.0321155,0.0364278,202
0.476245,0.0320916,0.0373424,207
0.475696,0.0321149,0.0381743,204
0.47503,0.0321437,0.0389943,198
0.474186,0.0321807,0.0397968,199
0.472988,0.032234,0.0405651,197
0.472449,0.0322569,0.0413886,199
0.47221,0.032266,0.0422379,200
0.471615,0.0322915,0.0430532,198
0.471082,0.0323142,0.0438723,194
0.470787,0.0323258,0.044713,191
0.470139,0.0323538,0.0455178,193
0.469494,0.0323817,0.0463207,194
0.468324,0.0324338,0.0470674,191
0.46821,0.0324371,0.0479208,192
0.467746,0.0324565,0.0487367,189
0.467517,0.0324652,0.0495767,192
0.466244,0.0325221,0.0503006,191
0.465959,0.0325333,0.0511313,190
0.465792,0.0325391,0.0519746,182
0.466552,0.032502,0.0529254,182
0.465979,0.0325265,0.0537219,178
0.465929,0.0325269,0.0545794,177
0.465822,0.0325299,0.05543,179
0.466063,0.0325168,0.0563235,177
0.466131,0.0325117,0.0571966,172
0.466258,0.0325039,0.0580778,171
0.466676,0.0324826,0.0589975,173
0.466805,0.0324746,0.0598811,173
0.466701,0.0324775,0.0607346,170
0.466657,0.0324776,0.0615961,179
0.466729,0.0324723,0.0624737,181
0.46721,0.032448,0.0634087,184
0.467459,0.0324345,0.0643132,186
0.467359,0.0324372,0.0651693,182
0.467376,0.0324345,0.0660423,180
0.467394,0.0324317,0.0669159,182
0.467471,0.0324261,0.0677987,181
0.467607,0.0324179,0.068691,188
0.466577,0.0324636,0.069407,185
0.466656,0.032458,0.0702902,185
0.467318,0.0324253,0.0712649,187
0.467106,0.0324332,0.0721048,188
0.467421,0.0324166,0.0730282,190
0.468029,0.0323864,0.0740007,191
0.468053,0.0323834,0.0748805,188
0.468196,0.0323748,0.0757803,190
0.468221,0.0323716,0.0766615,187
0.468541,0.0323548,0.0775931,188
0.468744,0.0323434,0.0785064,187
0.468536,0.0323511,0.0793499,191
0.468447,0.0323532,0.0802137,189
0.469006,0.0323253,0.0811921,190
0.468858,0.0323302,0.0820471,191
0.468889,0.0323268,0.082934,190
0.470398,0.0322548,0.0840911,191
0.469837,0.0322788,0.0848732,190
0.468984,0.0323164,0.0855991,188
0.469135,0.0323074,0.0865111,187
0.469464,0.0322901,0.0874579,185
0.469144,0.032303,0.088282,185
0.469652,0.0322774,0.0892658,183
0.469806,0.0322682,0.0901828,180
0.471031,0.0322094,0.0913125,181
0.471009,0.0322084,0.0921986,181
0.470928,0.0322101,0.0930733,176
0.471265,0.0321924,0.0940332,176
0.471424,0.032183,0.0949583,181
0.471703,0.032168,0.0959096,178
0.471685,0.0321669,0.0968001,180
0.471547,0.0321713,0.097666,184
0.47141,0.0321756,0.098532,183
0.472472,0.0321243,0.0996555,182
0.472756,0.032109,0.100615,185
0.472981,0.0320965,0.101564,184
0.472906,0.032098,0.102447,181
0.472652,0.0321078,0.103291,180
0.472939,0.0320924,0.104257,179
0.473288,0.0320741,0.105237,180
0.473397,0.032067,0.106165,178
0.473265,0.0320711,0.107039,180
0.473495,0.0320584,0.107996,184
0.473787,0.0320427,0.10897,186
0.473717,0.0320439,0.10986,184
0.474011,0.0320282,0.110837,182
0.475401,0.0319615,0.112078,179
0.47576,0.0319427,0.113076,175
0.475509,0.0319524,0.113928,173
0.475564,0.0319477,0.114854,167
0.475193,0.031963,0.115676,168
0.475921,0.031927,0.116771,166
0.476959,0.0318766,0.117948,169
0.476342,0.0319033,0.118709,167
0.476892,0.0318756,0.119767,172
0.477013,0.0318679,0.120718,174
0.477258,0.0318544,0.121701,173
0.477874,0.0318236,0.122784,176
0.477936,0.0318187,0.123723,174
0.477813,0.0318223,0.124615,175
0.478247,0.0318,0.125655,177
0.478001,0.0318093,0.126515,176
0.47819,0.0317985,0.127492,176
0.478751,0.0317702,0.128572,180
0.478879,0.0317622,0.129536,178
0.478759,0.0317656,0.130433,171
0.4792,0.031743,0.131486,166
0.479393,0.0317319,0.132472,163
0.479524,0.0317237,0.133443,164
0.479718,0.0317125,0.134432,160
0.479976,0.0316984,0.135441,161
0.480674,0.0316638,0.136578,160
0.480432,0.0316729,0.137447,156
0.480191,0.031682,0.138315,151
0.48064,0.0316589,0.139386,155
0.48084,0.0316475,0.140386,157
0.480977,0.031639,0.141368,157
0.481115,0.0316304,0.142352,157
0.480625,0.0316511,0.143148,161
0.480827,0.0316396,0.144153,156
0.481282,0.0316162,0.145236,155
0.481739,0.0315928,0.146324,152
0.482134,0.0315722,0.147394,148
0.48215,0.0315693,0.148348,145
0.482103,0.0315693,0.149284,143
0.482501,0.0315486,0.150361,133
0.482709,0.0315367,0.15138,134
0.482601,0.0315396,0.152299,134
0.481796,0.0315751,0.152993,135
0.482449,0.0315424,0.154159,139
0.482533,0.0315363,0.155142,140
0.482872,0.0315183,0.156209,142
0.482703,0.0315241,0.157111,150
0.483298,0.0314941,0.158268,148
0.482239,0.0315414,0.158874,146
0.481753,0.0315619,0.15967,142
0.481396,0.0315765,0.160508,140
0.481547,0.0315673,0.161518,136
0.480811,0.0315995,0.162226,133
0.48033,0.0316198,0.16302,138
0.480924,0.0315899,0.164185,140
0.480823,0.0315924,0.165112,136
0.480786,0.031592,0.166061,133
0.480813,0.0315885,0.167033,120
0.48084,0.0315851,0.168006,118
0.481122,0.0315697,0.169071,115
0.480833,0.0315811,0.169933,117
0.480039,0.0316161,0.170613,114
0.479373,0.031645,0.171338,117
0.479971,0.0316149,0.17252,116
0.479496,0.0316349,0.173313,116
0.478266,0.0316903,0.173827,119
0.478297,0.0316867,0.174804,120
0.477951,0.0317007,0.175641,119
0.477982,0.031697,0.176619,120
0.478076,0.0316904,0.177622,111
0.477293,0.0317249,0.178294,113
0.477451,0.0317154,0.179322,109
0.47642,0.0317615,0.179896,114
0.475953,0.0317811,0.180684,115
0.476924,0.0317335,0.182027,112
0.476645,0.0317443,0.182889,112
0.475992,0.0317728,0.183605,112
0.47559,0.0317894,0.184417,114
0.475563,0.0317885,0.185377,116
0.475785,0.0317759,0.186437,108
0.476509,0.0317397,0.187698,107
0.476045,0.0317593,0.188487,107
0.473717,0.0318662,0.188524,108
0.473506,0.0318739,0.189409,103
0.472369,0.0319251,0.189918,106
0.472838,0.0319009,0.19108,103
0.472258,0.0319259,0.191814,112
0.47125,0.031971,0.192369,115
0.471042,0.0319785,0.193253,118
0.470712,0.0319918,0.194086,118
0.470015,0.0320223,0.194766,121
0.469809,0.0320298,0.19565,112
0.469359,0.0320487,0.19643,109
0.468546,0.0320847,0.197055,110
0.468524,0.0320835,0.198017,113
0.467592,0.0321251,0.198588,107
0.466663,0.0321665,0.199157,107
0.46634,0.0321795,0.199987,110
0.466199,0.0321839,0.200895,112
0.465877,0.0321968,0.201725,110
0.465677,0.0322041,0.202607,118
0.465777,0.0321972,0.203623,115
0.465216,0.0322213,0.204347,115
0.463759,0.0322876,0.204668,107
0.463024,0.0323199,0.205309,105
0.46462,0.0322427,0.206999,107
0.463166,0.0323089,0.207314,108
0.446356,0.0305353,-0.211689,3
0.440462,0.0308442,-0.20795,3
0.444712,0.0306178,-0.20903,5
0.450111,0.0303307,-0.210634,4
0.449329,0.0303698,-0.209321,7
0.449952,0.0303348,-0.208668,5
0.450802,0.0302878,-0.208118,4
0.44823,0.0304215,-0.205985,4
0.446241,0.0305244,-0.204132,4
0.446525,0.0305073,-0.203328,7
0.451786,0.0302273,-0.204793,3
0.449992,0.0303199,-0.203036,5
0.446661,0.0304938,-0.200593,6
0.446505,0.0304999,-0.199592,6
0.448064,0.0304154,-0.199361,6
0.449578,0.0303333,-0.199103,9
0.450651,0.0302745,-0.198645,8
0.449765,0.0303192,-0.197318,8
0.448438,0.0303873,-0.195803,10
0.448671,0.0303729,-0.194976,6
0.449517,0.030326,-0.194415,11
0.45256,0.030163,-0.194803,7
0.451106,0.0302378,-0.193242,11
0.449496,0.0303208,-0.191621,11
0.451017,0.0302383,-0.191344,7
0.449633,0.0303094,-0.189827,13
0.450874,0.0302416,-0.189426,12
0.450328,0.0302684,-0.18827,10
0.454001,0.0300721,-0.188881,11
0.452149,0.0301679,-0.187179,11
0.451265,0.0302126,-0.185885,10
0.451896,0.0301771,-0.185221,12
0.449954,0.0302778,-0.1835,11
0.452995,0.0301148,-0.183821,14
0.452728,0.0301268,-0.182788,13
0.4528,0.0301209,-0.181893,12
0.45685,0.0299044,-0.182598,11
0.452663,0.030124,-0.179993,10
0.452286,0.0301419,-0.178922,12
0.452978,0.0301032,-0.178276,16
0.452939,0.0301032,-0.17734,15
0.453125,0.0300912,-0.176494,17
0.453481,0.0300703,-0.175714,17
0.453162,0.0300851,-0.174671,18
0.453857,0.0300462,-0.174022,21
0.454667,0.0300012,-0.173415,17
0.453444,0.0300639,-0.17203,20
0.453971,0.030034,-0.171314,21
0.455122,0.0299709,-0.170833,21
0.45588,0.0299286,-0.170201,19
0.45488,0.0299796,-0.168909,23
0.455071,0.0299674,-0.168065,21
0.456854,0.0298708,-0.167809,22
0.456818,0.0298706,-0.166878,21
0.455363,0.0299457,-0.165429,21
0.455612,0.0299304,-0.164607,23
0.455182,0.0299512,-0.163539,28
0.455715,0.0299209,-0.162819,26
0.455399,0.0299356,-0.161795,24
0.455819,0.0299112,-0.161035,30
0.457265,0.0298325,-0.160636,29
0.455586,0.0299195,-0.159133,31
0.4576,0.0298106,-0.158929,29
0.4566,0.0298615,-0.157671,27
0.457423,0.0298158,-0.157046,33
0.456369,0.0298697,-0.155775,28
0.456283,0.0298722,-0.154839,30
0.456084,0.0298808,-0.153866,27
0.456452,0.0298592,-0.153085,29
0.45665,0.0298466,-0.152247,30
0.457474,0.0298008,-0.151618,34
0.457901,0.0297761,-0.150854,30
0.457532,0.0297936,-0.149827,33
0.458474,0.0297416,-0.149232,33
0.458333,0.029747,-0.148281,36
0.45785,0.0297706,-0.147221,34
0.45828,0.0297457,-0.146458,36
0.458141,0.0297511,-0.145511,37
0.458686,0.0297201,-0.144782,37
0.458547,0.0297254,-0.143837,39
0.458979,0.0297004,-0.143072,43
0.458898,0.0297027,-0.142146,40
0.45785,0.0297564,-0.140921,40
0.458567,0.0297162,-0.140244,41
0.459344,0.0296729,-0.139584,44
0.458295,0.0297266,-0.138367,47
0.458388,0.0297197,-0.137499,48
0.457743,0.029752,-0.13641,48
0.457836,0.029745,-0.135544,50
0.456967,0.0297892,-0.134394,52
0.456892,0.0297912,-0.133481,52
0.455973,0.0298381,-0.132323,52
0.455618,0.0298549,-0.131332,58
0.455657,0.0298508,-0.130458,57
0.454801,0.0298944,-0.129327,62
0.454451,0.029911,-0.128344,59
0.454324,0.0299158,-0.127427,63
0.453198,0.0299737,-0.126231,61
0.453129,0.0299754,-0.125333,62
0.452673,0.0299976,-0.12433,63
0.45233,0.030014,-0.12336,64
0.452373,0.0300097,-0.122497,64
0.452196,0.0300171,-0.121575,68
0.452792,0.0299834,-0.120862,69
0.45212,0.0300173,-0.11981,74
0.451835,0.0300305,-0.118863,80
0.451331,0.0300553,-0.11786,85
0.451542,0.0300421,-0.117046,80
0.451589,0.0300377,-0.116189,80
0.451361,0.0300478,-0.115263,68
0.450697,0.0300812,-0.114227,72
0.450582,0.0300854,-0.113332,75
0.449541,0.0301389,-0.112206,75
0.449319,0.0301488,-0.111289,70
0.448718,0.0301789,-0.11028,75
0.447366,0.030249,-0.109089,81
0.446719,0.0302816,-0.108076,83
0.446181,0.0303083,-0.107092,84
0.445326,0.030352,-0.106035,87
0.445112,0.0303615,-0.105134,88
0.444527,0.0303907,-0.104147,88
0.444209,0.0304057,-0.103225,89
0.443312,0.0304517,-0.10217,94
0.442945,0.0304693,-0.101242,94
0.442526,0.0304898,-0.100303,93
0.441691,0.0305324,-0.0992729,94
0.442164,0.0305053,-0.0985394,94
0.441227,0.0305533,-0.0974914,99
0.441336,0.0305457,-0.0966776,104
0.440352,0.0305963,-0.0956256,107
0.440409,0.0305913,-0.094803,114
0.440726,0.0305725,-0.0940365,107
0.440577,0.0305786,-0.0931701,114
0.439806,0.0306179,-0.0921739,114
0.440176,0.0305963,-0.0914191,114
0.440028,0.0306023,-0.0905565,109
0.439778,0.0306137,-0.0896739,117
0.440045,0.0305976,-0.0888977,118
0.440313,0.0305814,-0.0881212,122
0.440012,0.0305956,-0.0872308,116
0.440696,0.0305572,-0.0865362,123
0.440707,0.0305547,-0.0857081,117
0.440666,0.030555,-0.0848704,118
0.440886,0.0305414,-0.0840831,113
0.440794,0.0305445,-0.0832365,117
0.440859,0.0305391,-0.08242,123
0.440924,0.0305338,-0.0816038,130
0.441301,0.0305117,-0.0808451,130
0.442409,0.0304507,-0.0802186,127
0.441538,0.0304953,-0.0792317,122
0.44145,0.0304982,-0.078388,129
0.440946,0.0305232,-0.077472,130
0.441326,0.0305011,-0.0767123,134
0.441863,0.0304705,-0.0759788,130
0.442245,0.0304482,-0.0752172,133
0.442002,0.0304593,-0.0743491,131
0.441605,0.0304787,-0.0734565,136
0.442248,0.0304424,-0.0727375,141
0.44232,0.0304367,-0.0719233,143
0.442705,0.0304143,-0.0711597,140
0.442726,0.0304113,-0.070337,145
0.44306,0.0303915,-0.069564,140
0.44256,0.0304164,-0.0686602,145
0.442843,0.0303994,-0.0678792,147
0.443179,0.0303796,-0.0671054,145
0.443674,0.0303512,-0.0663545,139
0.443698,0.0303481,-0.0655325,148
0.443356,0.0303645,-0.0646572,149
0.4438,0.0303389,-0.0638969,148
0.443511,0.0303525,-0.063031,144
0.444323,0.0303071,-0.0623213,144
0.444508,0.0302954,-0.0615218,141
0.444587,0.0302893,-0.0607076,151
0.444878,0.0302718,-0.059922,153
0.445012,0.0302628,-0.0591146,154
0.445146,0.0302538,-0.0583072,150
0.445386,0.030239,-0.0575133,152
0.445628,0.0302243,-0.0567189,152
0.445553,0.0302264,-0.0558842,156
0.445478,0.0302285,-0.0550502,157
0.446144,0.030191,-0.0543069,164
0.447024,0.030142,-0.0535872,163
0.447323,0.0301241,-0.0527958,165
0.447463,0.0301147,-0.0519851,164
0.44771,0.0300996,-0.0511865,166
0.447958,0.0300844,-0.0503872,163
0.447249,0.0301206,-0.0494815,173
0.447976,0.0300797,-0.0487349,160
0.44812,0.0300702,-0.0479235,168
0.448317,0.0300577,-0.0471174,171
0.448301,0.0300567,-0.0462889,170
0.448714,0.0300327,-0.045504,168
0.449342,0.0299972,-0.0447393,164
0.449381,0.0299932,-0.0439151,161
0.449797,0.029969,-0.0431271,164
0.450322,0.029939,-0.0423479,165
0.450472,0.0299291,-0.0415324,167
0.450352,0.0299336,-0.0406925,166
0.450503,0.0299237,-0.039877,162
0.45087,0.0299021,-0.0390798,164
0.451508,0.029866,-0.0383044,165
0.451391,0.0298704,-0.0374644,165
0.451924,0.0298399,-0.0366776,161
0.452567,0.0298035,-0.0358977,158
0.452722,0.0297933,-0.035078,162
0.452879,0.029783,-0.034258,164
0.45309,0.0297698,-0.0334417,163
0.453412,0.0297507,-0.0326326,166
0.454062,0.0297139,-0.0318454,173
0.454495,0.0296887,-0.0310412,176
0.454656,0.0296782,-0.0302176,177
0.454818,0.0296676,-0.0293937,177
0.455639,0.0296216,-0.0286103,177
0.455913,0.029605,-0.027791,174
0.456464,0.0295735,-0.026987,177
0.456684,0.0295598,-0.0261625,176
0.456906,0.029546,-0.0253373,178
0.457128,0.0295322,-0.0245114,177
0.457906,0.0294885,-0.0237133,181
0.458688,0.0294446,-0.0229126,176
0.459361,0.0294065,-0.0221039,178
0.459868,0.0293773,-0.0212853,175
0.460884,0.0293208,-0.0204872,174
0.461849,0.0292671,-0.0196832,172
0.462137,0.0292497,-0.0188488,170
0.462313,0.0292383,-0.0180091,166
0.463171,0.0291902,-0.0171935,168
0.464606,0.0291112,-0.0163947,165
0.465819,0.029044,-0.0155835,171
0.46652,0.0290044,-0.0147521,176
0.467397,0.0289553,-0.0139232,174
0.468395,0.0288997,-0.0130945,167
0.468347,0.0289003,-0.0122358,169
0.469526,0.0288349,-0.0114059,171
0.470242,0.0287945,-0.0105618,172
0.47149,0.0287254,-0.0097255,172
0.471859,0.0287036,-0.00886903,172
0.472702,0.0286563,-0.00801877,167
0.473728,0.0285991,-0.00716796,172
0.474341,0.0285642,-0.00630837,170
0.475736,0.0284871,-0.00545455,170
0.476054,0.028468,-0.00458654,164
0.476374,0.0284488,-0.00371737,167
0.477239,0.0284003,-0.00284958,162
0.478533,0.0283287,-0.00197981,164
0.478554,0.0283255,-0.00110399,163
0.478819,0.0283093,-0.000227877,168
0.479879,0.0282502,0.000651401,170
0.480086,0.028237,0.00153072,170
0.480172,0.0282304,0.00241004,169
0.480504,0.0282106,0.00329174,172
0.481206,0.0281708,0.00417846,171
0.481048,0.0281773,0.0050575,173
0.481014,0.0281771,0.00593771,175
0.481289,0.0281603,0.00682269,176
0.482058,0.0281169,0.00771743,177
0.48215,0.02811,0.00860191,177
0.482304,0.0280996,0.00948814,180
0.48246,0.0280893,0.010375,184
0.48274,0.0280722,0.0112657,188
0.482835,0.028065,0.0121525,194
0.482746,0.0280679,0.0130344,189
0.482905,0.0280573,0.0139237,193
0.48226,0.0280901,0.0147875,193
0.482605,0.0280694,0.0156831,193
0.482767,0.0280587,0.0165734,194
0.482867,0.0280513,0.017462,195
0.483154,0.0280338,0.0183586,191
0.48307,0.0280364,0.0192409,194
0.482863,0.0280455,0.0201176,195
0.482347,0.0280714,0.0209796,191
0.482141,0.0280805,0.0218546,194
0.480951,0.0281427,0.0226805,196
0.48081,0.0281483,0.0235557,193
0.480363,0.0281704,0.0244142,200
0.479979,0.0281892,0.0252747,197
0.479412,0.0282178,0.0261237,201
0.479153,0.0282298,0.0269886,201
0.478834,0.028245,0.0278491,203
0.477301,0.0283258,0.0286332,205
0.477349,0.0283212,0.0295129,204
0.477944,0.0282871,0.0304291,203
0.477387,0.0283152,0.0312695,204
0.476831,0.0283432,0.0321083,199
0.476218,0.0283744,0.032941,201
0.475847,0.0283924,0.0337894,200
0.475899,0.0283876,0.0346684,202
0.476012,0.0283795,0.0355525,206
0.475945,0.0283812,0.0364231,208
0.474857,0.028438,0.0372111,202
0.474732,0.0284428,0.0380749,205
0.473412,0.0285121,0.0388375,200
0.47311,0.0285265,0.0396833,198
0.472275,0.0285696,0.0404811,198
0.471917,0.028587,0.0413191,197
0.471323,0.0286172,0.0421343,194
0.471381,0.0286121,0.0430087,192
0.470142,0.0286771,0.0437595,194
0.469438,0.0287132,0.044558,196
0.469732,0.0286954,0.0454535,197
0.469733,0.0286933,0.0463207,196
0.468447,0.0287609,0.0470553,197
0.468158,0.0287746,0.0478901,194
0.467579,0.028804,0.0486931,187
0.467467,0.0288081,0.0495451,191
0.466601,0.028853,0.0503134,191
0.466954,0.0288319,0.0512161,188
0.466728,0.0288422,0.0520541,184
0.466271,0.028865,0.0528647,181
0.465873,0.0288845,0.0536809,174
0.466055,0.0288728,0.0545655,174
0.466006,0.0288735,0.0554229,177
0.466247,0.0288585,0.0563164,169
0.465967,0.0288717,0.0571457,172
0.465862,0.0288754,0.0579966,172
0.466743,0.0288258,0.0589749,174
0.466465,0.0288388,0.0598048,172
0.466826,0.0288173,0.0607191,173
0.46713,0.0287989,0.0616275,173
0.466505,0.0288308,0.0624101,180
0.466752,0.0288154,0.0633118,182
0.466652,0.0288189,0.0641658,181
0.466262,0.0288381,0.0649786,184
0.466337,0.0288321,0.0658574,180
0.466819,0.028804,0.0667965,182
0.467012,0.0287916,0.067695,182
0.467089,0.0287854,0.0685772,184
0.46705,0.0287855,0.0694424,187
0.467129,0.0287793,0.070326,189
0.467267,0.0287699,0.0712195,189
0.467113,0.0287762,0.072068,188
0.467369,0.0287604,0.0729816,184
0.466809,0.0287887,0.073765,183
0.467591,0.0287444,0.0747658,182
0.467967,0.028722,0.0757028,181
0.468343,0.0286996,0.0766419,185
0.468487,0.0286899,0.0775435,183
0.468572,0.0286833,0.0784361,184
0.468835,0.028667,0.0793601,181
0.469039,0.0286539,0.0802754,182
0.469599,0.0286216,0.0812546,183
0.468804,0.0286628,0.0819946,180
0.468834,0.0286591,0.0828809,183
0.468982,0.0286491,0.0837894,187
0.46925,0.0286326,0.0847209,188
0.469459,0.0286192,0.085643,187
0.470024,0.0285866,0.0866333,187
0.470058,0.0285827,0.0875253,186
0.469442,0.0286142,0.0882933,187
0.469713,0.0285974,0.0892314,182
0.469631,0.0285999,0.0901018,180
0.469608,0.0285991,0.0909842,182
0.469822,0.0285855,0.0919143,184
0.470156,0.0285653,0.0928698,181
0.470195,0.0285612,0.0937671,176
0.471006,0.0285151,0.0948237,178
0.470571,0.0285368,0.0956255,179
0.470909,0.0285164,0.096588,177
0.471367,0.0284895,0.0975778,178
0.470576,0.0285305,0.0983036,180
0.471691,0.0284678,0.0994368,187
0.472453,0.0284244,0.100498,188
0.472498,0.02842,0.101406,187
0.471525,0.0284708,0.10209,189
0.47187,0.02845,0.103064,180
0.471617,0.0284618,0.103906,180
0.472923,0.0283887,0.105101,180
0.472851,0.0283906,0.105986,179
0.472839,0.0283892,0.106886,179
0.472648,0.0283976,0.107745,178
0.473119,0.0283699,0.108758,178
0.47335,0.0283553,0.109717,178
0.473523,0.0283439,0.110664,177
0.473816,0.0283258,0.111641,178
0.473809,0.0283242,0.112547,173
0.474104,0.0283061,0.113528,165
0.474583,0.028278,0.114555,164
0.475246,0.0282398,0.11563,167
0.475363,0.0282314,0.116573,167
0.475298,0.0282329,0.11747,167
0.475355,0.0282277,0.118399,165
0.475474,0.0282191,0.119345,166
0.475777,0.0282006,0.120339,171
0.476265,0.028172,0.121383,172
0.477246,0.0281165,0.122558,173
0.476386,0.0281612,0.123253,170
0.47657,0.0281491,0.124223,172
0.476633,0.0281436,0.125161,173
0.476696,0.0281381,0.1261,173
0.476513,0.0281459,0.126974,172
0.4767,0.0281337,0.127948,175
0.478122,0.0280541,0.129264,176
0.478188,0.0280484,0.13021,176
0.478379,0.028036,0.131192,168
0.47857,0.0280234,0.132176,164
0.478825,0.0280074,0.133178,165
0.47877,0.0280084,0.134095,162
0.478467,0.0280228,0.134941,165
0.479034,0.0279897,0.136037,164
0.478918,0.0279939,0.136938,163
0.478865,0.0279947,0.137858,175
0.479623,0.0279513,0.139017,165
0.479508,0.0279554,0.139921,164
0.479644,0.0279459,0.1409,165
0.479531,0.0279499,0.141806,162
0.479856,0.0279301,0.142844,166
0.479869,0.0279272,0.14379,165
0.480259,0.0279039,0.144851,161
0.480085,0.0279112,0.145741,158
0.480162,0.0279048,0.14671,158
0.479927,0.0279155,0.147581,154
0.47988,0.027916,0.148512,149
0.480587,0.0278753,0.149681,141
0.480856,0.0278584,0.150715,141
0.480308,0.0278862,0.151489,135
0.479511,0.0279276,0.152181,137
0.479717,0.0279142,0.153197,138
0.479799,0.0279075,0.154173,144
0.479756,0.0279077,0.15511,146
0.479714,0.0279079,0.156047,151
0.479672,0.027908,0.156985,141
0.479505,0.027915,0.157882,140
0.479088,0.0279356,0.158695,137
0.4798,0.0278946,0.159889,134
0.47907,0.0279323,0.160596,138
0.479281,0.0279186,0.161623,138
0.478491,0.0279596,0.162306,135
0.47789,0.0279903,0.163053,127
0.478227,0.0279697,0.164125,124
0.477939,0.0279833,0.164981,127
0.47834,0.0279592,0.166079,130
0.477866,0.027983,0.166869,130
0.477393,0.0280066,0.167658,126
0.477108,0.0280201,0.168514,124
0.477197,0.028013,0.169505,119
0.476975,0.028023,0.170384,118
0.476692,0.0280363,0.17124,129
0.475664,0.0280903,0.171823,132
0.475383,0.0281035,0.172678,128
0.475412,0.0280998,0.173648,123
0.475441,0.028096,0.174619,125
0.475037,0.0281159,0.175428,129
0.474511,0.0281426,0.176191,112
0.47516,0.0281049,0.177397,116
0.475067,0.0281078,0.178325,116
0.473616,0.028185,0.178733,127
0.473709,0.0281777,0.17973,126
0.473741,0.0281738,0.180705,130
0.47328,0.0281968,0.181489,125
0.473251,0.0281962,0.182441,118
0.472485,0.028236,0.183104,118
0.472764,0.0282186,0.184178,119
0.472552,0.028228,0.185059,110
0.472463,0.0282307,0.185989,103
0.472314,0.0282367,0.186896,101
0.47198,0.0282527,0.187728,105
0.471648,0.0282688,0.18856,102
0.470765,0.0283149,0.189168,109
0.470251,0.0283409,0.189924,106
0.469799,0.0283634,0.190705,107
0.469531,0.0283759,0.19156,108
0.469324,0.0283851,0.192441,107
0.468754,0.0284142,0.193169,104
0.468245,0.0284399,0.193923,105
0.467617,0.0284721,0.194625,104
0.466569,0.0285274,0.195147,106
0.466546,0.0285265,0.196102,111
0.466403,0.0285321,0.197007,112
0.46596,0.0285542,0.197783,114
0.465158,0.028596,0.198404,116
0.464718,0.0286179,0.199178,107
0.465175,0.0285907,0.200344,102
0.464198,0.0286421,0.200884,101
0.463105,0.0286998,0.201369,107
0.463144,0.0286955,0.202352,104
0.462886,0.0287075,0.203204,103
0.462866,0.0287064,0.204162,106
0.462372,0.0287313,0.204909,103
0.460933,0.0288081,0.205228,109
0.46186,0.028755,0.206614,116
0.445864,0.0270723,-0.211346,6
0.449036,0.0268777,-0.211912,3
0.445985,0.0270607,-0.209525,5
0.444671,0.0271382,-0.207968,8
0.449106,0.026867,-0.209112,5
0.449168,0.0268612,-0.208198,7
0.454605,0.0265291,-0.209781,7
0.447788,0.0269407,-0.205677,4
0.450251,0.0267891,-0.205873,8
0.451551,0.026708,-0.205527,5
0.448811,0.0268722,-0.203334,5
0.445996,0.0270409,-0.201121,9
0.451798,0.0266866,-0.202812,8
0.447559,0.0269419,-0.199965,6
0.447348,0.0269526,-0.198939,8
0.445651,0.0270535,-0.197254,6
0.448642,0.0268698,-0.197654,6
0.451334,0.0267042,-0.197912,5
0.451963,0.0266639,-0.197253,7
0.449898,0.0267872,-0.195414,9
0.451027,0.0267165,-0.194975,10
0.450982,0.0267171,-0.194023,7
0.448486,0.0268667,-0.192017,9
0.451229,0.0266979,-0.192268,11
0.447958,0.0268946,-0.189943,10
0.449356,0.0268075,-0.189614,8
0.448815,0.0268384,-0.188461,11
0.452121,0.0266353,-0.188929,10
0.45051,0.0267312,-0.187327,11
0.451642,0.0266602,-0.186875,10
0.451152,0.0266879,-0.185746,11
0.454774,0.0264657,-0.186316,10
0.452471,0.0266036,-0.184441,11
0.451588,0.0266552,-0.183156,14
0.455043,0.026443,-0.183638,13
0.453812,0.0265157,-0.182212,12
0.451021,0.0266834,-0.180165,14
0.452156,0.0266123,-0.179701,11
0.452734,0.0265751,-0.179011,18
0.454725,0.0264519,-0.17888,16
0.452095,0.0266097,-0.17692,13
0.453629,0.0265143,-0.176604,15
0.454324,0.02647,-0.175956,15
0.453553,0.0265148,-0.174737,14
0.453628,0.0265082,-0.173848,21
0.454323,0.0264638,-0.173198,19
0.453161,0.0265325,-0.171837,20
0.453012,0.0265395,-0.170866,18
0.4541,0.0264711,-0.170364,20
0.454234,0.026461,-0.169499,25
0.455951,0.0263543,-0.169227,23
0.455122,0.0264027,-0.168002,20
0.454861,0.0264166,-0.166991,18
0.456129,0.0263373,-0.166544,17
0.455244,0.0263891,-0.165305,22
0.4564,0.0263166,-0.164813,18
0.455629,0.0263615,-0.163621,25
0.455653,0.026358,-0.162718,27
0.456073,0.0263304,-0.161957,26
0.457119,0.0262646,-0.161418,26
0.456859,0.0262784,-0.160414,28
0.457339,0.0262471,-0.159672,32
0.456398,0.0263023,-0.158432,34
0.457389,0.0262399,-0.157868,34
0.457302,0.0262432,-0.156928,30
0.456647,0.026281,-0.155794,29
0.456844,0.026267,-0.154955,34
0.458922,0.0261382,-0.154754,28
0.457466,0.0262249,-0.153353,30
0.458064,0.0261864,-0.152648,31
0.457694,0.026207,-0.151618,28
0.458577,0.026151,-0.151006,31
0.459407,0.0260984,-0.150373,34
0.459036,0.026119,-0.149344,32
0.458438,0.0261534,-0.148244,40
0.459611,0.0260798,-0.14772,36
0.45907,0.0261107,-0.146641,36
0.459731,0.0260684,-0.145949,32
0.459705,0.0260679,-0.145037,30
0.459166,0.0260988,-0.143963,31
0.459084,0.0261017,-0.143036,34
0.459575,0.0260698,-0.142288,35
0.459894,0.0260482,-0.141486,40
0.460272,0.0260231,-0.140702,38
0.459505,0.0260679,-0.139567,43
0.459027,0.026095,-0.138522,50
0.458721,0.0261117,-0.137533,50
0.458643,0.0261144,-0.136614,53
0.457829,0.0261621,-0.135476,52
0.457809,0.0261613,-0.134578,48
0.456943,0.0262122,-0.133431,47
0.456812,0.0262182,-0.132503,45
0.456344,0.0262447,-0.131479,50
0.456158,0.0262541,-0.130538,54
0.455413,0.0262976,-0.129439,53
0.455677,0.0262794,-0.12863,54
0.454712,0.0263364,-0.127474,61
0.454141,0.0263693,-0.126433,59
0.453905,0.0263817,-0.125488,61
0.453781,0.0263873,-0.124575,65
0.453602,0.0263963,-0.123648,68
0.452429,0.026466,-0.122452,63
0.452528,0.026458,-0.121605,69
0.452407,0.0264634,-0.120699,70
0.451572,0.0265125,-0.119604,71
0.451727,0.026501,-0.118775,69
0.451553,0.0265097,-0.11786,76
0.451052,0.0265384,-0.11686,76
0.451153,0.0265302,-0.116019,80
0.450599,0.0265621,-0.11501,69
0.450811,0.0265472,-0.114199,77
0.450205,0.0265823,-0.11318,82
0.45009,0.0265874,-0.112288,85
0.448838,0.0266621,-0.111114,80
0.448887,0.0266571,-0.110266,72
0.447482,0.0267411,-0.109063,73
0.447157,0.026759,-0.108128,80
0.446565,0.0267933,-0.107131,89
0.445923,0.0268307,-0.106124,91
0.44523,0.0268712,-0.105108,88
0.445283,0.026866,-0.104272,93
0.443959,0.0269451,-0.103114,91
0.443011,0.0270012,-0.102048,94
0.442383,0.0270377,-0.101061,99
0.442019,0.0270581,-0.100136,100
0.441917,0.0270625,-0.0992729,96
0.441868,0.0270636,-0.0984223,95
0.44135,0.0270934,-0.0974683,103
0.440626,0.0271359,-0.0964714,104
0.440112,0.0271654,-0.0955238,108
0.440066,0.0271664,-0.0946797,114
0.439968,0.0271705,-0.0938253,115
0.439923,0.0271714,-0.0929829,126
0.439671,0.0271849,-0.0920977,116
0.439988,0.0271636,-0.0913327,117
0.439893,0.0271675,-0.0904816,116
0.440418,0.0271335,-0.0897587,122
0.440065,0.0271532,-0.0888557,115
0.440126,0.0271476,-0.088038,117
0.439878,0.027161,-0.0871588,121
0.440198,0.0271395,-0.0863932,120
0.440157,0.0271401,-0.0855564,105
0.440117,0.0271407,-0.0847202,116
0.440283,0.0271286,-0.0839244,119
0.440503,0.0271133,-0.0831382,121
0.441033,0.0270789,-0.0824102,116
0.441047,0.0270762,-0.0815845,127
0.440957,0.0270799,-0.0807401,130
0.440919,0.0270803,-0.0799061,132
0.441349,0.0270521,-0.0791568,130
0.441157,0.027062,-0.0782955,134
0.441691,0.0270273,-0.0775636,131
0.441137,0.0270594,-0.07664,141
0.441465,0.0270375,-0.0758711,140
0.441431,0.0270377,-0.0750396,135
0.441138,0.0270538,-0.074165,139
0.441779,0.0270126,-0.0734478,146
0.44237,0.0269745,-0.0727204,146
0.441713,0.0270129,-0.0717875,153
0.441837,0.0270034,-0.0709834,144
0.442378,0.0269684,-0.0702456,145
0.442243,0.0269748,-0.0693998,144
0.442733,0.0269429,-0.0686521,145
0.44312,0.0269172,-0.0678872,141
0.443195,0.0269108,-0.0670737,141
0.443114,0.0269139,-0.0662369,135
0.443399,0.0268945,-0.065455,139
0.443476,0.0268879,-0.0646419,140
0.442927,0.0269198,-0.0637385,145
0.443579,0.0268779,-0.0630087,149
0.4435,0.0268809,-0.0621741,147
0.443788,0.0268613,-0.0613909,141
0.444392,0.0268224,-0.0606502,145
0.444419,0.0268188,-0.0598298,149
0.444973,0.026783,-0.0590796,152
0.445107,0.0267729,-0.0582726,155
0.444821,0.0267886,-0.0574112,154
0.444746,0.0267913,-0.056578,154
0.444934,0.0267779,-0.0557784,155
0.445439,0.026745,-0.0550176,152
0.445787,0.0267218,-0.0542362,156
0.44603,0.026705,-0.0534411,158
0.445957,0.0267076,-0.0526082,158
0.446255,0.0266874,-0.0518188,154
0.446659,0.0266607,-0.0510408,161
0.447171,0.0266274,-0.0502736,160
0.447206,0.0266233,-0.0494521,163
0.447401,0.0266095,-0.0486482,156
0.447438,0.0266054,-0.0478268,155
0.446998,0.0266306,-0.0469555,159
0.447513,0.026597,-0.0461846,160
0.44787,0.0265732,-0.045396,159
0.448281,0.026546,-0.0446118,166
0.449121,0.0264925,-0.0438681,160
0.448574,0.0265243,-0.0429888,158
0.448882,0.0265035,-0.0421919,160
0.449137,0.0264859,-0.0413893,163
0.448645,0.0265143,-0.0405187,160
0.449329,0.0264704,-0.0397538,157
0.450176,0.0264164,-0.0390008,159
0.450489,0.0263953,-0.0381996,164
0.450372,0.0264006,-0.037362,163
0.450633,0.0263827,-0.0365555,166
0.450948,0.0263614,-0.0357525,159
0.451912,0.0263002,-0.0349986,159
0.45196,0.0262954,-0.0341723,166
0.452008,0.0262905,-0.0333461,166
0.452219,0.0262757,-0.0325315,165
0.451943,0.0262907,-0.0316825,170
0.453132,0.0262157,-0.0309339,168
0.453564,0.0261872,-0.0301312,167
0.453779,0.0261721,-0.0293131,164
0.454541,0.0261233,-0.0285284,165
0.455087,0.0260877,-0.027728,165
0.455195,0.0260792,-0.0269001,167
0.455689,0.0260469,-0.0260938,166
0.456185,0.0260145,-0.0252858,166
0.456185,0.0260125,-0.02445,172
0.456794,0.0259732,-0.0236454,178
0.457349,0.0259371,-0.022836,176
0.457684,0.0259145,-0.0220142,176
0.458967,0.0258336,-0.0212344,173
0.459473,0.0258005,-0.0204161,175
0.459981,0.0257672,-0.0195961,176
0.460491,0.0257339,-0.0187744,173
0.460778,0.0257143,-0.0179424,171
0.461912,0.0256425,-0.0171401,175
0.462542,0.0256018,-0.0163164,171
0.46306,0.0255679,-0.0154868,170
0.464379,0.0254846,-0.0146799,166
0.465419,0.0254186,-0.0138601,169
0.466176,0.02537,-0.0130289,168
0.467631,0.0252783,-0.0122125,171
0.468165,0.0252435,-0.0113693,170
0.468584,0.0252157,-0.0105218,170
0.469121,0.0251806,-0.00967508,172
0.469719,0.0251418,-0.00882747,173
0.470553,0.0250884,-0.00798143,174
0.471863,0.0250056,-0.00713897,175
0.473003,0.0249333,-0.00628962,177
0.473495,0.024901,-0.00542942,177
0.473929,0.0248723,-0.00456692,179
0.474783,0.0248176,-0.00370558,175
0.475521,0.0247701,-0.00284054,180
0.475901,0.0247447,-0.00197175,175
0.477247,0.0246597,-0.0011025,175
0.477692,0.0246302,-0.000229044,177
0.476989,0.0246716,0.000642946,181
0.477556,0.0246346,0.00151816,180
0.478489,0.024575,0.00239786,179
0.478089,0.0245977,0.00326999,179
0.478783,0.0245529,0.00415176,175
0.479053,0.0245343,0.00503106,172
0.479934,0.0244779,0.00591987,175
0.480268,0.0244553,0.00680339,176
0.480175,0.024459,0.0076807,178
0.480511,0.0244363,0.00856605,186
0.480419,0.02444,0.0094436,187
0.480695,0.0244209,0.0103294,189
0.48036,0.0244396,0.011201,190
0.480515,0.0244281,0.0120846,188
0.48147,0.0243671,0.0129918,186
0.481198,0.0243819,0.0138652,189
0.480926,0.0243967,0.0147376,194
0.481946,0.0243316,0.0156534,199
0.481368,0.0243654,0.0165153,192
0.48073,0.0244028,0.017373,191
0.480891,0.0243909,0.0182602,197
0.480808,0.024394,0.0191379,201
0.480971,0.024382,0.0200262,202
0.480828,0.0243888,0.0209012,202
0.480624,0.0243995,0.0217731,199
0.480237,0.0244214,0.0226353,194
0.480036,0.0244318,0.0235056,191
0.48008,0.0244271,0.0243883,200
0.480002,0.02443,0.0252647,199
0.479864,0.0244365,0.0261375,200
0.478447,0.0245222,0.0269352,197
0.477644,0.0245699,0.0277648,200
0.477388,0.0245837,0.0286257,197
0.476952,0.0246087,0.0294742,201
0.476699,0.0246224,0.0303333,199
0.476627,0.0246248,0.031204,200
0.476436,0.0246347,0.0320662,198
0.476065,0.0246557,0.0329151,200
0.476056,0.0246543,0.0337894,201
0.475626,0.0246789,0.0346322,207
0.475139,0.0247071,0.0354691,207
0.474473,0.0247463,0.0362904,207
0.47393,0.024778,0.0371193,204
0.475661,0.0246688,0.0381344,204
0.474756,0.0247228,0.0389334,202
0.473677,0.0247877,0.0397142,203
0.472841,0.0248375,0.0405126,198
0.47189,0.0248944,0.0412977,195
0.471533,0.0249146,0.0421343,191
0.470883,0.0249529,0.0429423,192
0.470118,0.0249983,0.043737,192
0.469707,0.0250218,0.0445637,198
0.46924,0.0250488,0.0453835,197
0.468773,0.0250757,0.046202,197
0.468717,0.0250773,0.0470613,198
0.468195,0.0251077,0.0478718,194
0.466399,0.025217,0.0485443,190
0.466403,0.0252148,0.0494062,186
0.466639,0.0251982,0.0502942,185
0.466934,0.025178,0.05119,185
0.466477,0.0252044,0.0520011,181
0.466368,0.0252092,0.0528513,181
0.46597,0.0252319,0.0536673,181
0.466846,0.0251756,0.054635,177
0.466565,0.0251911,0.0554652,176
0.46617,0.0252137,0.0562806,174
0.466816,0.0251716,0.0572258,172
0.466711,0.0251762,0.0580778,171
0.466955,0.0251591,0.0589749,174
0.466909,0.02516,0.0598353,173
0.466632,0.0251752,0.060665,168
0.466819,0.0251616,0.0615568,174
0.467066,0.0251444,0.0624578,173
0.466674,0.0251667,0.0632715,176
0.466284,0.025189,0.0640842,176
0.4663,0.025186,0.0649538,173
0.466433,0.0251758,0.0658406,178
0.466682,0.0251584,0.0667455,177
0.46641,0.0251733,0.0675744,176
0.466487,0.0251665,0.068455,173
0.466159,0.025185,0.0692747,175
0.466179,0.0251817,0.0701471,177
0.46649,0.0251605,0.0710654,177
0.466627,0.02515,0.0719579,178
0.46694,0.0251286,0.0728794,177
0.466963,0.0251252,0.0737556,178
0.467219,0.0251073,0.0746705,178
0.467769,0.0250712,0.0756352,177
0.46756,0.0250822,0.0764757,176
0.468229,0.0250387,0.0774642,179
0.46808,0.0250459,0.0783158,183
0.46799,0.0250495,0.0791776,183
0.468252,0.0250313,0.080101,180
0.468339,0.0250239,0.0809949,182
0.468017,0.0250419,0.0818165,182
0.468223,0.0250271,0.0827326,181
0.468019,0.0250378,0.0835753,178
0.468872,0.0249828,0.0846124,181
0.468904,0.0249788,0.0855004,179
0.469172,0.0249602,0.0864334,184
0.469087,0.0249634,0.087301,183
0.469063,0.024963,0.0881802,182
0.469451,0.0249368,0.0891399,184
0.469428,0.0249363,0.0900209,183
0.469759,0.0249137,0.0909725,186
0.469855,0.0249057,0.0918789,180
0.469893,0.0249013,0.0927744,183
0.46999,0.0248933,0.0936827,186
0.470562,0.0248557,0.0946895,182
0.471912,0.0247697,0.09586,184
0.471953,0.0247652,0.0967626,179
0.471576,0.0247865,0.0975778,179
0.471261,0.0248041,0.098405,181
0.471244,0.0248032,0.0992957,180
0.47099,0.024817,0.100135,181
0.471212,0.0248011,0.101079,182
0.471197,0.0248,0.101972,180
0.471302,0.0247915,0.102892,178
0.472005,0.0247457,0.103947,178
0.471872,0.0247519,0.104816,176
0.472519,0.0247096,0.105863,175
0.472567,0.0247046,0.106775,174
0.472736,0.024692,0.107717,176
0.472666,0.0246944,0.108603,176
0.473077,0.0246667,0.109604,176
0.473188,0.0246578,0.110535,176
0.473179,0.0246562,0.111438,176
0.473714,0.0246209,0.112474,175
0.47407,0.0245967,0.113469,176
0.473882,0.0246063,0.114332,173
0.474179,0.0245858,0.115315,173
0.474173,0.0245841,0.116224,167
0.47429,0.0245747,0.117164,169
0.474104,0.0245843,0.118029,168
0.474222,0.0245749,0.118972,163
0.474826,0.0245351,0.120041,173
0.474946,0.0245256,0.120987,173
0.474884,0.0245274,0.121887,172
0.475309,0.0244988,0.122915,177
0.47537,0.024493,0.123849,174
0.476042,0.024449,0.124948,177
0.476595,0.0244124,0.126017,173
0.475801,0.0244599,0.126725,174
0.475987,0.0244462,0.127697,175
0.476174,0.0244325,0.128671,173
0.4763,0.0244225,0.12963,173
0.476059,0.0244354,0.130487,176
0.476186,0.0244254,0.131448,173
0.47699,0.0243731,0.132601,178
0.476751,0.024386,0.133461,172
0.476942,0.024372,0.134444,167
0.477813,0.0243155,0.135625,163
0.477081,0.0243591,0.136344,163
0.477768,0.0243141,0.137477,162
0.478025,0.024296,0.138486,163
0.477293,0.0243395,0.139203,158
0.477365,0.0243329,0.140158,154
0.477995,0.0242915,0.141282,155
0.477203,0.0243388,0.141979,162
0.477524,0.0243167,0.143013,162
0.477784,0.0242983,0.14403,157
0.477674,0.0243031,0.144934,153
0.478432,0.0242536,0.146109,152
