ply
format ascii 1.0
comment Created by CloudCompare v2.11 alpha (Anoia)
comment Created 2025/12/9 16:19
obj_info Generated by CloudCompare!
element vertex 1421
property float x
property float y
property float z
property float scalar_Scalar_field
end_header
0.301997 -0.573991 -0.330425 68 
0.302128 -0.574036 -0.329632 63 
0.30259 -0.57419 -0.32894 62 
0.302536 -0.574173 -0.328091 57 
0.301728 -0.573911 -0.327016 65 
0.302049 -0.574018 -0.326282 61 
0.302323 -0.57411 -0.325533 63 
0.302976 -0.574326 -0.324895 70 
0.302123 -0.574048 -0.323815 70 
0.302444 -0.574156 -0.323081 66 
0.302204 -0.574079 -0.322183 64 
0.302527 -0.574187 -0.321448 65 
0.302334 -0.574125 -0.320566 66 
0.301908 -0.573987 -0.31962 65 
0.302184 -0.57408 -0.318872 71 
0.302415 -0.574158 -0.318112 68 
0.301944 -0.574005 -0.317157 65 
0.302691 -0.574252 -0.316538 67 
0.30175 -0.573946 -0.315458 79 
0.302592 -0.574223 -0.314864 85 
0.30259 -0.574225 -0.31404 82 
0.302166 -0.574088 -0.313106 82 
0.302399 -0.574166 -0.312346 90 
0.302446 -0.574183 -0.311537 84 
0.30268 -0.574262 -0.310778 91 
0.302868 -0.574326 -0.310006 93 
0.303196 -0.574435 -0.30927 98 
0.303198 -0.574437 -0.30845 93 
0.30287 -0.574332 -0.307548 97 
0.302731 -0.574288 -0.306695 98 
0.303391 -0.574507 -0.30604 107 
0.302924 -0.574355 -0.305107 101 
0.303537 -0.574558 -0.30444 102 
0.303445 -0.574531 -0.3036 108 
0.303685 -0.574611 -0.30284 106 
0.303641 -0.574599 -0.302013 105 
0.303787 -0.574648 -0.301231 106 
0.303934 -0.574698 -0.300449 108 
0.303609 -0.574594 -0.299558 107 
0.303521 -0.574567 -0.298723 113 
0.304138 -0.574771 -0.298049 118 
0.304051 -0.574745 -0.297215 111 
0.304906 -0.575027 -0.296591 114 
0.304772 -0.574985 -0.295746 119 
0.304686 -0.574959 -0.294913 125 
0.304412 -0.57487 -0.294039 125 
0.304655 -0.574953 -0.293278 127 
0.304713 -0.574973 -0.292477 127 
0.304958 -0.575055 -0.291717 128 
0.304967 -0.575061 -0.290906 114 
0.305119 -0.575112 -0.290125 120 
0.304942 -0.575056 -0.289277 125 
0.304859 -0.575031 -0.288448 129 
0.30487 -0.575036 -0.28764 130 
0.304882 -0.575042 -0.286832 130 
0.305178 -0.575141 -0.286081 126 
0.305853 -0.575365 -0.285402 126 
0.305346 -0.5752 -0.284494 125 
0.305362 -0.575207 -0.283687 135 
0.305422 -0.575229 -0.282889 129 
0.305532 -0.575267 -0.282101 134 
0.305689 -0.57532 -0.281321 141 
0.305469 -0.57525 -0.280472 142 
0.305579 -0.575288 -0.279685 144 
0.30588 -0.575389 -0.278931 142 
0.306087 -0.575459 -0.27816 142 
0.306578 -0.575622 -0.277439 152 
0.306502 -0.575599 -0.276617 149 
0.306425 -0.575575 -0.275796 151 
0.306776 -0.575693 -0.275048 147 
0.306607 -0.575639 -0.274212 155 
0.306722 -0.575678 -0.273425 158 
0.306695 -0.575671 -0.272613 156 
0.306668 -0.575665 -0.271803 147 
0.30669 -0.575674 -0.271 151 
0.30676 -0.575698 -0.270206 146 
0.306971 -0.57577 -0.269434 147 
0.306662 -0.575671 -0.268581 149 
0.306686 -0.57568 -0.26778 155 
0.307043 -0.575799 -0.267029 154 
0.307067 -0.575809 -0.266228 159 
0.307662 -0.576006 -0.26551 161 
0.307544 -0.57597 -0.264688 161 
0.307048 -0.575808 -0.263813 165 
0.307359 -0.575912 -0.263054 167 
0.307909 -0.576095 -0.262326 169 
0.307938 -0.576106 -0.261525 169 
0.308156 -0.57618 -0.260751 167 
0.308376 -0.576253 -0.259975 169 
0.308261 -0.576218 -0.259156 169 
0.308147 -0.576182 -0.258338 169 
0.30832 -0.576241 -0.257556 170 
0.308589 -0.576331 -0.256786 170 
0.308764 -0.576391 -0.256004 169 
0.30889 -0.576434 -0.255215 173 
0.309305 -0.576572 -0.254461 173 
0.309626 -0.576679 -0.253694 175 
0.309659 -0.576692 -0.252893 173 
0.309453 -0.576626 -0.252066 177 
0.310351 -0.576923 -0.251361 178 
0.310001 -0.57681 -0.250518 178 
0.310277 -0.576903 -0.249743 177 
0.310506 -0.576979 -0.248962 181 
0.310012 -0.57682 -0.248107 179 
0.310241 -0.576897 -0.247326 177 
0.310279 -0.576911 -0.246526 173 
0.310557 -0.577004 -0.245749 181 
0.310452 -0.576971 -0.244935 181 
0.310203 -0.576891 -0.244109 181 
0.310674 -0.577048 -0.243349 180 
0.310618 -0.577032 -0.24254 189 
0.310611 -0.577031 -0.241736 183 
0.310796 -0.577094 -0.240949 185 
0.310694 -0.577062 -0.240137 191 
0.310784 -0.577093 -0.239341 191 
0.310827 -0.57711 -0.238542 188 
0.311448 -0.577316 -0.237787 190 
0.311395 -0.5773 -0.236979 187 
0.311006 -0.577174 -0.236147 191 
0.311051 -0.577191 -0.235348 192 
0.311724 -0.577414 -0.234592 192 
0.312157 -0.577558 -0.233818 194 
0.312447 -0.577655 -0.233032 197 
0.312155 -0.577561 -0.232209 193 
0.311332 -0.577292 -0.231354 195 
0.311621 -0.577389 -0.230569 194 
0.312202 -0.577582 -0.2298 199 
0.312155 -0.577568 -0.228993 197 
0.312593 -0.577714 -0.228213 201 
0.312595 -0.577717 -0.227409 201 
0.312499 -0.577688 -0.2266 203 
0.312649 -0.577738 -0.225804 201 
0.312409 -0.577662 -0.224989 208 
0.312171 -0.577585 -0.224175 205 
0.312128 -0.577573 -0.22337 209 
0.311843 -0.577481 -0.222556 207 
0.311751 -0.577453 -0.22175 200 
0.311951 -0.577521 -0.220956 203 
0.311861 -0.577493 -0.22015 202 
0.311965 -0.577529 -0.219352 204 
0.312119 -0.577582 -0.218554 206 
0.311982 -0.577539 -0.217748 205 
0.312234 -0.577623 -0.216953 209 
0.31205 -0.577564 -0.216146 214 
0.311769 -0.577474 -0.215338 209 
0.311731 -0.577464 -0.214536 208 
0.311888 -0.577517 -0.213737 215 
0.312045 -0.577571 -0.212938 209 
0.31196 -0.577545 -0.212135 211 
0.311877 -0.577519 -0.211333 209 
0.312229 -0.577637 -0.210535 214 
0.312196 -0.577628 -0.209733 216 
0.31192 -0.577539 -0.208929 213 
0.311789 -0.577498 -0.208127 217 
0.311998 -0.577569 -0.207326 216 
0.31187 -0.577528 -0.206524 218 
0.311693 -0.577472 -0.205723 217 
0.311132 -0.57729 -0.204924 216 
0.311246 -0.577329 -0.204123 213 
0.310398 -0.577052 -0.203329 205 
0.310225 -0.576997 -0.202532 204 
0.310436 -0.577069 -0.201731 203 
0.308544 -0.576449 -0.200956 203 
0.307994 -0.57627 -0.200169 200 
0.308014 -0.576279 -0.199375 204 
0.308178 -0.576335 -0.198578 202 
0.307869 -0.576235 -0.197789 205 
0.3077 -0.576181 -0.196999 209 
0.307819 -0.576222 -0.196203 211 
0.307653 -0.576169 -0.195413 210 
0.306542 -0.575806 -0.194651 214 
0.306001 -0.575631 -0.193875 214 
0.305698 -0.575533 -0.193094 218 
0.305348 -0.57542 -0.192316 214 
0.305138 -0.575353 -0.191534 215 
0.304884 -0.575271 -0.190755 210 
0.30477 -0.575236 -0.18997 212 
0.303726 -0.574894 -0.189225 213 
0.303335 -0.574768 -0.188456 215 
0.303874 -0.574947 -0.187645 216 
0.304556 -0.575172 -0.186825 212 
0.303699 -0.574893 -0.186079 207 
0.302709 -0.574569 -0.185343 214 
0.302599 -0.574535 -0.184563 211 
0.302768 -0.574593 -0.183768 211 
0.303681 -0.574895 -0.18293 210 
0.303898 -0.574968 -0.18213 207 
0.302123 -0.574386 -0.18145 209 
0.302294 -0.574444 -0.180654 209 
0.302235 -0.574427 -0.179873 208 
0.302361 -0.57447 -0.179079 209 
0.303645 -0.574894 -0.178204 211 
0.302197 -0.57442 -0.177519 209 
0.302602 -0.574555 -0.176703 206 
0.302036 -0.574371 -0.175959 206 
0.302303 -0.574461 -0.175152 208 
0.302062 -0.574383 -0.174384 209 
0.30233 -0.574473 -0.173576 206 
0.30246 -0.574518 -0.172779 206 
0.30222 -0.574441 -0.172011 209 
0.302305 -0.57447 -0.171217 207 
0.302251 -0.574455 -0.170434 204 
0.302337 -0.574485 -0.169638 208 
0.302702 -0.574606 -0.168816 204 
0.302741 -0.574621 -0.168023 206 
0.302181 -0.574439 -0.167288 209 
0.302083 -0.574409 -0.166509 206 
0.302171 -0.57444 -0.165712 205 
0.302446 -0.574531 -0.164895 210 
0.303044 -0.57473 -0.164043 209 
0.304347 -0.57516 -0.163113 209 
0.304157 -0.5751 -0.16234 208 
0.304015 -0.575055 -0.161561 207 
0.303687 -0.574949 -0.160804 209 
0.304388 -0.575181 -0.159931 211 
0.304246 -0.575137 -0.159152 208 
0.303921 -0.575031 -0.158395 206 
0.303968 -0.575049 -0.157595 203 
0.304155 -0.575113 -0.156777 209 
0.304204 -0.57513 -0.155975 204 
0.304394 -0.575195 -0.155155 213 
0.304256 -0.575151 -0.154376 204 
0.304026 -0.575077 -0.153609 206 
0.303935 -0.57505 -0.152824 206 
0.304127 -0.575114 -0.152001 206 
0.304179 -0.575133 -0.151197 205 
0.304278 -0.575168 -0.150385 209 
0.304376 -0.575202 -0.149573 211 
0.304711 -0.575314 -0.148726 212 
0.304624 -0.575288 -0.147939 212 
0.304397 -0.575215 -0.147171 211 
0.304264 -0.575173 -0.146391 209 
0.30432 -0.575193 -0.145582 207 
0.304844 -0.575368 -0.144702 212 
0.304853 -0.575372 -0.143899 213 
0.304534 -0.575269 -0.143146 212 
0.304404 -0.575228 -0.142364 209 
0.304697 -0.575327 -0.141515 211 
0.304989 -0.575425 -0.140665 210 
0.305001 -0.575431 -0.139859 212 
0.305014 -0.575437 -0.139052 211 
0.304886 -0.575396 -0.138268 209 
0.304664 -0.575325 -0.137501 213 
0.304724 -0.575347 -0.136685 212 
0.304973 -0.575431 -0.135837 214 
0.305225 -0.575515 -0.134986 212 
0.305144 -0.575491 -0.134193 211 
0.304971 -0.575436 -0.133416 205 
0.305129 -0.57549 -0.13258 205 
0.305288 -0.575544 -0.131742 206 
0.305211 -0.57552 -0.130947 203 
0.305086 -0.575482 -0.130161 203 
0.305436 -0.575598 -0.129285 206 
0.305501 -0.575622 -0.128462 203 
0.305568 -0.575646 -0.127638 200 
0.305777 -0.575716 -0.126785 201 
0.305703 -0.575694 -0.125987 204 
0.305676 -0.575687 -0.125179 206 
0.305981 -0.575789 -0.124304 205 
0.306336 -0.575908 -0.123417 203 
0.306976 -0.576121 -0.12247 202 
0.307285 -0.576224 -0.121588 201 
0.307452 -0.576281 -0.120734 202 
0.307142 -0.576181 -0.11998 202 
0.306403 -0.57594 -0.119319 206 
0.30619 -0.575872 -0.118546 206 
0.307312 -0.576243 -0.117484 204 
0.30753 -0.576316 -0.116615 199 
0.307364 -0.576264 -0.115829 200 
0.307151 -0.576196 -0.115055 204 
0.307947 -0.576459 -0.114053 202 
0.308118 -0.576518 -0.11319 202 
0.308098 -0.576513 -0.112369 200 
0.307983 -0.576477 -0.11157 203 
0.30806 -0.576505 -0.110725 200 
0.308331 -0.576596 -0.109835 199 
0.308409 -0.576623 -0.108988 202 
0.308297 -0.576588 -0.108187 200 
0.308569 -0.57668 -0.107292 198 
0.308697 -0.576724 -0.106431 196 
0.30897 -0.576816 -0.105533 197 
0.309247 -0.576908 -0.104633 198 
0.309134 -0.576874 -0.103828 195 
0.30975 -0.577078 -0.102839 198 
0.309882 -0.577124 -0.101971 199 
0.309675 -0.577057 -0.101188 200 
0.309078 -0.576863 -0.100505 198 
0.30926 -0.576925 -0.0996228 197 
0.309198 -0.576907 -0.0988018 195 
0.3106 -0.57737 -0.0975948 200 
0.309857 -0.577127 -0.0969528 202 
0.310479 -0.577334 -0.0959458 199 
0.310225 -0.577253 -0.0951738 198 
0.310899 -0.577477 -0.0941478 194 
0.310842 -0.577459 -0.0933208 194 
0.31049 -0.577346 -0.0925738 197 
0.310335 -0.577296 -0.0917738 200 
0.310571 -0.577376 -0.0908628 198 
0.310465 -0.577344 -0.0900478 197 
0.310164 -0.577247 -0.0892878 197 
0.310647 -0.577407 -0.0883038 194 
0.310199 -0.577262 -0.0875858 193 
0.310683 -0.577424 -0.0865978 194 
0.31009 -0.57723 -0.0859228 196 
0.310232 -0.577279 -0.0850328 199 
0.310865 -0.577489 -0.0839968 197 
0.310173 -0.577264 -0.0833518 193 
0.310414 -0.577345 -0.0824298 193 
0.30992 -0.577185 -0.0817278 187 
0.309819 -0.577153 -0.0809078 191 
0.309767 -0.577138 -0.0800718 190 
0.309716 -0.577123 -0.0792358 195 
0.309567 -0.577076 -0.0784298 193 
0.309664 -0.57711 -0.0775468 195 
0.309173 -0.576951 -0.0768478 192 
0.308782 -0.576824 -0.0761178 192 
0.308977 -0.57689 -0.0752028 188 
0.30922 -0.576972 -0.0742698 190 
0.309171 -0.576958 -0.0734298 201 
0.308636 -0.576784 -0.0727488 192 
0.307954 -0.576561 -0.0721168 195 
0.307566 -0.576436 -0.0713888 191 
0.307324 -0.576358 -0.0706148 194 
0.306987 -0.576249 -0.0698718 196 
0.306311 -0.576029 -0.0692438 189 
0.30535 -0.575714 -0.0687148 194 
0.305016 -0.575606 -0.0679758 192 
0.304538 -0.575451 -0.0672858 195 
0.303919 -0.575249 -0.0666458 191 
0.303732 -0.575189 -0.0658588 192 
0.302781 -0.574878 -0.0653378 190 
0.302025 -0.574631 -0.0647518 186 
0.301933 -0.574603 -0.0639338 188 
0.301605 -0.574497 -0.0631988 194 
0.301515 -0.574469 -0.0623798 190 
0.301566 -0.574488 -0.0615098 192 
0.300956 -0.57429 -0.0608778 184 
0.300536 -0.574153 -0.0601788 181 
0.300166 -0.574033 -0.0594628 180 
0.299372 -0.573774 -0.0589028 176 
0.299002 -0.573654 -0.0581878 173 
0.298867 -0.573612 -0.0573878 171 
0.29906 -0.573677 -0.0564648 164 
0.299113 -0.573696 -0.0555918 162 
0.299354 -0.573778 -0.0546478 154 
0.299219 -0.573736 -0.0538448 157 
0.299273 -0.573756 -0.0529688 160 
0.299186 -0.573729 -0.0521458 160 
0.2991 -0.573703 -0.0513228 153 
0.299343 -0.573785 -0.0503718 150 
0.299398 -0.573805 -0.0494918 152 
0.299596 -0.573872 -0.0485548 155 
0.299558 -0.573861 -0.0477098 160 
0.299331 -0.573789 -0.0469388 159 
0.299434 -0.573825 -0.0460358 157 
0.299634 -0.573892 -0.0450938 160 
0.299549 -0.573867 -0.0442638 153 
0.299466 -0.573841 -0.0434338 156 
0.299524 -0.573862 -0.0425448 152 
0.299865 -0.573977 -0.0415388 155 
0.300209 -0.574092 -0.0405298 155 
0.300173 -0.574082 -0.0396758 148 
0.300186 -0.574089 -0.0388008 139 
0.300624 -0.574236 -0.0377458 137 
0.300638 -0.574242 -0.0368678 134 
0.300985 -0.574358 -0.0358488 137 
0.300999 -0.574365 -0.0349678 141 
0.300869 -0.574324 -0.0341468 147 
0.301122 -0.57441 -0.0331628 148 
0.301185 -0.574433 -0.0322578 139 
0.300914 -0.574345 -0.0314968 135 
0.300977 -0.574368 -0.0305908 139 
0.301327 -0.574486 -0.0295568 133 
0.301726 -0.574619 -0.0284998 134 
0.301984 -0.574706 -0.0275028 146 
0.301809 -0.574651 -0.0266968 154 
0.30173 -0.574627 -0.0258468 147 
0.301987 -0.574714 -0.0248448 140 
0.302343 -0.574833 -0.0237978 132 
0.302409 -0.574857 -0.0228788 129 
0.302476 -0.574881 -0.0219578 126 
0.302689 -0.574953 -0.0209698 127 
0.302466 -0.574882 -0.0201798 126 
0.302294 -0.574827 -0.0193668 126 
0.302651 -0.574947 -0.0183078 119 
0.302962 -0.575052 -0.0172678 117 
0.30279 -0.574997 -0.0164518 120 
0.303005 -0.57507 -0.0154538 120 
0.303221 -0.575143 -0.0144528 120 
0.303485 -0.575233 -0.0134268 123 
0.317706 -0.582609 -0.416543 3 
0.309967 -0.580011 -0.411736 4 
0.306188 -0.578743 -0.408935 5 
0.240115 -0.556543 -0.37536 3 
0.310898 -0.58033 -0.409437 4 
0.309247 -0.579778 -0.407707 5 
0.308158 -0.579414 -0.40626 6 
0.31148 -0.580532 -0.406965 6 
0.307038 -0.579041 -0.403895 3 
0.30621 -0.578765 -0.402589 5 
0.302078 -0.577379 -0.399702 5 
0.303445 -0.577841 -0.399461 5 
0.300949 -0.577004 -0.397378 8 
0.30015 -0.576738 -0.39611 6 
0.303484 -0.57786 -0.396792 3 
0.304616 -0.578243 -0.396429 5 
0.306442 -0.578859 -0.396385 8 
0.301933 -0.577345 -0.393393 3 
0.301611 -0.577239 -0.392356 9 
0.3056 -0.578582 -0.393304 5 
0.302123 -0.577415 -0.390818 9 
0.302139 -0.577423 -0.389939 11 
0.303892 -0.578014 -0.389849 9 
0.304686 -0.578283 -0.389319 7 
0.302958 -0.577704 -0.387654 12 
0.303892 -0.578021 -0.387188 9 
0.302655 -0.577607 -0.385752 11 
0.303782 -0.577987 -0.385368 15 
0.304574 -0.578256 -0.384833 10 
0.302132 -0.577437 -0.382879 12 
0.304318 -0.578174 -0.382954 16 
0.302024 -0.577405 -0.381076 11 
0.303003 -0.577736 -0.380622 10 
0.303263 -0.577826 -0.379856 13 
0.303715 -0.57798 -0.379171 14 
0.303975 -0.57807 -0.378404 12 
0.306228 -0.578829 -0.37848 16 
0.303438 -0.577893 -0.376423 12 
0.303409 -0.577886 -0.375537 13 
0.305314 -0.578528 -0.375456 15 
0.305092 -0.578456 -0.374487 16 
0.30487 -0.578383 -0.37352 16 
0.30465 -0.578311 -0.372554 16 
0.303948 -0.578077 -0.371394 17 
0.304403 -0.578232 -0.370708 22 
0.303993 -0.578096 -0.369671 24 
0.304448 -0.578252 -0.368984 28 
0.30505 -0.578456 -0.368354 25 
0.304399 -0.578239 -0.367225 21 
0.304421 -0.578249 -0.366365 22 
0.305555 -0.578632 -0.365944 23 
0.305241 -0.578528 -0.364951 22 
0.305555 -0.578636 -0.364206 25 
0.304325 -0.578225 -0.362862 22 
0.307207 -0.579196 -0.363106 26 
0.30592 -0.578765 -0.361744 27 
0.305703 -0.578694 -0.360795 29 
0.30544 -0.578607 -0.35983 32 
0.306724 -0.579042 -0.359449 32 
0.306363 -0.578922 -0.358448 33 
0.305954 -0.578786 -0.357431 31 
0.305835 -0.578749 -0.356525 35 
0.306055 -0.578825 -0.355744 32 
0.306423 -0.57895 -0.355017 34 
0.305436 -0.57862 -0.353796 31 
0.305174 -0.578535 -0.352843 32 
0.304866 -0.578433 -0.351875 30 
0.305762 -0.578737 -0.351339 30 
0.305021 -0.578489 -0.350218 31 
0.305339 -0.578598 -0.349475 34 
0.30489 -0.578449 -0.348462 31 
0.304871 -0.578445 -0.347603 31 
0.304758 -0.578409 -0.346711 35 
0.305077 -0.578518 -0.345969 32 
0.304533 -0.578338 -0.344931 38 
0.304518 -0.578334 -0.344075 41 
0.305557 -0.578686 -0.343577 44 
0.304583 -0.57836 -0.342399 45 
0.305093 -0.578534 -0.341722 45 
0.304457 -0.578322 -0.340662 43 
0.304873 -0.578464 -0.339953 48 
0.304334 -0.578285 -0.338929 49 
0.304226 -0.57825 -0.338049 54 
0.303737 -0.578087 -0.337047 55 
0.303723 -0.578085 -0.3362 51 
0.303712 -0.578083 -0.335355 52 
0.302469 -0.577667 -0.334119 54 
0.301892 -0.577475 -0.3331 55 
0.30193 -0.577489 -0.332275 60 
0.301684 -0.577409 -0.331364 61 
0.301863 -0.577471 -0.330584 63 
0.30237 -0.577644 -0.329907 65 
0.301703 -0.577421 -0.328869 65 
0.301555 -0.577373 -0.327991 63 
0.301639 -0.577404 -0.327185 70 
0.301491 -0.577356 -0.32631 67 
0.301812 -0.577466 -0.325575 67 
0.30129 -0.577292 -0.324591 71 
0.30147 -0.577355 -0.323815 71 
0.30198 -0.577528 -0.323135 68 
0.302161 -0.577592 -0.322359 71 
0.302015 -0.577544 -0.321489 68 
0.302105 -0.577576 -0.320686 76 
0.302099 -0.577576 -0.319858 76 
0.302143 -0.577593 -0.319043 77 
0.302325 -0.577657 -0.318268 73 
0.301948 -0.577531 -0.317338 71 
0.302226 -0.577627 -0.316589 70 
0.302269 -0.577643 -0.315777 74 
0.301798 -0.577487 -0.314826 74 
0.302217 -0.57763 -0.314116 74 
0.302545 -0.577742 -0.31338 76 
0.302262 -0.577649 -0.312482 80 
0.302731 -0.577808 -0.311783 81 
0.302682 -0.577794 -0.310949 88 
0.302729 -0.577812 -0.310139 82 
0.302729 -0.577814 -0.309318 85 
0.302684 -0.577801 -0.308486 91 
0.302684 -0.577803 -0.307666 94 
0.30358 -0.578106 -0.30707 93 
0.303252 -0.577998 -0.306169 92 
0.302785 -0.577842 -0.305234 96 
0.302929 -0.577892 -0.304451 101 
0.303118 -0.577959 -0.303679 92 
0.303075 -0.577946 -0.302851 106 
0.303221 -0.577997 -0.302069 110 
0.303272 -0.578016 -0.301264 110 
0.303277 -0.57802 -0.300449 111 
0.303375 -0.578055 -0.299656 115 
0.303757 -0.578185 -0.298928 116 
0.304471 -0.578427 -0.298274 118 
0.30457 -0.578463 -0.29748 116 
0.304577 -0.578467 -0.296665 121 
0.304208 -0.578345 -0.295767 119 
0.304403 -0.578413 -0.294995 119 
0.304082 -0.578306 -0.294111 122 
0.304467 -0.578438 -0.29338 126 
0.304619 -0.578491 -0.292598 124 
0.304816 -0.578559 -0.291826 130 
0.304684 -0.578517 -0.290985 123 
0.304695 -0.578523 -0.290174 125 
0.304895 -0.578592 -0.289403 117 
0.304906 -0.578597 -0.288592 118 
0.304964 -0.578619 -0.287792 122 
0.304695 -0.57853 -0.286926 124 
0.305604 -0.578838 -0.286295 122 
0.304578 -0.578495 -0.285282 129 
0.305346 -0.578755 -0.284621 132 
0.305313 -0.578746 -0.283804 135 
0.305611 -0.578848 -0.28305 136 
0.306053 -0.578999 -0.282323 143 
0.306067 -0.579006 -0.281515 141 
0.305846 -0.578933 -0.280663 143 
0.305391 -0.578782 -0.279771 147 
0.306021 -0.578996 -0.279076 143 
0.305707 -0.578892 -0.278211 142 
0.306152 -0.579044 -0.27748 147 
0.306028 -0.579004 -0.27665 141 
0.306093 -0.579028 -0.275853 146 
0.306112 -0.579036 -0.275048 145 
0.306084 -0.579029 -0.274236 147 
0.306199 -0.579069 -0.273448 144 
0.306361 -0.579126 -0.272668 147 
0.306525 -0.579183 -0.271887 150 
0.306547 -0.579192 -0.271084 152 
0.306473 -0.57917 -0.270266 149 
0.306924 -0.579323 -0.26953 152 
0.30652 -0.579189 -0.268661 157 
0.306637 -0.57923 -0.267873 160 
0.306899 -0.57932 -0.267107 157 
0.306875 -0.579314 -0.266298 161 
0.306995 -0.579357 -0.26551 162 
0.307591 -0.579559 -0.264791 158 
0.30757 -0.579554 -0.263982 159 
0.307786 -0.579629 -0.263207 163 
0.307289 -0.579464 -0.262333 164 
0.307317 -0.579475 -0.261532 164 
0.307535 -0.57955 -0.260757 158 
0.307373 -0.579498 -0.259931 171 
0.308021 -0.579718 -0.259212 166 
0.308097 -0.579745 -0.258417 171 
0.308461 -0.57987 -0.257659 169 
0.308587 -0.579914 -0.256869 175 
0.30838 -0.579846 -0.256039 178 
0.308506 -0.579891 -0.25525 175 
0.30964 -0.580275 -0.25458 172 
0.309768 -0.58032 -0.253789 180 
0.309801 -0.580333 -0.252986 174 
0.310124 -0.580444 -0.252217 181 
0.309821 -0.580343 -0.251377 183 
0.309857 -0.580357 -0.250575 186 
0.309844 -0.580355 -0.249768 179 
0.309496 -0.580239 -0.248927 177 
0.309772 -0.580334 -0.248151 175 
0.309951 -0.580397 -0.247365 184 
0.310037 -0.580428 -0.246569 182 
0.309931 -0.580394 -0.245754 181 
0.310113 -0.580457 -0.244967 179 
0.310297 -0.580521 -0.24418 183 
0.310481 -0.580585 -0.243392 187 
0.31052 -0.5806 -0.242591 186 
0.310416 -0.580567 -0.241778 182 
0.311083 -0.580794 -0.241031 183 
0.311318 -0.580875 -0.240245 183 
0.31141 -0.580907 -0.239447 184 
0.311597 -0.580972 -0.238657 186 
0.31082 -0.580712 -0.237791 189 
0.31067 -0.580664 -0.236976 188 
0.310955 -0.580762 -0.236193 183 
0.311774 -0.58104 -0.235448 183 
0.311529 -0.580959 -0.234626 184 
0.31172 -0.581025 -0.233834 186 
0.311525 -0.580961 -0.233016 187 
0.310703 -0.580686 -0.23216 188 
0.311475 -0.580948 -0.231405 199 
0.311715 -0.581032 -0.230615 193 
0.311765 -0.58105 -0.229814 197 
0.312201 -0.581199 -0.229034 199 
0.312009 -0.581136 -0.228218 197 
0.311769 -0.581057 -0.227402 197 
0.311722 -0.581044 -0.226596 198 
0.311967 -0.581128 -0.225804 200 
0.312165 -0.581197 -0.225009 203 
0.312169 -0.5812 -0.224204 199 
0.312174 -0.581203 -0.2234 202 
0.312082 -0.581174 -0.222593 205 
0.312185 -0.581211 -0.221793 200 
0.312095 -0.581182 -0.220985 194 
0.312149 -0.581203 -0.220183 199 
0.312012 -0.581158 -0.219375 197 
0.311778 -0.581081 -0.218565 201 
0.311787 -0.581086 -0.217762 202 
0.311747 -0.581075 -0.216958 207 
0.31166 -0.581047 -0.216153 206 
0.311621 -0.581036 -0.21535 210 
0.311778 -0.581091 -0.214551 210 
0.311643 -0.581048 -0.213745 210 
0.311318 -0.580939 -0.212938 206 
0.311379 -0.580962 -0.212137 204 
0.311632 -0.58105 -0.211338 208 
0.311502 -0.581007 -0.210534 206 
0.311853 -0.581128 -0.209736 209 
0.313814 -0.581791 -0.208946 211 
0.31378 -0.581781 -0.20814 214 
0.313161 -0.581575 -0.207332 213 
0.311722 -0.581091 -0.206525 215 
0.311738 -0.581099 -0.205722 214 
0.311707 -0.58109 -0.20492 210 
0.311388 -0.580984 -0.204119 213 
0.312616 -0.581401 -0.203309 210 
0.311136 -0.580903 -0.202518 209 
0.310674 -0.580749 -0.201721 205 
0.310501 -0.580693 -0.200923 209 
0.309994 -0.580523 -0.20013 203 
0.309678 -0.580419 -0.199336 202 
0.309891 -0.580493 -0.198534 205 
0.309866 -0.580486 -0.197735 204 
0.308028 -0.579868 -0.196977 206 
0.308003 -0.579862 -0.196182 207 
0.307505 -0.579695 -0.195399 211 
0.307386 -0.579657 -0.194608 213 
0.307079 -0.579556 -0.193823 211 
0.307009 -0.579534 -0.193031 211 
0.307224 -0.579609 -0.19223 212 
0.305225 -0.578936 -0.191507 212 
0.30544 -0.57901 -0.190708 210 
0.3065 -0.57937 -0.189875 209 
0.304743 -0.57878 -0.189155 210 
0.304911 -0.578838 -0.188358 219 
0.304706 -0.57877 -0.187577 215 
0.304128 -0.578577 -0.186814 212 
0.304017 -0.578542 -0.18603 213 
0.304094 -0.578569 -0.185237 215 
0.304031 -0.57855 -0.184451 213 
0.303595 -0.578405 -0.183686 213 
0.303023 -0.578214 -0.18293 214 
0.302592 -0.57807 -0.182168 212 
0.302299 -0.577974 -0.181399 215 
0.302933 -0.578189 -0.180572 209 
0.303198 -0.578281 -0.179767 206 
0.30143 -0.577686 -0.179098 205 
0.301509 -0.577715 -0.178307 205 
0.301589 -0.577743 -0.177515 205 
0.30167 -0.577773 -0.176723 206 
0.301982 -0.57788 -0.175914 207 
0.301326 -0.57766 -0.175177 208 
0.301638 -0.577768 -0.174366 210 
0.301353 -0.577673 -0.173603 208 
0.301344 -0.577672 -0.172817 208 
0.302027 -0.577904 -0.171972 209 
0.30119 -0.577624 -0.171257 211 
0.302105 -0.577934 -0.170389 208 
0.302514 -0.578074 -0.169563 208 
0.301953 -0.577887 -0.168825 204 
0.301625 -0.577778 -0.168067 204 
0.301895 -0.577871 -0.167253 205 
0.301753 -0.577825 -0.166477 207 
0.301517 -0.577747 -0.165712 209 
0.302298 -0.578013 -0.164843 207 
0.303409 -0.578389 -0.163936 207 
0.302848 -0.578202 -0.163202 208 
0.301921 -0.577891 -0.162511 207 
0.303402 -0.578393 -0.161556 205 
0.303308 -0.578363 -0.160773 204 
0.303122 -0.578302 -0.16 204 
0.303261 -0.578351 -0.15919 207 
0.303167 -0.578321 -0.158406 207 
0.303261 -0.578355 -0.157601 204 
0.303542 -0.578452 -0.156771 207 
0.302985 -0.578265 -0.156044 205 
0.302801 -0.578205 -0.155272 205 
0.303456 -0.578428 -0.154393 205 
0.303319 -0.578384 -0.153615 204 
0.303369 -0.578403 -0.152811 204 
0.30342 -0.578422 -0.152007 209 
0.303331 -0.578394 -0.151222 210 
0.303757 -0.578539 -0.150366 212 
0.303903 -0.57859 -0.149546 215 
0.304004 -0.578626 -0.148733 215 
0.304056 -0.578646 -0.147925 216 
0.30397 -0.578619 -0.147137 217 
0.304024 -0.578639 -0.146329 214 
0.303331 -0.578407 -0.145631 215 
0.303761 -0.578554 -0.144766 214 
0.304051 -0.578654 -0.14392 213 
0.303921 -0.578611 -0.143138 214 
0.304118 -0.57868 -0.142305 217 
0.303894 -0.578606 -0.141538 212 
0.303719 -0.578549 -0.140763 212 
0.30387 -0.578602 -0.139935 213 
0.303883 -0.578608 -0.13913 214 
0.303849 -0.578598 -0.138331 213 
0.303908 -0.578621 -0.137517 213 
0.303921 -0.578627 -0.13671 213 
0.303982 -0.57865 -0.135894 212 
0.304184 -0.57872 -0.135052 211 
0.304293 -0.578759 -0.134226 214 
0.304545 -0.578845 -0.133374 212 
0.304325 -0.578773 -0.132605 218 
0.304201 -0.578733 -0.13182 213 
0.3045 -0.578836 -0.130956 214 
0.304565 -0.57886 -0.130134 210 
0.304771 -0.578931 -0.129285 218 
0.30479 -0.57894 -0.128471 206 
0.304291 -0.578773 -0.127756 205 
0.304451 -0.578829 -0.126914 208 
0.304518 -0.578854 -0.126089 210 
0.30468 -0.57891 -0.125245 209 
0.304796 -0.578951 -0.124409 209 
0.304722 -0.578928 -0.12361 206 
0.305218 -0.579097 -0.122694 203 
0.30505 -0.579043 -0.121914 204 
0.305357 -0.579149 -0.121034 208 
0.305808 -0.579303 -0.120121 208 
0.306165 -0.579425 -0.119227 206 
0.306141 -0.579419 -0.118413 201 
0.306834 -0.579655 -0.117442 201 
0.306861 -0.579666 -0.116615 203 
0.307222 -0.57979 -0.115713 205 
0.307535 -0.579898 -0.114819 200 
0.307611 -0.579925 -0.113977 204 
0.307736 -0.579969 -0.113124 201 
0.308486 -0.580225 -0.112125 202 
0.30784 -0.580009 -0.111447 202 
0.307871 -0.580021 -0.110613 197 
0.308381 -0.580195 -0.109664 202 
0.308219 -0.580143 -0.108874 199 
0.308298 -0.580171 -0.108025 199 
0.308957 -0.580396 -0.107035 202 
0.308362 -0.580197 -0.106349 202 
0.308636 -0.580291 -0.10545 202 
0.308668 -0.580304 -0.104609 199 
0.308605 -0.580285 -0.103792 197 
0.3083 -0.580184 -0.103035 199 
0.308479 -0.580247 -0.102156 197 
0.308757 -0.580342 -0.10125 197 
0.30884 -0.580372 -0.100393 199 
0.308924 -0.580403 -0.0995338 202 
0.309106 -0.580466 -0.0986488 197 
0.309094 -0.580464 -0.0978138 198 
0.30889 -0.580397 -0.0970298 196 
0.309363 -0.580559 -0.0960638 196 
0.309646 -0.580656 -0.0951468 193 
0.310025 -0.580787 -0.0942018 193 
0.310113 -0.580818 -0.0933338 198 
0.309422 -0.580587 -0.0926818 198 
0.309902 -0.580751 -0.0917058 196 
0.309747 -0.5807 -0.0909038 195 
0.310472 -0.580947 -0.0898538 192 
0.31071 -0.58103 -0.0889388 194 
0.310703 -0.58103 -0.0880928 196 
0.310207 -0.580864 -0.0873878 194 
0.310396 -0.58093 -0.0864838 192 
0.309707 -0.580699 -0.0858368 198 
0.309554 -0.58065 -0.0850328 200 
0.309305 -0.580567 -0.0842578 196 
0.309399 -0.580601 -0.0833808 194 
0.309298 -0.580569 -0.0825618 189 
0.309343 -0.580586 -0.0816978 191 
0.309193 -0.580537 -0.0808928 191 
0.309043 -0.580489 -0.0800868 193 
0.308845 -0.580424 -0.0792968 193 
0.309233 -0.580557 -0.0783228 189 
0.308793 -0.58041 -0.0776078 192 
0.30889 -0.580445 -0.0767238 191 
0.309132 -0.580529 -0.0757928 193 
0.308986 -0.580482 -0.0749838 192 
0.308351 -0.580269 -0.0743328 191 
0.307961 -0.58014 -0.0736038 194 
0.307427 -0.579961 -0.0729238 191 
0.307088 -0.579849 -0.0721798 189 
0.307139 -0.579867 -0.0713088 195 
0.306994 -0.579821 -0.0705018 197 
0.306511 -0.57966 -0.0698078 195 
0.30579 -0.579418 -0.0691948 189 
0.304399 -0.57895 -0.0688128 190 
0.304161 -0.578871 -0.0680408 195 
0.303925 -0.578793 -0.0672688 198 
0.30364 -0.578699 -0.0665148 191 
0.302642 -0.578364 -0.0660078 195 
0.303122 -0.578528 -0.0649888 196 
0.302031 -0.578162 -0.0645188 194 
0.301326 -0.577925 -0.0639168 189 
0.301093 -0.577848 -0.0631488 194 
0.300954 -0.577804 -0.0623468 189 
0.300346 -0.5776 -0.0617138 193 
0.299551 -0.577334 -0.0611498 189 
0.299322 -0.577258 -0.0603838 184 
0.299374 -0.577277 -0.0595138 183 
0.298864 -0.577107 -0.0588508 179 
0.298634 -0.577031 -0.0580848 174 
0.298267 -0.576909 -0.0573708 172 
0.297899 -0.576787 -0.0566568 176 
0.297857 -0.576775 -0.0558208 175 
0.29805 -0.576842 -0.0548958 171 
0.29829 -0.576925 -0.0539518 170 
0.29811 -0.576867 -0.0531658 163 
0.297931 -0.576808 -0.0523808 160 
0.298032 -0.576844 -0.0514858 156 
0.297992 -0.576833 -0.0506458 151 
0.297767 -0.576759 -0.0498768 154 
0.297682 -0.576732 -0.0490528 161 
0.298204 -0.57691 -0.0479888 154 
0.298447 -0.576995 -0.0470318 150 
0.298364 -0.576968 -0.0462048 145 
0.298232 -0.576926 -0.0453958 148 
0.298806 -0.577122 -0.0443018 147 
0.29858 -0.577048 -0.0435288 148 
0.298544 -0.577038 -0.0426798 151 
0.298696 -0.577091 -0.0417518 155 
0.29899 -0.577193 -0.0407638 149 
0.299332 -0.577311 -0.0397538 145 
0.301004 -0.577878 -0.0381868 137 
0.30002 -0.577547 -0.0377258 139 
0.299985 -0.577537 -0.0368678 137 
0.299903 -0.577512 -0.0360298 130 
0.300108 -0.577583 -0.0350688 129 
0.299695 -0.577445 -0.0343708 141 
0.299993 -0.577549 -0.0333668 141 
0.29996 -0.57754 -0.0325048 136 
0.300213 -0.577627 -0.0315178 134 
0.299753 -0.577473 -0.0308398 136 
0.300481 -0.577722 -0.0296408 135 
0.300831 -0.577843 -0.0286058 140 
0.301136 -0.577947 -0.0275878 136 
0.301152 -0.577955 -0.0266968 139 
0.301122 -0.577947 -0.0258248 139 
0.300851 -0.577858 -0.0250608 138 
0.3013 -0.578012 -0.0239718 129 
0.30132 -0.57802 -0.0230748 130 
0.301194 -0.57798 -0.0222438 125 
0.301116 -0.577956 -0.0213898 122 
0.301327 -0.578029 -0.0204018 121 
0.301683 -0.578152 -0.0193448 128 
0.301656 -0.578145 -0.0184648 122 
0.301627 -0.578137 -0.0175838 123 
0.301937 -0.578244 -0.0165428 124 
0.302056 -0.578286 -0.0155908 119 
0.301979 -0.578263 -0.0147288 126 
0.302485 -0.578436 -0.0135888 126 
0.311738 -0.584228 -0.4139 5 
0.0875805 -0.506943 -0.301885 3 
0.312514 -0.5845 -0.412435 5 
0.307785 -0.582872 -0.40916 4 
0.306257 -0.582348 -0.407489 4 
0.308003 -0.582952 -0.407437 4 
0.30682 -0.582546 -0.405945 5 
0.303201 -0.5813 -0.40327 3 
0.309079 -0.583329 -0.405222 3 
0.304004 -0.581581 -0.401856 3 
0.301834 -0.580835 -0.399911 4 
0.3032 -0.581309 -0.39967 5 
0.302583 -0.581098 -0.398478 9 
0.302018 -0.580905 -0.397314 4 
0.300543 -0.580398 -0.395725 8 
0.302768 -0.581168 -0.395882 9 
0.300857 -0.580512 -0.394095 9 
0.299823 -0.580157 -0.392725 7 
0.303102 -0.581289 -0.39336 5 
0.301863 -0.580864 -0.391897 8 
0.300108 -0.580261 -0.390204 8 
0.304358 -0.581729 -0.391263 9 
0.300283 -0.580326 -0.388518 10 
0.301493 -0.580745 -0.388185 10 
0.303725 -0.581517 -0.388306 12 
0.301001 -0.58058 -0.386198 10 
0.302263 -0.581017 -0.38588 10 
0.302664 -0.581158 -0.385176 8 
0.302682 -0.581166 -0.384301 13 
0.3027 -0.581174 -0.383426 11 
0.303151 -0.581332 -0.382743 13 
0.302207 -0.581009 -0.381451 14 
0.302996 -0.581282 -0.380913 14 
0.302677 -0.581175 -0.379897 13 
0.302121 -0.580985 -0.378781 14 
0.302667 -0.581176 -0.378138 15 
0.303313 -0.5814 -0.377535 12 
0.303717 -0.581542 -0.376829 12 
0.304027 -0.581651 -0.376082 14 
0.303468 -0.58146 -0.374972 19 
0.302339 -0.581073 -0.373628 17 
0.303607 -0.581512 -0.373281 21 
0.303147 -0.581356 -0.372218 21 
0.302115 -0.581002 -0.370924 19 
0.302424 -0.581111 -0.370181 21 
0.303694 -0.58155 -0.369826 21 
0.303957 -0.581643 -0.369061 19 
0.304558 -0.581853 -0.368432 21 
0.304002 -0.581663 -0.367339 27 
0.304942 -0.581989 -0.366843 26 
0.304 -0.581667 -0.365602 24 
0.304989 -0.58201 -0.365122 26 
0.304675 -0.581904 -0.36413 28 
0.304603 -0.581881 -0.363235 26 
0.305496 -0.582191 -0.362713 29 
0.304412 -0.581819 -0.361429 29 
0.30439 -0.581813 -0.360556 26 
0.304511 -0.581858 -0.359738 27 
0.304538 -0.581868 -0.358885 37 
0.305914 -0.582346 -0.358539 31 
0.30536 -0.582157 -0.357467 33 
0.30481 -0.581969 -0.3564 35 
0.305126 -0.58208 -0.355655 37 
0.304576 -0.581892 -0.354593 32 
0.305277 -0.582136 -0.353989 32 
0.30492 -0.582015 -0.353 33 
0.305142 -0.582093 -0.352221 37 
0.305844 -0.582338 -0.351615 39 
0.304862 -0.582001 -0.350406 35 
0.30494 -0.58203 -0.349577 35 
0.304731 -0.58196 -0.348648 31 
0.304042 -0.581724 -0.347552 30 
0.30412 -0.581753 -0.346727 32 
0.304725 -0.581964 -0.346084 33 
0.304518 -0.581895 -0.34516 38 
0.304024 -0.581726 -0.34414 37 
0.303721 -0.581624 -0.343188 44 
0.303658 -0.581604 -0.342319 45 
0.30393 -0.5817 -0.341562 45 
0.303439 -0.581532 -0.340551 48 
0.303093 -0.581415 -0.339591 47 
0.3027 -0.581281 -0.338617 49 
0.302781 -0.581311 -0.337801 51 
0.302484 -0.581211 -0.336862 54 
0.302426 -0.581192 -0.336002 53 
0.302886 -0.581354 -0.335309 58 
0.302969 -0.581384 -0.334495 59 
0.302343 -0.58117 -0.333457 58 
0.302285 -0.581152 -0.3326 61 
0.301288 -0.58081 -0.331451 58 
0.300902 -0.580679 -0.330497 59 
0.30094 -0.580694 -0.329675 68 
0.300557 -0.580564 -0.328726 69 
0.300876 -0.580676 -0.327991 68 
0.301102 -0.580756 -0.327228 72 
0.301095 -0.580755 -0.326394 69 
0.301275 -0.580819 -0.325617 73 
0.30094 -0.580706 -0.324688 74 
0.301167 -0.580786 -0.323925 74 
0.300927 -0.580705 -0.323026 75 
0.301482 -0.580899 -0.322359 76 
0.301383 -0.580867 -0.321502 72 
0.301612 -0.580948 -0.32074 74 
0.301468 -0.5809 -0.319871 79 
0.301275 -0.580835 -0.31899 80 
0.301506 -0.580917 -0.318229 80 
0.301501 -0.580917 -0.317402 79 
0.301405 -0.580886 -0.316551 75 
0.30103 -0.580758 -0.315624 77 
0.301259 -0.58084 -0.314864 74 
0.301491 -0.580922 -0.314103 75 
0.301443 -0.580907 -0.313267 77 
0.301443 -0.580909 -0.312445 86 
0.301768 -0.581023 -0.311709 90 
0.30158 -0.580961 -0.310839 87 
0.30158 -0.580962 -0.310018 91 
0.301674 -0.580997 -0.309222 94 
0.301816 -0.581047 -0.308438 95 
0.301771 -0.581034 -0.307607 111 
0.301818 -0.581052 -0.3068 119 
0.302148 -0.581168 -0.306064 114 
0.30229 -0.581219 -0.30528 98 
0.302433 -0.581271 -0.304497 96 
0.30253 -0.581306 -0.303702 103 
0.30305 -0.581487 -0.303009 106 
0.302631 -0.581345 -0.302091 107 
0.303104 -0.58151 -0.301386 109 
0.30325 -0.581562 -0.300603 106 
0.303209 -0.58155 -0.299776 112 
0.303073 -0.581505 -0.298928 111 
0.303126 -0.581526 -0.298124 121 
0.303602 -0.581692 -0.297416 121 
0.303468 -0.581647 -0.29657 121 
0.30371 -0.581733 -0.295809 121 
0.303672 -0.581721 -0.294985 125 
0.303351 -0.581613 -0.2941 121 
0.303687 -0.581731 -0.29336 124 
0.303602 -0.581704 -0.292528 117 
0.303847 -0.58179 -0.291766 117 
0.304139 -0.581893 -0.291015 112 
0.304103 -0.581882 -0.290194 117 
0.303878 -0.581807 -0.289335 112 
0.304172 -0.58191 -0.288583 119 
0.304136 -0.5819 -0.287764 115 
0.304383 -0.581987 -0.287002 119 
0.304538 -0.582042 -0.28622 117 
0.30441 -0.582 -0.285384 123 
0.304375 -0.58199 -0.284567 125 
0.30505 -0.582225 -0.283886 124 
0.304639 -0.582085 -0.282997 129 
0.304372 -0.581995 -0.282136 140 
0.304859 -0.582165 -0.281418 137 
0.304826 -0.582156 -0.280602 139 
0.305173 -0.582277 -0.279857 135 
0.305474 -0.582383 -0.279101 145 
0.306152 -0.58262 -0.278413 144 
0.305649 -0.582448 -0.277514 145 
0.306046 -0.582587 -0.276774 146 
0.305591 -0.582432 -0.275886 147 
0.305705 -0.582473 -0.275097 143 
0.305771 -0.582498 -0.2743 142 
0.306028 -0.582588 -0.273535 139 
0.306239 -0.582663 -0.272761 148 
0.306733 -0.582836 -0.272033 143 
0.30628 -0.582681 -0.271152 143 
0.305972 -0.582576 -0.270296 146 
0.306609 -0.582799 -0.269589 147 
0.306064 -0.582612 -0.268697 151 
0.306845 -0.582884 -0.26801 151 
0.3063 -0.582698 -0.267121 156 
0.306751 -0.582855 -0.266382 156 
0.306823 -0.582882 -0.265587 160 
0.306897 -0.582909 -0.264791 160 
0.306637 -0.582822 -0.263948 160 
0.30671 -0.582849 -0.263153 161 
0.306881 -0.58291 -0.262372 159 
0.307382 -0.583085 -0.261636 164 
0.307696 -0.583195 -0.260872 170 
0.307725 -0.583207 -0.26007 172 
0.307848 -0.583252 -0.25928 171 
0.307687 -0.583198 -0.258454 170 
0.308098 -0.583342 -0.257701 172 
0.307985 -0.583305 -0.256881 169 
0.308398 -0.58345 -0.256127 166 
0.30843 -0.583462 -0.255325 170 
0.309132 -0.583707 -0.254603 171 
0.308924 -0.583637 -0.253772 173 
0.309052 -0.583684 -0.252981 173 
0.309422 -0.583813 -0.252217 174 
0.309121 -0.583711 -0.251377 174 
0.309107 -0.583708 -0.25057 175 
0.309285 -0.583772 -0.249784 177 
0.309514 -0.583853 -0.249002 178 
0.309406 -0.583817 -0.248186 173 
0.309202 -0.583749 -0.24736 179 
0.309624 -0.583896 -0.246597 180 
0.30966 -0.583911 -0.245796 185 
0.309891 -0.583993 -0.245013 181 
0.310364 -0.584158 -0.244252 183 
0.310066 -0.584057 -0.243419 187 
0.310443 -0.584189 -0.242647 186 
0.310916 -0.584355 -0.241883 184 
0.311199 -0.584455 -0.241101 186 
0.310613 -0.584254 -0.240245 183 
0.311139 -0.584437 -0.239482 187 
0.311132 -0.584437 -0.238676 186 
0.31108 -0.584421 -0.237866 191 
0.311219 -0.584471 -0.23707 191 
0.311408 -0.584539 -0.236278 191 
0.31126 -0.584489 -0.235462 187 
0.311595 -0.584607 -0.234679 190 
0.311641 -0.584625 -0.233876 193 
0.311834 -0.584693 -0.233083 192 
0.311493 -0.584578 -0.232255 191 
0.311734 -0.584663 -0.231464 192 
0.312267 -0.584849 -0.23069 193 
0.31159 -0.584617 -0.229845 191 
0.311493 -0.584585 -0.229034 192 
0.311592 -0.584621 -0.228234 193 
0.311594 -0.584624 -0.227429 197 
0.312615 -0.584979 -0.226675 198 
0.312083 -0.584797 -0.225843 197 
0.312622 -0.584985 -0.225062 196 
0.31282 -0.585056 -0.224264 196 
0.312436 -0.584925 -0.223441 198 
0.313073 -0.585147 -0.222661 196 
0.313372 -0.585252 -0.221865 196 
0.312162 -0.584836 -0.221013 194 
0.312023 -0.58479 -0.220203 199 
0.312613 -0.584996 -0.219417 196 
0.311942 -0.584765 -0.218591 197 
0.311659 -0.58467 -0.217778 196 
0.311911 -0.584758 -0.216981 202 
0.312065 -0.584814 -0.21618 201 
0.311978 -0.584786 -0.215374 201 
0.311942 -0.584775 -0.214568 199 
0.311758 -0.584714 -0.213761 197 
0.311383 -0.584586 -0.21295 200 
0.311444 -0.584609 -0.212148 205 
0.311264 -0.584548 -0.211342 206 
0.311325 -0.584571 -0.21054 209 
0.311969 -0.584796 -0.209743 212 
0.3115 -0.584635 -0.208935 211 
0.31137 -0.584592 -0.208131 212 
0.312353 -0.584935 -0.207331 210 
0.311159 -0.584524 -0.206525 210 
0.311031 -0.584481 -0.205722 208 
0.312355 -0.584941 -0.204916 208 
0.311792 -0.584748 -0.204114 211 
0.311181 -0.584539 -0.203314 212 
0.311105 -0.584514 -0.202512 209 
0.310786 -0.584406 -0.201713 209 
0.310759 -0.584398 -0.200911 211 
0.311938 -0.584808 -0.200092 209 
0.310944 -0.584466 -0.199304 207 
0.310149 -0.584193 -0.198516 207 
0.310843 -0.584435 -0.197701 208 
0.308565 -0.583649 -0.196949 211 
0.308684 -0.583692 -0.196148 211 
0.308659 -0.583685 -0.195351 206 
0.308542 -0.583646 -0.194556 210 
0.306951 -0.583098 -0.193806 211 
0.306787 -0.583043 -0.193016 213 
0.306765 -0.583037 -0.192222 213 
0.306933 -0.583097 -0.19142 218 
0.306818 -0.583059 -0.190629 217 
0.306419 -0.582924 -0.18985 214 
0.305741 -0.58269 -0.189084 209 
0.304596 -0.582296 -0.188341 214 
0.305092 -0.58247 -0.187527 215 
0.304466 -0.582255 -0.186765 215 
0.304403 -0.582235 -0.185977 214 
0.303919 -0.582069 -0.185211 214 
0.303856 -0.582049 -0.184424 215 
0.303887 -0.582062 -0.183632 219 
0.303544 -0.581946 -0.182861 213 
0.303297 -0.581862 -0.182085 214 
0.30319 -0.581827 -0.181302 214 
0.303362 -0.581888 -0.180502 215 
0.3027 -0.58166 -0.179755 213 
0.302269 -0.581514 -0.178995 216 
0.302534 -0.581607 -0.178188 212 
0.301829 -0.581365 -0.17745 211 
0.30145 -0.581235 -0.17669 212 
0.301807 -0.581361 -0.175875 213 
0.303001 -0.581776 -0.174995 212 
0.301695 -0.581326 -0.174308 213 
0.301133 -0.581133 -0.173565 213 
0.301032 -0.5811 -0.172786 211 
0.300885 -0.581051 -0.172011 210 
0.300741 -0.581003 -0.171237 208 
0.300871 -0.58105 -0.170438 212 
0.300956 -0.581081 -0.169642 213 
0.300857 -0.581049 -0.168864 208 
0.300898 -0.581065 -0.168072 209 
0.300893 -0.581065 -0.167284 210 
0.301071 -0.581129 -0.166477 209 
0.301158 -0.581161 -0.165679 208 
0.302774 -0.581722 -0.164724 206 
0.302491 -0.581626 -0.16396 214 
0.302999 -0.581804 -0.163113 214 
0.302859 -0.581757 -0.162334 213 
0.302763 -0.581726 -0.161551 212 
0.302576 -0.581663 -0.160778 206 
0.302251 -0.581553 -0.160021 204 
0.301973 -0.581458 -0.15926 204 
0.302112 -0.581508 -0.15845 207 
0.302345 -0.58159 -0.157629 210 
0.302438 -0.581625 -0.156822 208 
0.302579 -0.581676 -0.15601 209 
0.30272 -0.581727 -0.155196 209 
0.302864 -0.581778 -0.154382 210 
0.303052 -0.581845 -0.15356 209 
0.302312 -0.581591 -0.152861 207 
0.302781 -0.581755 -0.152001 208 
0.302785 -0.581759 -0.151203 210 
0.302978 -0.581827 -0.150378 212 
0.302565 -0.581686 -0.149638 212 
0.302664 -0.581722 -0.148826 211 
0.302949 -0.581823 -0.147986 213 
0.303003 -0.581843 -0.147178 210 
0.302965 -0.581832 -0.146384 210 
0.302693 -0.58174 -0.145624 209 
0.303028 -0.581858 -0.144773 211 
0.303129 -0.581895 -0.143956 210 
0.30314 -0.5819 -0.143153 210 
0.303149 -0.581906 -0.142349 211 
0.303347 -0.581976 -0.141515 212 
0.303452 -0.582014 -0.140695 213 
0.303463 -0.58202 -0.139889 212 
0.303898 -0.582172 -0.139013 214 
0.303816 -0.582146 -0.138221 213 
0.304345 -0.582331 -0.137325 208 
0.303328 -0.581981 -0.136693 208 
0.303905 -0.582182 -0.135787 210 
0.303685 -0.582108 -0.135019 210 
0.30398 -0.582213 -0.134159 207 
0.303528 -0.582057 -0.133433 207 
0.303966 -0.582211 -0.132545 206 
0.304123 -0.582268 -0.131708 206 
0.304094 -0.582259 -0.130903 206 
0.30397 -0.582218 -0.130117 200 
0.3038 -0.582162 -0.129339 202 
0.304053 -0.582251 -0.12848 204 
0.304637 -0.582456 -0.127555 205 
0.304515 -0.582415 -0.126766 204 
0.305575 -0.582785 -0.125743 203 
0.306309 -0.583041 -0.12478 209 
0.30614 -0.582984 -0.123997 202 
0.305593 -0.582796 -0.123291 202 
0.306185 -0.583003 -0.122352 205 
0.306064 -0.582964 -0.121558 203 
0.306278 -0.58304 -0.120694 203 
0.306636 -0.583166 -0.119798 205 
0.306756 -0.583209 -0.118951 204 
0.306686 -0.583187 -0.118145 203 
0.30676 -0.583214 -0.117307 202 
0.306976 -0.583291 -0.116436 202 
0.306955 -0.583286 -0.115617 205 
0.307077 -0.58333 -0.114765 206 
0.30744 -0.583458 -0.113858 207 
0.307132 -0.583353 -0.113102 206 
0.307258 -0.583399 -0.112247 202 
0.307334 -0.583427 -0.111402 203 
0.307411 -0.583456 -0.110557 200 
0.307537 -0.583502 -0.109699 198 
0.307231 -0.583398 -0.108943 194 
0.30731 -0.583427 -0.108095 193 
0.307389 -0.583456 -0.107246 195 
0.307566 -0.583519 -0.106372 198 
0.308031 -0.583683 -0.105426 200 
0.308596 -0.58388 -0.104453 200 
0.309065 -0.584045 -0.1035 197 
0.308614 -0.583891 -0.102778 198 
0.309085 -0.584056 -0.101822 198 
0.309752 -0.584289 -0.100814 196 
0.308719 -0.583933 -0.100242 197 
0.30924 -0.584116 -0.0992678 195 
0.309034 -0.584046 -0.0984828 197 
0.309217 -0.584112 -0.0975948 200 
0.31018 -0.584448 -0.0964968 199 
0.309682 -0.584277 -0.0957888 197 
0.308894 -0.584005 -0.0951598 196 
0.309029 -0.584054 -0.0942818 198 
0.310239 -0.584476 -0.0931058 197 
0.310133 -0.584441 -0.0922898 198 
0.309732 -0.584305 -0.0915558 195 
0.309042 -0.584067 -0.0909038 195 
0.309961 -0.584388 -0.0897988 196 
0.309662 -0.584286 -0.0890368 192 
0.309509 -0.584235 -0.0882338 194 
0.309112 -0.584099 -0.0875008 197 
0.31018 -0.584472 -0.0863408 195 
0.309148 -0.584116 -0.0857938 201 
0.308753 -0.583981 -0.0850618 197 
0.308457 -0.58388 -0.0843018 193 
0.308598 -0.583931 -0.0834108 186 
0.308302 -0.583831 -0.0826498 194 
0.308347 -0.583848 -0.0817868 193 
0.308003 -0.583731 -0.0810418 195 
0.307662 -0.583615 -0.0802968 190 
0.3079 -0.5837 -0.0793718 194 
0.307898 -0.583701 -0.0785208 193 
0.307267 -0.583484 -0.0778678 192 
0.307653 -0.58362 -0.0768938 188 
0.307312 -0.583504 -0.0761488 188 
0.306488 -0.58322 -0.0755608 188 
0.306439 -0.583205 -0.0747248 184 
0.306295 -0.583157 -0.0739188 184 
0.306439 -0.583209 -0.0730188 185 
0.306102 -0.583094 -0.0722758 188 
0.306102 -0.583097 -0.0714208 192 
0.30591 -0.583032 -0.0706308 190 
0.305864 -0.583018 -0.0697908 188 
0.304664 -0.582604 -0.0693418 187 
0.304473 -0.58254 -0.0685518 191 
0.304619 -0.582593 -0.0676478 192 
0.303616 -0.582247 -0.0671378 192 
0.303095 -0.582068 -0.0664648 194 
0.302716 -0.581939 -0.0657428 198 
0.302529 -0.581876 -0.0649558 197 
0.301017 -0.581353 -0.0646348 197 
0.300831 -0.581291 -0.0638498 191 
0.300646 -0.581229 -0.0630648 193 
0.300557 -0.5812 -0.0622448 186 
0.300231 -0.581089 -0.0615098 190 
0.300141 -0.58106 -0.0606898 189 
0.299534 -0.580851 -0.0600588 181 
0.298649 -0.580546 -0.0595318 182 
0.298422 -0.580469 -0.0587648 181 
0.297913 -0.580295 -0.0581018 177 
0.297453 -0.580137 -0.0574228 177 
0.297179 -0.580045 -0.0566738 173 
0.297045 -0.58 -0.0558738 170 
0.297237 -0.580069 -0.0549488 163 
0.297291 -0.580089 -0.0540758 163 
0.29739 -0.580126 -0.0531838 166 
0.297026 -0.580001 -0.0524708 167 
0.297311 -0.580103 -0.0515048 157 
0.296714 -0.579898 -0.0508818 161 
0.296582 -0.579854 -0.0500778 161 
0.296405 -0.579794 -0.0492918 154 
0.296645 -0.57988 -0.0483398 151 
0.297026 -0.580014 -0.0473298 152 
0.297735 -0.580262 -0.0461858 149 
0.297511 -0.580186 -0.0454148 154 
0.296636 -0.579885 -0.0449088 161 
0.296878 -0.579971 -0.0439488 162 
0.296889 -0.579976 -0.0430818 151 
0.296759 -0.579934 -0.0422728 151 
0.29761 -0.580231 -0.0410558 143 
0.297904 -0.580335 -0.0400678 140 
0.298526 -0.580553 -0.0389388 136 
0.298303 -0.580478 -0.0381628 142 
0.298882 -0.58068 -0.0370478 137 
0.29847 -0.58054 -0.0363508 136 
0.298671 -0.580612 -0.0353928 131 
0.298921 -0.580701 -0.0344118 130 
0.299172 -0.58079 -0.0334288 140 
0.298997 -0.580731 -0.0326278 142 
0.298398 -0.580525 -0.0320128 134 
0.29917 -0.580795 -0.0307988 132 
0.299565 -0.580934 -0.0297458 129 
0.29901 -0.580744 -0.0291108 138 
0.299264 -0.580834 -0.0281178 133 
0.299423 -0.580891 -0.0271648 138 
0.299677 -0.580982 -0.0261678 138 
0.299884 -0.581056 -0.0251898 147 
0.300045 -0.581114 -0.0242318 140 
0.30011 -0.581138 -0.0233148 141 
0.300177 -0.581163 -0.0223968 132 
0.300482 -0.581272 -0.0213668 123 
0.300597 -0.581314 -0.0204238 121 
0.300472 -0.581273 -0.0195898 128 
0.300301 -0.581215 -0.0187778 123 
0.300608 -0.581324 -0.0177408 114 
0.300916 -0.581433 -0.0167018 114 
0.300745 -0.581376 -0.0158868 114 
0.301102 -0.581502 -0.0148198 122 
0.301028 -0.581478 -0.0139578 121 
0.313401 -0.588458 -0.415109 5 
0.314023 -0.58868 -0.41449 3 
0.307853 -0.5865 -0.41047 5 
0.311076 -0.587642 -0.411158 6 
0.311033 -0.587629 -0.410212 4 
0.307877 -0.586516 -0.407732 4 
0.307588 -0.586416 -0.406675 5 
0.305324 -0.585617 -0.404654 5 
0.303573 -0.585 -0.402894 4 
0.303876 -0.58511 -0.402139 5 
0.306736 -0.586123 -0.402616 4 
0.300949 -0.584078 -0.398929 4 
0.300723 -0.584 -0.397927 4 
0.298496 -0.583215 -0.395975 4 
0.300415 -0.583896 -0.395996 9 
0.300236 -0.583835 -0.395022 6 
0.299583 -0.583606 -0.393827 8 
0.304026 -0.58518 -0.395014 7 
0.297296 -0.582801 -0.390991 8 
0.297594 -0.582909 -0.390249 10 
0.298553 -0.58325 -0.389811 12 
0.302101 -0.584507 -0.390555 8 
0.300678 -0.584006 -0.389018 12 
0.301748 -0.584386 -0.388619 11 
0.299378 -0.58355 -0.386664 11 
0.300346 -0.583895 -0.386219 10 
0.298844 -0.583366 -0.384667 11 
0.299336 -0.583542 -0.384009 10 
0.299874 -0.583735 -0.383371 13 
0.30013 -0.583827 -0.382606 10 
0.300148 -0.583836 -0.381737 13 
0.300072 -0.583811 -0.380827 15 
0.300756 -0.584055 -0.380249 15 
0.300063 -0.583812 -0.379073 13 
0.302085 -0.584529 -0.379068 14 
0.301387 -0.584284 -0.377893 13 
0.303277 -0.584955 -0.377822 13 
0.300712 -0.58405 -0.375858 15 
0.3004 -0.583941 -0.374855 14 
0.302951 -0.584846 -0.375053 18 
0.302061 -0.584533 -0.373807 19 
0.302034 -0.584526 -0.372923 20 
0.301818 -0.584451 -0.371962 21 
0.3027 -0.584765 -0.371453 19 
0.301766 -0.584437 -0.370201 21 
0.302887 -0.584836 -0.369787 25 
0.302958 -0.584863 -0.368945 24 
0.30298 -0.584873 -0.368084 21 
0.303243 -0.584968 -0.36732 24 
0.303315 -0.584995 -0.36648 24 
0.303194 -0.584955 -0.365564 23 
0.302978 -0.58488 -0.364612 25 
0.304154 -0.585299 -0.364206 24 
0.302884 -0.584851 -0.362843 27 
0.303338 -0.585014 -0.362155 31 
0.303172 -0.584957 -0.361227 32 
0.302958 -0.584884 -0.360281 35 
0.303847 -0.5852 -0.359757 32 
0.303872 -0.585211 -0.358903 31 
0.303755 -0.585172 -0.357996 35 
0.304453 -0.585421 -0.357395 35 
0.303234 -0.584992 -0.356079 36 
0.303548 -0.585105 -0.355336 37 
0.303528 -0.5851 -0.354469 33 
0.304082 -0.585298 -0.353814 38 
0.304446 -0.585429 -0.353087 34 
0.303899 -0.585238 -0.35203 34 
0.304215 -0.585351 -0.351287 36 
0.304917 -0.585602 -0.35068 39 
0.304417 -0.585427 -0.349645 37 
0.304688 -0.585525 -0.348884 35 
