0.43892,-0.0336094,-0.0251698,185
0.439322,-0.0336925,-0.0243875,188
0.439524,-0.0337352,-0.023593,191
0.439676,-0.0337679,-0.0227953,195
0.439578,-0.0337499,-0.0219845,195
0.439681,-0.0337726,-0.021184,196
0.441148,-0.034071,-0.0204464,191
0.441456,-0.0341351,-0.0196518,196
0.441562,-0.0341584,-0.0188476,191
0.441668,-0.0341818,-0.0180431,192
0.441877,-0.0342259,-0.0172422,193
0.442036,-0.0342598,-0.0164388,198
0.44245,-0.0343454,-0.0156439,196
0.442661,-0.0343899,-0.0148407,195
0.442516,-0.0343625,-0.0140257,192
0.44278,-0.0344176,-0.0132233,192
0.443402,-0.0345453,-0.0124298,189
0.443412,-0.0345492,-0.0116183,189
0.444345,-0.0347398,-0.0108288,195
0.44451,-0.034775,-0.010019,192
0.444727,-0.0348209,-0.00920973,191
0.445255,-0.0349294,-0.00840523,194
0.445681,-0.0350175,-0.00759715,193
0.44554,-0.0349907,-0.00677943,194
0.44576,-0.0350372,-0.00596674,193
0.44702,-0.0352939,-0.00516409,189
0.4474,-0.0353726,-0.00434917,190
0.447677,-0.0354304,-0.00353215,195
0.447641,-0.0354251,-0.0027126,195
0.447815,-0.0354622,-0.0018938,203
0.448146,-0.0355311,-0.0010745,203
0.44806,-0.0355155,-0.000254309,202
0.448236,-0.035553,0.000566288,201
0.448413,-0.0355907,0.00138757,201
0.449483,-0.0358091,0.00221538,202
0.44814,-0.0355393,0.0030269,198
0.448057,-0.0355244,0.00384639,198
0.448132,-0.0355413,0.00466752,198
0.448102,-0.0355373,0.0054875,194
0.44776,-0.0354699,0.00630241,196
0.448045,-0.0355295,0.00712729,193
0.448122,-0.0355469,0.00794919,198
0.447886,-0.035501,0.00876465,203
0.447859,-0.0354976,0.00958422,203
0.447729,-0.0354731,0.0104011,204
0.447547,-0.0354382,0.0112162,204
0.447523,-0.0354351,0.0120352,200
0.447499,-0.0354322,0.0128543,200
0.447423,-0.0354188,0.0136716,201
0.447244,-0.0353845,0.0144852,200
0.447222,-0.0353819,0.0153039,203
0.447253,-0.03539,0.0161247,203
0.44718,-0.0353771,0.0169415,203
0.447264,-0.035396,0.0177648,207
0.447244,-0.0353939,0.0185839,211
0.447069,-0.0353603,0.0193959,212
0.446686,-0.0352847,0.0201973,209
0.446564,-0.035262,0.0210105,206
0.446599,-0.0352709,0.0218315,209
0.446686,-0.0352904,0.0226556,210
0.445737,-0.0351001,0.0234224,209
0.44624,-0.0352038,0.0242693,206
0.446744,-0.0353078,0.0251185,209
0.445692,-0.0350968,0.0258742,210
0.445782,-0.0351169,0.0266983,212
0.445097,-0.0349801,0.0274724,211
0.445291,-0.0350212,0.0283031,211
0.446523,-0.0352725,0.0292061,210
0.445682,-0.0351041,0.0299672,210
0.444072,-0.0347801,0.0306694,207
0.443651,-0.0346968,0.0314544,206
0.443539,-0.034676,0.0322617,209
0.444455,-0.0348633,0.0331493,208
0.443368,-0.0346452,0.0338797,207
0.443053,-0.0345833,0.0346697,209
0.442944,-0.034563,0.0354759,208
0.442579,-0.0344911,0.0362601,205
0.442471,-0.0344711,0.0370656,204
0.442721,-0.0345235,0.037903,202
0.441493,-0.0342768,0.0386062,206
0.441336,-0.0342469,0.0394051,203
0.440471,-0.0340735,0.0401361,205
0.440164,-0.0340133,0.0409184,206
0.440414,-0.0340658,0.041755,207
0.440159,-0.034016,0.0425417,209
0.439955,-0.0339766,0.0433331,210
0.439904,-0.0339681,0.0441398,207
0.439954,-0.03398,0.0449575,209
0.4396,-0.0339104,0.0457318,209
0.439853,-0.0339634,0.0465721,212
0.440006,-0.0339962,0.0474024,208
0.439805,-0.0339575,0.0481931,207
0.439505,-0.0338985,0.0489717,204
0.439609,-0.0339214,0.0497972,203
0.438605,-0.0337201,0.0504903,205
0.439263,-0.0338551,0.0513828,206
0.438764,-0.0337559,0.0521346,205
0.43897,-0.0337995,0.0529736,204
0.438724,-0.0337516,0.0537559,200
0.438629,-0.0337343,0.0545573,200
0.439492,-0.0339108,0.0554846,202
0.43965,-0.0339448,0.0563215,203
0.438751,-0.0337645,0.057016,200
0.439262,-0.03387,0.0579013,198
0.439372,-0.0338941,0.0587329,198
0.439028,-0.0338264,0.0595012,198
0.439391,-0.0339018,0.0603697,202
0.439705,-0.0339672,0.0612327,201
0.439766,-0.0339815,0.0620603,199
0.439778,-0.0339857,0.0628811,201
0.439234,-0.0338775,0.0636185,205
0.439752,-0.0339843,0.0645164,195
0.440018,-0.0340401,0.0653777,200
0.440235,-0.0340859,0.0662326,203
0.440554,-0.0341524,0.067105,202
0.440518,-0.0341471,0.067922,203
0.440381,-0.0341212,0.068723,199
0.440702,-0.0341882,0.069599,195
0.440617,-0.0341728,0.0704091,194
0.440787,-0.0342091,0.0712622,194
0.440703,-0.034194,0.0720732,194
0.440874,-0.0342306,0.0729281,195
0.441556,-0.0343707,0.0738731,194
0.441422,-0.0343455,0.0746776,194
0.442827,-0.0346321,0.0757555,192
0.442539,-0.0345757,0.0765352,196
0.442458,-0.0345611,0.0773516,194
0.442018,-0.0344739,0.0781024,192
0.441682,-0.0344076,0.078871,192
0.442783,-0.0346327,0.0799084,187
0.442961,-0.0346707,0.0807756,197
0.443243,-0.0347298,0.0816639,194
0.442752,-0.0346323,0.0824044,196
0.442983,-0.0346811,0.0832844,198
0.443216,-0.0347301,0.0841659,194
0.443811,-0.0348527,0.0851212,196
0.444097,-0.0349127,0.0860171,195
0.445113,-0.0351205,0.0870627,196
0.445873,-0.0352765,0.0880603,193
0.445014,-0.0351044,0.0887264,195
0.445044,-0.0351124,0.0895753,192
0.445596,-0.0352263,0.0905349,188
0.446571,-0.0354257,0.0915871,191
0.446708,-0.0354555,0.0924637,196
0.447108,-0.0355387,0.0933985,196
0.447036,-0.035526,0.094232,197
0.447386,-0.0355989,0.0951589,197
0.447737,-0.0356721,0.096088,196
0.447825,-0.0356918,0.0969598,194
0.44839,-0.0358084,0.0979407,189
0.44832,-0.0357962,0.0987792,184
0.448569,-0.0358487,0.0996915,185
0.449086,-0.0359553,0.100667,191
0.449177,-0.0359758,0.101546,189
0.449429,-0.0360289,0.102464,195
0.450003,-0.0361472,0.10346,191
0.450955,-0.0363423,0.10455,187
0.451049,-0.0363635,0.105436,189
0.451145,-0.0363848,0.106324,187
0.451294,-0.0364172,0.107226,183
0.451122,-0.0363841,0.108049,178
0.451111,-0.036384,0.108912,181
0.45164,-0.0364933,0.109912,180
0.452117,-0.0365921,0.110902,178
0.452217,-0.0366142,0.111797,178
0.452425,-0.0366585,0.112722,180
0.452471,-0.0366699,0.113606,181
0.453062,-0.0367917,0.114633,180
0.45262,-0.0367041,0.115391,179
0.452777,-0.0367379,0.116306,178
0.452717,-0.0367277,0.117165,177
0.452603,-0.0367066,0.11801,179
0.452924,-0.0367739,0.118973,180
0.452757,-0.0367419,0.119804,178
0.45259,-0.03671,0.120636,181
0.452859,-0.0367666,0.121588,181
0.45291,-0.0367791,0.122482,181
0.452636,-0.0367254,0.123284,175
0.452797,-0.0367603,0.12421,174
0.452851,-0.0367731,0.125106,177
0.452686,-0.0367418,0.12594,178
0.452359,-0.0366774,0.126727,176
0.452141,-0.0366353,0.127546,181
0.452196,-0.0366485,0.128444,183
0.451871,-0.0365845,0.129231,188
0.451601,-0.0365317,0.130033,189
0.451711,-0.0365561,0.13095,188
0.451659,-0.0365476,0.131818,184
0.450794,-0.036374,0.13244,180
0.449717,-0.0361574,0.132994,176
0.449128,-0.0360399,0.133695,181
0.449185,-0.0360535,0.134594,180
0.448705,-0.0359582,0.135327,181
0.44812,-0.0358413,0.136026,183
0.448446,-0.0359096,0.13701,184
0.446474,-0.0355115,0.137267,192
0.446958,-0.0356117,0.138302,183
0.446538,-0.0355284,0.139048,185
0.446384,-0.0354992,0.139879,183
0.445753,-0.035373,0.140555,181
0.44507,-0.0352365,0.141213,175
0.444601,-0.0351433,0.141939,178
0.444344,-0.0350931,0.142734,181
0.443824,-0.0349896,0.143441,186
0.443674,-0.0349611,0.144271,187
0.443366,-0.0349007,0.145047,183
0.443164,-0.0348617,0.14586,182
0.44202,-0.0346314,0.146349,182
0.441298,-0.0344868,0.14698,181
0.44089,-0.034406,0.147718,178
0.440691,-0.0343676,0.148528,179
0.440596,-0.0343504,0.149374,179
0.440346,-0.0343016,0.150165,179
0.439837,-0.0342003,0.150865,172
0.438298,-0.0338897,0.151196,174
0.438205,-0.0338728,0.15204,170
0.437906,-0.0338143,0.15281,165
0.437609,-0.0337559,0.153581,165
0.436851,-0.0336039,0.154182,162
0.43722,-0.033681,0.155195,160
0.436924,-0.0336229,0.155965,161
0.436067,-0.0334507,0.156527,165
0.435365,-0.0333102,0.157143,172
0.435224,-0.0332836,0.157968,160
0.434728,-0.0331849,0.158659,159
0.435045,-0.0332514,0.159657,155
0.434804,-0.0332044,0.160444,157
0.434664,-0.0331781,0.16127,156
0.434627,-0.0331725,0.162136,151
0.434539,-0.0331566,0.162983,142
0.43435,-0.0331203,0.163791,140
0.434313,-0.0331149,0.164658,139
0.434125,-0.0330786,0.165467,141
0.433532,-0.0329601,0.166115,140
0.433749,-0.0330063,0.167084,137
0.433917,-0.0330424,0.168035,133
0.433831,-0.033027,0.168886,131
0.434,-0.0330633,0.169839,125
0.434372,-0.033141,0.170878,126
0.435001,-0.0332709,0.172023,121
0.434814,-0.033235,0.172837,124
0.434424,-0.0331578,0.173567,122
0.434544,-0.0331842,0.174508,115
0.434716,-0.0332211,0.175472,109
0.434735,-0.033227,0.176373,108
0.434805,-0.0332434,0.177297,108
0.435337,-0.0333535,0.178418,109
0.435613,-0.0334118,0.179433,109
0.435429,-0.0333763,0.180253,111
0.436015,-0.0334976,0.181404,109
0.435625,-0.0334204,0.182137,114
0.435081,-0.033312,0.182803,113
0.434795,-0.0332559,0.183579,116
0.436413,-0.0335868,0.185189,112
0.436281,-0.033562,0.186037,113
0.436356,-0.0335794,0.186976,113
0.436276,-0.0335652,0.187848,120
0.435268,-0.0333625,0.188307,115
0.435756,-0.0334637,0.189433,112
0.435987,-0.0335128,0.190446,110
0.435909,-0.0334989,0.191321,115
0.435418,-0.0334012,0.192009,112
0.436529,-0.0336292,0.193427,104
0.435934,-0.0335103,0.194068,115
0.43705,-0.0337393,0.195497,121
0.4341,-0.0356826,-0.206013,7
0.435241,-0.0359237,-0.205649,7
0.433809,-0.0356261,-0.204042,6
0.434435,-0.0357591,-0.203428,5
0.433726,-0.0356128,-0.202176,8
0.43502,-0.0358858,-0.201879,6
0.435494,-0.0359871,-0.20119,8
0.43345,-0.0355614,-0.199314,5
0.432697,-0.0354057,-0.198053,6
0.432759,-0.0354209,-0.197176,10
0.432364,-0.0353403,-0.196088,7
0.433446,-0.0355688,-0.195685,8
0.437111,-0.0363383,-0.196468,7
0.435829,-0.0360721,-0.19497,8
0.433127,-0.0355083,-0.192829,7
0.434775,-0.0358554,-0.192676,12
0.435044,-0.035914,-0.191894,8
0.434494,-0.0358009,-0.190743,9
0.437496,-0.0364315,-0.191186,6
0.435239,-0.0359611,-0.189274,11
0.434179,-0.0357412,-0.187902,10
0.436813,-0.0362947,-0.188166,14
0.436879,-0.0363106,-0.187292,12
0.436635,-0.0362618,-0.186284,13
0.436651,-0.036267,-0.18539,14
0.437131,-0.0363696,-0.184698,13
0.436837,-0.0363101,-0.183671,12
0.438302,-0.036619,-0.1834,10
0.437179,-0.0363859,-0.18202,12
0.43849,-0.0366626,-0.181679,13
0.437522,-0.036462,-0.180371,12
0.438108,-0.0365869,-0.179721,12
0.438541,-0.0366795,-0.179004,13
0.438818,-0.0367396,-0.178222,12
0.436769,-0.0363124,-0.176477,12
0.437766,-0.0365235,-0.175996,14
0.438717,-0.0367246,-0.175492,11
0.436107,-0.03618,-0.173534,13
0.43803,-0.0365849,-0.173426,15
0.437998,-0.0365802,-0.172522,17
0.436219,-0.0362095,-0.170917,15
0.436803,-0.036334,-0.170264,21
0.437081,-0.0363942,-0.169488,17
0.437256,-0.036433,-0.168671,27
0.437535,-0.0364934,-0.167895,20
0.434747,-0.0359112,-0.165919,21
0.436297,-0.0362381,-0.165643,18
0.435758,-0.0361273,-0.164554,16
0.435527,-0.0360808,-0.163585,23
0.436877,-0.0363658,-0.163224,22
0.437157,-0.0364265,-0.16245,24
0.435853,-0.0361551,-0.161076,26
0.43654,-0.0363012,-0.160458,23
0.437178,-0.036437,-0.15982,25
0.436181,-0.0362301,-0.158571,28
0.43636,-0.0362695,-0.157762,25
0.436385,-0.0362769,-0.156897,30
0.435192,-0.0360287,-0.155585,33
0.436438,-0.0362919,-0.155168,33
0.436413,-0.0362888,-0.154287,36
0.435678,-0.0361367,-0.15315,34
0.43601,-0.0362083,-0.1524,32
0.435176,-0.0360355,-0.151233,29
0.43566,-0.036139,-0.150537,34
0.435689,-0.0361469,-0.14968,38
0.43506,-0.0360171,-0.148593,38
0.434988,-0.0360041,-0.147704,36
0.436487,-0.0363203,-0.147358,38
0.435806,-0.0361796,-0.146258,37
0.435079,-0.036029,-0.145145,36
0.435008,-0.0360163,-0.144259,37
0.435241,-0.0360671,-0.143477,36
0.435121,-0.0360439,-0.142576,39
0.435002,-0.0360209,-0.141676,38
0.434632,-0.0359452,-0.140694,38
0.434664,-0.035954,-0.139848,45
0.434496,-0.0359208,-0.138936,43
0.43448,-0.0359192,-0.138074,44
0.434513,-0.0359283,-0.13723,47
0.434297,-0.0358848,-0.136306,51
0.43388,-0.0357995,-0.135319,50
0.434316,-0.0358928,-0.134606,54
0.434301,-0.0358917,-0.133749,56
0.434387,-0.0359116,-0.132924,58
0.434223,-0.0358791,-0.132022,61
0.434059,-0.0358468,-0.131121,61
0.434346,-0.0359089,-0.130361,59
0.434433,-0.0359292,-0.129538,63
0.434371,-0.035918,-0.128671,65
0.43491,-0.036033,-0.127986,69
0.434697,-0.0359904,-0.127074,69
0.434586,-0.035969,-0.126194,72
0.434625,-0.0359792,-0.125359,76
0.434215,-0.035895,-0.124393,70
0.434155,-0.0358844,-0.123532,65
0.433846,-0.0358216,-0.122599,62
0.432992,-0.0356444,-0.121511,62
0.43234,-0.0355095,-0.120485,62
0.431248,-0.0352823,-0.119337,71
0.429771,-0.0349745,-0.118086,69
0.429619,-0.0349444,-0.117212,68
0.428689,-0.0347512,-0.116123,75
0.428296,-0.0346707,-0.115186,79
0.427277,-0.0344589,-0.114081,79
0.426696,-0.0343388,-0.113098,78
0.426885,-0.0343803,-0.112327,79
0.426786,-0.0343614,-0.111478,81
0.426927,-0.034393,-0.110694,78
0.426925,-0.0343944,-0.109872,80
0.427211,-0.0344564,-0.109126,80
0.427354,-0.0344883,-0.108342,85
0.426585,-0.0343287,-0.107323,87
0.426968,-0.034411,-0.106603,96
0.427592,-0.034544,-0.105943,95
0.427689,-0.0345661,-0.105148,96
0.428075,-0.0346489,-0.104425,96
0.427979,-0.0346307,-0.103583,109
0.428125,-0.0346632,-0.1028,109
0.428223,-0.0346857,-0.102006,109
0.428804,-0.0348096,-0.101329,105
0.429436,-0.0349441,-0.100662,102
0.42939,-0.0349364,-0.0998319,105
0.429587,-0.0349796,-0.0990599,110
0.429397,-0.0349416,-0.0981969,110
0.429498,-0.0349646,-0.0974028,112
0.429793,-0.0350285,-0.0966536,106
0.430429,-0.035164,-0.0959817,102
0.430775,-0.0352385,-0.0952421,108
0.430489,-0.0351802,-0.0943596,118
0.430641,-0.035214,-0.0935763,126
0.431183,-0.0353298,-0.092879,130
0.431044,-0.0353024,-0.0920311,127
0.431246,-0.0353467,-0.0912582,127
0.431205,-0.03534,-0.0904327,123
0.431701,-0.0354461,-0.0897223,124
0.432199,-0.0355525,-0.0890108,126
0.432306,-0.0355769,-0.0882161,127
0.432512,-0.0356219,-0.0874418,130
0.43262,-0.0356464,-0.0866472,134
0.432385,-0.035599,-0.0857831,124
0.433476,-0.0358301,-0.0851871,123
0.433438,-0.0358239,-0.0843623,121
0.433548,-0.0358489,-0.0835673,130
0.433955,-0.0359362,-0.0828303,128
0.434214,-0.0359925,-0.0820636,125
0.434375,-0.0360282,-0.0812777,126
0.434537,-0.0360641,-0.0804916,131
0.434847,-0.0361312,-0.0797333,130
0.434664,-0.0360945,-0.0788824,135
0.435621,-0.0362973,-0.0782422,137
0.435189,-0.0362086,-0.0773464,144
0.435751,-0.0363285,-0.0766313,141
0.435717,-0.0363233,-0.0758085,142
0.435685,-0.0363183,-0.0749863,138
0.4359,-0.0363656,-0.074208,144
0.436167,-0.0364234,-0.073438,142
0.436235,-0.0364396,-0.0726336,142
0.436802,-0.0365605,-0.0719132,144
0.436372,-0.0364722,-0.0710253,155
0.436741,-0.0365515,-0.0702707,152
0.436661,-0.0365367,-0.0694422,150
0.437081,-0.0366267,-0.0686946,149
0.436504,-0.0365074,-0.0677875,150
0.436775,-0.0365662,-0.067016,149
0.436747,-0.0365622,-0.0661976,152
0.437369,-0.0366947,-0.0654789,146
0.437843,-0.0367961,-0.0647358,153
0.437866,-0.036803,-0.0639243,154
0.43764,-0.0367574,-0.0630762,152
0.437615,-0.036754,-0.0622585,155
0.437841,-0.0368032,-0.0614771,154
0.437666,-0.0367685,-0.0606387,158
0.437793,-0.0367969,-0.0598433,164
0.438371,-0.0369203,-0.0591098,168
0.438148,-0.0368753,-0.0582657,166
0.438026,-0.0368515,-0.0574363,171
0.438204,-0.0368909,-0.0566474,172
0.437833,-0.0368147,-0.0557866,169
0.437663,-0.0367808,-0.0549533,172
0.437893,-0.036831,-0.0541714,170
0.438174,-0.0368919,-0.0533953,173
0.438405,-0.0369425,-0.0526124,172
0.438889,-0.037046,-0.0518591,173
0.439424,-0.0371603,-0.0511105,175
0.438904,-0.0370529,-0.050237,179
0.439088,-0.0370934,-0.0494466,181
0.439273,-0.0371342,-0.0486558,181
0.438354,-0.0369428,-0.0477422,177
0.438589,-0.0369942,-0.0469582,179
0.438124,-0.0368983,-0.0460985,180
0.437561,-0.0367818,-0.0452305,179
0.437099,-0.0366866,-0.0443754,175
0.436639,-0.0365918,-0.0435225,171
0.436131,-0.0364869,-0.0426668,176
0.435774,-0.0364135,-0.0418279,179
0.434482,-0.0361438,-0.0409012,177
0.434668,-0.0361848,-0.0401183,177
0.434904,-0.0362363,-0.0393394,172
0.434502,-0.0361536,-0.0385025,173
0.43469,-0.036195,-0.0377192,172
0.434584,-0.0361745,-0.0369101,175
0.434724,-0.0362057,-0.0361224,171
0.434619,-0.0361855,-0.0353141,172
0.435252,-0.0363205,-0.0345658,177
0.435345,-0.0363418,-0.0337729,181
0.435388,-0.0363529,-0.032976,182
0.435729,-0.0364264,-0.0322013,179
0.435626,-0.0364065,-0.0313932,180
0.435524,-0.0363869,-0.0305857,177
0.435718,-0.0364295,-0.0297993,181
0.436061,-0.0365036,-0.0290222,183
0.43596,-0.0364842,-0.0282151,179
0.436107,-0.0365169,-0.0274241,181
0.436452,-0.0365914,-0.026645,181
0.437395,-0.0367915,-0.0259003,182
0.437594,-0.0368352,-0.0251093,178
0.437943,-0.0369105,-0.024326,181
0.438194,-0.0369651,-0.0235363,181
0.438545,-0.0370409,-0.0227509,183
0.438748,-0.0370853,-0.0219569,187
0.438451,-0.0370246,-0.0211381,186
0.438654,-0.0370692,-0.0203437,191
0.438858,-0.037114,-0.0195487,193
0.439163,-0.0371801,-0.0187574,198
0.439419,-0.0372358,-0.017963,198
0.439575,-0.0372705,-0.0171638,194
0.440791,-0.037528,-0.0164033,191
0.44105,-0.0375845,-0.0156048,190
0.441159,-0.0376092,-0.0148003,188
0.441572,-0.037698,-0.0140051,188
0.441632,-0.0377124,-0.0131979,188
0.442403,-0.0378765,-0.0124102,188
0.443024,-0.0380091,-0.0116157,191
0.4437,-0.038153,-0.0108203,191
0.443403,-0.0380926,-0.0100011,185
0.44403,-0.0382262,-0.00920155,185
0.44435,-0.0382954,-0.00839411,190
0.444465,-0.0383216,-0.0075822,188
0.444839,-0.0384021,-0.00677356,189
0.44542,-0.0385262,-0.0059661,189
0.445641,-0.0385747,-0.00515271,195
0.446277,-0.0387105,-0.00434205,199
0.446916,-0.0388468,-0.00352902,201
0.447141,-0.0388959,-0.0027116,198
0.44721,-0.0389124,-0.00189289,201
0.447384,-0.0389509,-0.00107402,201
0.447507,-0.0389786,-0.00025454,204
0.447526,-0.0389845,0.000565129,199
0.447493,-0.0389795,0.00138464,201
0.447565,-0.0389966,0.00220474,199
0.447691,-0.0390249,0.00302558,199
0.447608,-0.0390093,0.00384477,195
0.447369,-0.038961,0.00466178,194
0.447548,-0.0390006,0.00548382,194
0.44846,-0.0391944,0.00631831,192
0.448904,-0.0392896,0.00714791,190
0.448142,-0.0391313,0.00795539,191
0.44822,-0.0391495,0.00877824,194
0.44898,-0.0393113,0.00961753,198
0.448691,-0.0392526,0.0104331,201
0.448352,-0.039183,0.0112462,201
0.447127,-0.0389269,0.0120322,201
0.446843,-0.038869,0.0128429,204
0.446767,-0.0388551,0.0136596,202
0.446849,-0.0388741,0.0144815,204
0.446826,-0.0388713,0.0153001,203
0.446857,-0.0388796,0.0161206,205
0.446732,-0.0388553,0.0169351,208
0.446452,-0.0387982,0.0177427,205
0.445707,-0.0386432,0.0185286,204
0.446517,-0.0388157,0.0193838,207
0.446395,-0.0387919,0.0201973,211
0.445704,-0.0386482,0.020982,213
0.445222,-0.0385485,0.021775,212
0.445412,-0.0385904,0.0226026,209
0.444622,-0.038426,0.0233764,208
0.445484,-0.0386093,0.0242425,210
0.44609,-0.0387389,0.0250969,211
0.44592,-0.0387051,0.025906,211
0.444358,-0.038378,0.0266264,206
0.443883,-0.0382798,0.027412,208
0.443716,-0.0382466,0.0282167,207
0.443756,-0.0382568,0.0290352,204
0.443386,-0.0381808,0.0298249,203
0.442506,-0.0379974,0.0305763,202
0.442803,-0.0380617,0.0314124,198
0.442232,-0.0379433,0.0321834,198
0.442019,-0.0379004,0.0329806,200
0.441909,-0.0378791,0.0337853,201
0.441393,-0.0377723,0.0345565,201
0.442301,-0.0379655,0.0354458,203
0.442142,-0.0379338,0.0362469,197
0.441069,-0.0377096,0.0369671,200
0.440203,-0.0375291,0.0377022,200
0.440047,-0.037498,0.0384993,206
0.439992,-0.0374883,0.0393056,207
0.439786,-0.0374469,0.0400975,204
0.439833,-0.0374586,0.0409134,203
0.439679,-0.0374281,0.0417099,205
0.439375,-0.0373658,0.0424907,203
0.439322,-0.0373567,0.0432967,204
0.439472,-0.0373901,0.0441239,207
0.439522,-0.0374025,0.0449413,209
0.439371,-0.0373725,0.0457373,205
0.439422,-0.0373851,0.0465554,206
0.439171,-0.0373342,0.0473399,204
0.439173,-0.0373364,0.0481527,201
0.439225,-0.0373493,0.0489717,201
0.438775,-0.0372564,0.0497316,198
0.439231,-0.0373543,0.0505992,200
0.439436,-0.0373994,0.0514382,200
0.438887,-0.0372856,0.0521845,197
0.439496,-0.0374158,0.0530752,198
0.43925,-0.0373657,0.0538589,197
0.439811,-0.0374858,0.054747,195
0.439565,-0.0374359,0.0555311,196
0.43932,-0.0373861,0.0563148,195
0.439176,-0.0373578,0.0571116,198
0.439386,-0.0374039,0.0579568,202
0.439395,-0.0374076,0.0587751,196
0.439051,-0.0373371,0.0595439,197
0.439364,-0.0374048,0.0604058,198
0.439576,-0.0374514,0.0612547,197
0.439789,-0.0374983,0.062105,200
0.440054,-0.0375559,0.0629641,202
0.439813,-0.037507,0.0637482,203
0.439775,-0.0375009,0.0645628,204
0.43994,-0.0375376,0.065409,205
0.439903,-0.0375317,0.0662247,204
0.439968,-0.0375473,0.0670567,201
0.440135,-0.0375844,0.0679057,205
0.44015,-0.0375896,0.0687312,203
0.440369,-0.0376376,0.0695906,201
0.440742,-0.0377181,0.0704768,200
0.44081,-0.0377343,0.0713136,202
0.441235,-0.0378259,0.072212,199
0.441918,-0.0379718,0.0731567,194
0.441069,-0.0377946,0.0738376,193
0.44119,-0.0378221,0.0746866,195
0.442131,-0.0380224,0.0756824,193
0.441998,-0.0379962,0.076489,189
0.441405,-0.0378732,0.0772119,190
0.441887,-0.0379768,0.0781306,188
0.441858,-0.0379726,0.0789566,186
0.4426,-0.0381309,0.0799277,189
0.442675,-0.0381486,0.0807756,193
0.442802,-0.0381773,0.0816343,191
0.442724,-0.0381628,0.0824542,195
0.443264,-0.0382787,0.0833953,194
0.4436,-0.0383515,0.0842985,194
0.443575,-0.0383482,0.0851315,194
0.443654,-0.0383667,0.0859858,194
0.444252,-0.0384947,0.0869464,198
0.444436,-0.0385355,0.087825,194
0.445507,-0.0387633,0.0888885,196
0.444807,-0.0386176,0.0895862,192
0.445097,-0.0386808,0.0904909,191
0.446226,-0.0389209,0.0915759,192
0.446625,-0.0390071,0.0925089,196
0.446763,-0.039038,0.0933871,190
0.446849,-0.0390581,0.0942551,191
0.447145,-0.0391226,0.0951706,190
0.44739,-0.0391763,0.0960762,188
0.44732,-0.0391634,0.0969124,188
0.447672,-0.0392396,0.0978447,188
0.447814,-0.0392715,0.0987308,190
0.448327,-0.0393818,0.0997038,189
0.448099,-0.0393357,0.100507,184
0.448084,-0.0393344,0.101359,183
0.448759,-0.0394789,0.102376,187
0.449118,-0.0395566,0.10332,188
0.449531,-0.0396457,0.104279,186
0.449678,-0.0396788,0.105176,186
0.450094,-0.0397685,0.10614,182
0.449921,-0.0397341,0.106961,176
0.450446,-0.0398467,0.107955,176
0.450811,-0.0399258,0.108912,172
0.450963,-0.0399597,0.109817,174
0.451222,-0.0400165,0.110751,176
0.451052,-0.0399825,0.111576,176
0.451528,-0.0400851,0.112568,177
0.451845,-0.0401539,0.113521,178
0.451837,-0.0401543,0.114391,175
0.451884,-0.0401663,0.115276,170
0.452095,-0.0402127,0.116205,166
0.452143,-0.0402249,0.117092,168
0.452246,-0.0402487,0.117995,167
0.452078,-0.0402154,0.118825,165
0.451912,-0.0401821,0.119655,165
0.451908,-0.0401833,0.120531,166
0.451633,-0.0401274,0.121331,168
0.451739,-0.0401517,0.122238,168
0.451628,-0.0401303,0.123085,172
0.451085,-0.0400177,0.123809,176
0.450975,-0.0399965,0.124655,179
0.451407,-0.0400897,0.125658,178
0.450703,-0.0399432,0.126334,181
0.451352,-0.0400822,0.127403,183
0.451081,-0.0400271,0.128205,183
0.450271,-0.0398582,0.128846,184
0.449572,-0.0397126,0.129518,187
0.449358,-0.0396695,0.130333,185
0.449145,-0.0396265,0.131149,187
0.448879,-0.0395723,0.131948,186
0.447597,-0.0393037,0.132436,186
0.447174,-0.0392162,0.133184,186
0.44723,-0.0392301,0.13408,185
0.446648,-0.0391092,0.134777,183
0.446386,-0.0390559,0.135573,186
0.446124,-0.0390028,0.136369,186
0.445493,-0.0388714,0.137047,185
0.444705,-0.0387071,0.137673,184
0.443657,-0.0384879,0.138213,185
0.443767,-0.0385131,0.139125,183
0.443091,-0.0383722,0.139781,185
0.442887,-0.0383312,0.140591,177
0.442893,-0.0383345,0.14147,178
0.442742,-0.0383047,0.142297,183
0.44254,-0.0382639,0.143108,184
0.441972,-0.038146,0.143795,185
0.441146,-0.0379735,0.144393,182
0.440686,-0.0378784,0.145113,184
0.440589,-0.0378601,0.145957,182
0.440598,-0.0378638,0.146837,187
0.440036,-0.0377471,0.14752,178
0.438959,-0.0375218,0.148022,176
0.438659,-0.0374603,0.148793,173
0.437999,-0.037323,0.149437,169
0.438008,-0.037327,0.150316,170
0.437351,-0.0371901,0.150958,173
0.436849,-0.0370861,0.151654,172
0.436655,-0.037047,0.152459,170
0.436563,-0.0370296,0.153302,164
0.435707,-0.0368507,0.153866,166
0.435209,-0.0367476,0.154559,163
0.43522,-0.0367519,0.155438,163
0.434571,-0.0366169,0.156074,172
0.434228,-0.0365464,0.156821,174
0.434391,-0.036583,0.157758,163
0.434403,-0.0365875,0.15864,156
0.434112,-0.0365279,0.159407,143
0.433467,-0.0363937,0.160039,149
0.433935,-0.0364945,0.161096,156
0.433847,-0.0364779,0.161941,157
0.433355,-0.036376,0.16263,144
0.432813,-0.0362636,0.163298,146
0.433079,-0.0363218,0.164282,147
0.434055,-0.03653,0.165547,144
0.433462,-0.0364067,0.166195,135
0.433123,-0.0363371,0.166943,133
0.432835,-0.0362784,0.167711,133
0.433457,-0.0364119,0.168845,131
0.433828,-0.0364923,0.169881,124
0.433135,-0.0363479,0.170486,128
0.433051,-0.0363321,0.171338,120
0.432815,-0.0362842,0.172128,119
0.433085,-0.0363434,0.173127,117
0.433762,-0.0364885,0.174297,118
0.433374,-0.0364086,0.175026,111
0.433747,-0.0364897,0.176074,114
0.434123,-0.036571,0.177125,116
0.434244,-0.0365987,0.178071,117
0.434825,-0.0367238,0.179215,114
0.434335,-0.0366221,0.179902,121
0.434406,-0.0366393,0.180831,123
0.434274,-0.0366133,0.181672,121
0.434142,-0.0365875,0.182514,112
0.434316,-0.0366265,0.18349,110
0.434799,-0.0367306,0.184603,109
0.434924,-0.0367591,0.185561,117
0.434793,-0.0367334,0.186407,114
0.434713,-0.0367187,0.187276,115
0.434788,-0.0367366,0.188215,119
0.43476,-0.0367328,0.189109,119
0.43499,-0.0367835,0.19012,115
0.434808,-0.0367472,0.190947,113
0.434679,-0.036722,0.191798,111
0.434807,-0.0367511,0.192766,112
0.434884,-0.0367694,0.193713,124
0.435115,-0.0368206,0.194732,123
0.437011,-0.0397881,-0.207573,4
0.434585,-0.0392625,-0.205474,5
0.432444,-0.0387988,-0.203524,6
0.434192,-0.0391812,-0.203453,8
0.43585,-0.039544,-0.203332,4
0.434725,-0.0393013,-0.201879,9
0.432892,-0.0389047,-0.200097,7
0.437799,-0.0399745,-0.201505,4
0.43455,-0.0392696,-0.19906,7
0.436003,-0.0395878,-0.198829,6
0.432226,-0.0387681,-0.196159,9
0.434738,-0.0393168,-0.19642,6
0.43759,-0.0399396,-0.196827,10
0.436409,-0.0396847,-0.195372,8
0.438082,-0.0400507,-0.195227,7
0.437521,-0.0399309,-0.19406,8
0.437119,-0.0398454,-0.192967,9
0.437546,-0.0399405,-0.192251,6
0.436937,-0.0398101,-0.19107,9
0.438144,-0.0400747,-0.190702,10
0.43873,-0.0402044,-0.190054,11
0.436979,-0.0398254,-0.188372,10
0.437407,-0.0399207,-0.187656,9
0.438303,-0.0401178,-0.187145,11
0.438682,-0.0402023,-0.186405,11
0.437658,-0.0399817,-0.185056,12
0.437467,-0.0399421,-0.184072,13
0.438208,-0.0401054,-0.183489,16
0.439681,-0.0404282,-0.183218,11
0.440639,-0.0406388,-0.182721,12
0.438568,-0.04019,-0.18094,14
0.439208,-0.0403316,-0.18031,14
0.438032,-0.0400775,-0.178917,14
0.437326,-0.039926,-0.177726,11
0.438326,-0.0401457,-0.177247,15
0.4369,-0.0398372,-0.175762,8
0.437949,-0.0400678,-0.175301,10
0.437607,-0.0399953,-0.174268,11
0.435523,-0.0395437,-0.172529,15
0.43585,-0.0396168,-0.171775,17
0.435768,-0.0396011,-0.170855,20
0.435482,-0.039541,-0.169855,16
0.435963,-0.0396476,-0.169162,18
0.434762,-0.0393882,-0.167803,19
0.434733,-0.0393839,-0.16691,24
0.436079,-0.039679,-0.166557,21
0.436254,-0.0397192,-0.165743,19
0.436839,-0.0398487,-0.165088,20
0.4363,-0.0397332,-0.163997,24
0.434594,-0.0393638,-0.162463,20
0.435531,-0.0395699,-0.161944,22
0.435759,-0.0396215,-0.161153,21
0.435224,-0.0395071,-0.160074,28
0.435503,-0.0395698,-0.159304,29
0.435172,-0.0394999,-0.158305,23
0.435807,-0.0396401,-0.157667,27
0.435528,-0.0395814,-0.15669,26
0.434693,-0.0394015,-0.155511,29
0.435936,-0.0396742,-0.155094,32
0.434898,-0.0394502,-0.153845,35
0.435939,-0.0396789,-0.153352,32
0.435003,-0.0394772,-0.152145,35
0.434577,-0.0393863,-0.151125,33
0.434908,-0.0394604,-0.150376,33
0.43408,-0.039282,-0.149218,34
0.43426,-0.0393232,-0.148417,33
0.433837,-0.0392331,-0.147406,36
0.434068,-0.0392853,-0.146623,32
0.433746,-0.0392173,-0.145651,36
0.433577,-0.0391823,-0.144732,35
0.434863,-0.0394646,-0.144311,36
0.433589,-0.0391889,-0.143018,37
0.434875,-0.0394712,-0.142593,36
0.434003,-0.0392831,-0.141441,38
0.433484,-0.0391721,-0.140411,45
0.433917,-0.0392684,-0.139698,45
0.4336,-0.0392012,-0.138738,45
0.434084,-0.0393086,-0.138041,42
0.433617,-0.0392089,-0.137035,44
0.433601,-0.0392075,-0.136177,48
0.433986,-0.0392932,-0.135447,53
0.433971,-0.0392919,-0.13459,48
0.434456,-0.0393997,-0.133891,56
0.434442,-0.0393985,-0.133034,56
0.434728,-0.0394629,-0.132272,58
0.434815,-0.0394837,-0.131447,57
0.434701,-0.0394609,-0.130561,57
0.434038,-0.0393183,-0.129508,59
0.434325,-0.0393829,-0.128747,64
0.434313,-0.0393822,-0.127895,65
0.434301,-0.0393816,-0.127044,60
0.43414,-0.0393484,-0.126149,66
0.43388,-0.0392936,-0.125226,70
0.433421,-0.0391957,-0.124247,63
0.433461,-0.0392063,-0.123415,69
0.433154,-0.0391412,-0.122483,62
0.433095,-0.0391304,-0.121625,64
0.431752,-0.0388395,-0.1204,62
0.430369,-0.03854,-0.11917,66
0.428948,-0.0382321,-0.117935,65
0.428845,-0.0382115,-0.117076,69
0.428016,-0.0380326,-0.116015,74
0.427817,-0.0379913,-0.115133,72
0.427234,-0.037866,-0.114146,79
0.426893,-0.0377937,-0.113229,84
0.42665,-0.0377424,-0.11234,79
0.426455,-0.0377018,-0.111465,85
0.42674,-0.0377659,-0.110719,87
0.426785,-0.0377778,-0.10991,83
0.426496,-0.0377165,-0.109013,82
0.426351,-0.0376868,-0.108155,85
0.426685,-0.0377615,-0.107422,84
0.426876,-0.0378051,-0.106652,89
0.427164,-0.0378697,-0.105906,86
0.427789,-0.0380079,-0.105245,93
0.427741,-0.0379994,-0.104413,98
0.427453,-0.0379386,-0.103523,101
0.427503,-0.0379512,-0.102717,103
0.42813,-0.0380899,-0.102053,99
0.427939,-0.0380502,-0.101188,101
0.428231,-0.0381156,-0.100441,108
0.428523,-0.0381812,-0.0996935,102
0.428478,-0.0381733,-0.0988655,104
0.428964,-0.0382813,-0.0981628,103
0.429403,-0.038379,-0.0974478,110
0.429117,-0.0383185,-0.0965643,111
0.429849,-0.0384799,-0.0959151,114
0.42966,-0.0384406,-0.0950548,118
0.429617,-0.0384332,-0.0942287,120
0.430448,-0.0386163,-0.0935979,115
0.430503,-0.0386302,-0.092793,124
0.430705,-0.038676,-0.0920204,127
0.430614,-0.0386583,-0.0911842,125
0.430865,-0.0387149,-0.0904223,119
0.431312,-0.0388143,-0.0897015,123
0.431321,-0.038818,-0.088887,122
0.431427,-0.0388431,-0.0880934,130
0.431534,-0.0388684,-0.0872999,129
0.431739,-0.038915,-0.0865267,126
0.432043,-0.0389831,-0.0857731,122
0.432298,-0.0390407,-0.0850092,118
0.431625,-0.0388958,-0.0840594,113
0.431783,-0.0389322,-0.0832769,125
0.432921,-0.0391824,-0.082686,125
0.433327,-0.0392727,-0.0819492,128
0.432849,-0.0391703,-0.0810418,124
0.433108,-0.0392287,-0.0802766,130
0.433564,-0.0393301,-0.0795479,126
0.43348,-0.0393137,-0.0787175,130
0.433741,-0.0393725,-0.0779512,135
0.433609,-0.0393455,-0.0771128,138
0.433723,-0.0393723,-0.0763197,138
0.433936,-0.0394207,-0.0755442,142
0.434742,-0.0395986,-0.0748729,137
0.434858,-0.0396258,-0.0740785,137
0.435124,-0.0396855,-0.0733097,140
0.435389,-0.0397454,-0.0725405,143
0.434913,-0.0396434,-0.0716455,146
0.435081,-0.0396818,-0.07086,150
0.435249,-0.0397204,-0.0700744,145
0.435616,-0.0398024,-0.0693209,151
0.435339,-0.0397439,-0.0684628,153
0.435361,-0.0397504,-0.0676534,151
0.43558,-0.0398003,-0.0668756,152
0.435751,-0.0398395,-0.0660897,151
0.435824,-0.0398572,-0.0652884,147
0.436244,-0.0399508,-0.0645398,148
0.436218,-0.039947,-0.0637233,144
0.435895,-0.0398784,-0.0628634,153
0.436218,-0.0399507,-0.0620991,156
0.43684,-0.0400884,-0.0613768,157
0.437364,-0.0402048,-0.0606387,157
0.437391,-0.0402124,-0.0598293,162
0.437168,-0.0401657,-0.0589858,163
0.437295,-0.0401953,-0.058191,168
0.437223,-0.0401815,-0.0573694,170
0.437202,-0.0401787,-0.0565551,170
0.437331,-0.0402087,-0.0557606,166
0.437211,-0.0401844,-0.0549341,167
0.437042,-0.0401493,-0.0541021,167
0.437122,-0.0401687,-0.0533022,170
0.437402,-0.0402318,-0.0525267,173
0.437733,-0.040306,-0.0517565,180
0.437566,-0.0402713,-0.0509262,178
0.437499,-0.0402585,-0.0501085,179
0.437383,-0.040235,-0.0492857,176
0.437516,-0.0402661,-0.0484919,182
0.437401,-0.0402428,-0.0476701,179
0.437386,-0.0402414,-0.0468601,177
0.437372,-0.0402401,-0.0460503,174
0.436711,-0.0400977,-0.0451729,179
0.437046,-0.0401727,-0.0444011,175
0.436239,-0.0399983,-0.0435124,174
0.43514,-0.0397601,-0.0425979,169
0.434048,-0.0395234,-0.0416885,171
0.433694,-0.039448,-0.0408543,172
0.43344,-0.0393943,-0.0400309,178
0.433186,-0.0393407,-0.0392088,174
0.433129,-0.03933,-0.0384055,179
0.432584,-0.0392129,-0.0375598,176
0.432334,-0.03916,-0.0367416,169
0.432618,-0.0392239,-0.0359698,170
0.433147,-0.0393414,-0.0352173,175
0.432946,-0.0392993,-0.0344041,176
0.432746,-0.0392573,-0.0335919,180
0.432984,-0.0393112,-0.0328143,179
0.432931,-0.0393014,-0.0320142,181
0.433219,-0.0393662,-0.0312394,179
0.433948,-0.0395274,-0.030495,178
0.433749,-0.0394858,-0.0296838,176
0.434432,-0.0396369,-0.0289328,177
0.434921,-0.0397456,-0.0281667,180
0.435215,-0.0398116,-0.0273866,186
0.43551,-0.0398779,-0.0266055,185
0.435854,-0.0399551,-0.0258264,187
0.435953,-0.0399785,-0.0250319,187
0.435806,-0.0399481,-0.0242235,186
0.436202,-0.0400366,-0.0234451,186
0.436749,-0.0401578,-0.0226731,187
0.436355,-0.0400736,-0.021852,191
0.436704,-0.0401518,-0.0210684,194
0.437651,-0.0403607,-0.0203113,192
0.438104,-0.0404614,-0.0195287,196
0.438008,-0.0404424,-0.0187212,192
0.438163,-0.0404781,-0.0179243,193
0.438518,-0.0405576,-0.0171347,194
0.438875,-0.0406373,-0.0163438,190
0.439032,-0.0406735,-0.0155448,192
0.440295,-0.0409515,-0.0147819,193
0.440454,-0.0409882,-0.0139797,190
0.439707,-0.0408268,-0.0131504,184
0.440573,-0.0410178,-0.0123684,187
0.441138,-0.0411433,-0.0115754,195
0.441503,-0.0412249,-0.0107756,195
0.442173,-0.0413734,-0.00998112,194
0.442643,-0.0414779,-0.00918016,191
0.442655,-0.0414824,-0.0083692,187
0.442668,-0.041487,-0.00755825,186
0.443344,-0.0416369,-0.00675675,187
0.44346,-0.0416641,-0.00594578,192
0.443885,-0.0417587,-0.00513763,193
0.445339,-0.0420787,-0.00433673,195
0.445562,-0.0421292,-0.0035221,197
0.446095,-0.0422477,-0.00270812,194
0.445957,-0.0422194,-0.00189018,198
0.446389,-0.0423158,-0.00107335,201
0.445528,-0.0421293,-0.000256012,205
0.445547,-0.0421353,0.000560515,206
0.445876,-0.0422092,0.00137858,203
0.446674,-0.0423855,0.00220098,195
0.44659,-0.0423692,0.00301898,204
0.446352,-0.0423191,0.00383509,193
0.44565,-0.0421673,0.00464463,191
0.446034,-0.0422533,0.00546693,190
0.445747,-0.0421923,0.00627995,191
0.446185,-0.0422899,0.00710493,192
0.446157,-0.0422858,0.0079224,194
0.446286,-0.0423158,0.00874321,193
0.446467,-0.0423574,0.00956581,197
0.446337,-0.0423309,0.0103812,203
0.446416,-0.04235,0.0112019,205
0.446133,-0.0422899,0.0120124,203
0.446005,-0.0422639,0.0128268,205
0.446137,-0.0422947,0.0136493,206
0.446218,-0.0423143,0.0144706,203
0.446093,-0.0422887,0.0152848,210
0.446123,-0.0422973,0.0161046,202
0.445378,-0.0421362,0.016893,204
0.445978,-0.0422694,0.0177361,205
0.445804,-0.042233,0.018547,206
0.445681,-0.0422082,0.0193598,205
0.444734,-0.0420028,0.0201325,206
0.444048,-0.0418546,0.0209148,211
0.443877,-0.0418191,0.0217215,208
0.443809,-0.0418061,0.0225332,207
0.444409,-0.0419393,0.0233821,210
0.44424,-0.0419041,0.024189,208
0.443353,-0.041712,0.0249526,206
0.442726,-0.0415767,0.0257289,205
0.44205,-0.0414307,0.0265,205
0.440971,-0.0411966,0.0272423,212
0.440858,-0.0411736,0.0280456,210
0.44115,-0.0412393,0.0288767,204
0.442154,-0.041461,0.0297597,203
0.44133,-0.0412826,0.0305133,200
0.44127,-0.0412712,0.0313211,197
0.441159,-0.0412488,0.032125,199
0.440998,-0.0412154,0.0329247,201
0.440332,-0.0410716,0.0336834,201
0.440526,-0.041116,0.0345106,203
0.439913,-0.0409837,0.0352707,203
0.439806,-0.040962,0.0360723,204
0.439598,-0.0409185,0.0368648,200
0.439794,-0.0409632,0.0376931,199
0.439738,-0.0409529,0.0384993,204
0.439583,-0.0409208,0.0392961,207
0.439629,-0.0409328,0.0401119,209
0.439676,-0.0409449,0.0409282,207
0.439623,-0.0409352,0.0417349,211
0.439923,-0.0410028,0.0425776,211
0.439922,-0.0410043,0.0433904,215
0.43982,-0.0409838,0.0441929,209
0.439315,-0.0408753,0.0449521,205
0.439617,-0.0409433,0.0457977,206
0.439467,-0.0409122,0.0465945,205
0.43972,-0.0409695,0.0474365,202
0.438866,-0.0407844,0.0481527,199
0.438918,-0.0407978,0.0489717,197
0.439223,-0.0408663,0.0498211,198
0.439276,-0.0408799,0.0506417,199
0.439381,-0.0409047,0.051469,200
0.439285,-0.0408855,0.0522721,198
0.439038,-0.0408333,0.0530561,194
0.439396,-0.0409136,0.0539171,195
0.439402,-0.0409168,0.0547339,199
0.439509,-0.0409422,0.0555644,201
0.439516,-0.0409457,0.0563823,198
0.439272,-0.0408941,0.0571663,198
0.439431,-0.0409309,0.0580054,196
0.439945,-0.0410453,0.058895,199
0.439904,-0.0410382,0.0597083,197
0.440623,-0.0411976,0.0606309,196
0.439319,-0.0409137,0.0612621,198
0.439582,-0.0409733,0.0621199,198
0.439644,-0.0409888,0.062949,203
0.439808,-0.0410265,0.0637941,201
0.439618,-0.0409869,0.064586,204
0.439986,-0.0410693,0.065464,202
0.44005,-0.0410853,0.0662962,206
0.439913,-0.0410571,0.0670969,202
0.440029,-0.0410844,0.0679384,200
0.440044,-0.0410897,0.0687642,199
0.440314,-0.0411507,0.0696324,201
0.440432,-0.0411784,0.0704768,202
0.44157,-0.0414296,0.0714941,201
0.440874,-0.041279,0.0722033,196
0.440587,-0.0412181,0.0729808,197
0.441881,-0.0415035,0.0740335,195
0.441747,-0.0414761,0.0748397,194
0.441614,-0.0414488,0.0756459,194
0.441942,-0.0415225,0.0765352,195
0.442014,-0.0415404,0.0773797,194
0.441934,-0.0415246,0.0781966,190
0.441751,-0.0414866,0.0789948,189
0.441928,-0.0415272,0.0798602,190
0.442207,-0.0415904,0.0807464,191
0.442746,-0.0417102,0.0816837,197
0.442976,-0.0417627,0.082564,198
0.443002,-0.0417702,0.0834054,199
0.442924,-0.0417552,0.0842271,197
0.443157,-0.0418082,0.0851109,194
0.443133,-0.0418047,0.0859441,195
0.443573,-0.0419033,0.0868726,194
0.443705,-0.0419341,0.0877397,194
0.443734,-0.0419423,0.0885865,191
0.443867,-0.0419734,0.0894557,188
0.444936,-0.0422096,0.0905239,193
0.445071,-0.0422412,0.0913975,191
0.44552,-0.0423415,0.0923397,190
0.445761,-0.0423964,0.093239,186
0.445689,-0.0423825,0.0940711,186
0.445932,-0.0424377,0.094973,186
0.446806,-0.0426312,0.0960175,189
0.446893,-0.0426523,0.0968886,193
0.446928,-0.042662,0.0977489,196
0.447017,-0.0426833,0.098622,190
0.447,-0.0426817,0.0994717,190
0.447512,-0.0427959,0.100445,184
0.447973,-0.0428989,0.101409,184
0.448542,-0.0430255,0.102401,183
0.449433,-0.0432228,0.103473,185
0.449153,-0.0431634,0.104267,184
0.449246,-0.0431859,0.10515,181
0.448914,-0.0431151,0.105931,174
0.449275,-0.0431962,0.106882,169
0.449531,-0.0432543,0.107809,170
0.449413,-0.0432304,0.108644,172
0.449563,-0.0432653,0.109546,170
0.449126,-0.0431715,0.1103,175
0.44933,-0.0432182,0.111218,174
0.449481,-0.0432534,0.112123,174
0.449527,-0.0432654,0.113002,172
0.450055,-0.0433831,0.114009,167
0.450155,-0.0434071,0.114905,170
0.450901,-0.0435727,0.115975,170
0.450518,-0.0434908,0.116744,165
0.450512,-0.0434916,0.117615,161
0.4504,-0.0434689,0.118457,167
0.450449,-0.0434816,0.119344,171
0.450606,-0.0435182,0.120262,168
0.45071,-0.0435431,0.121166,170
0.450169,-0.0434263,0.12189,172
0.450381,-0.0434749,0.122825,165
0.449787,-0.0433467,0.123533,174
0.449517,-0.0432894,0.124331,179
0.448498,-0.0430679,0.124913,181
0.448497,-0.0430696,0.125788,170
0.448603,-0.043095,0.126694,176
0.448709,-0.0431204,0.127602,178
0.448496,-0.0430755,0.128416,183
0.448015,-0.0429722,0.12915,180
0.447696,-0.0429042,0.129931,183
0.446846,-0.0427197,0.130551,183
0.446052,-0.0425475,0.131185,188
0.44563,-0.0424571,0.131931,181
0.445368,-0.0424016,0.132726,182
0.445107,-0.0423463,0.13352,182
0.444477,-0.0422103,0.134198,181
0.443588,-0.0420171,0.134793,175
0.443591,-0.0420199,0.135668,179
0.442653,-0.0418161,0.136243,181
0.442553,-0.041796,0.137085,183
0.442609,-0.0418104,0.137977,181
0.44204,-0.0416876,0.138666,177
0.441524,-0.0415765,0.139372,175
0.441218,-0.0415112,0.140145,178
0.440912,-0.0414461,0.140918,179
0.440193,-0.0412903,0.141553,180
0.439889,-0.0412256,0.142324,178
0.439585,-0.041161,0.143095,181
0.439282,-0.0410966,0.143866,181
0.439186,-0.0410775,0.144707,182
0.43873,-0.0409795,0.145425,184
0.439047,-0.0410509,0.146409,184
0.437719,-0.0407616,0.146823,179
0.438137,-0.0408554,0.147843,180
0.437326,-0.0406793,0.148433,183
0.436568,-0.0405151,0.149039,184
0.435813,-0.0403514,0.149644,183
0.435721,-0.0403331,0.150484,184
0.436086,-0.0404153,0.151489,176
0.434776,-0.0401297,0.15189,170
0.434229,-0.0400118,0.152564,165
0.433936,-0.0399494,0.153329,169
0.433946,-0.0399537,0.154205,171
0.433452,-0.0398473,0.154896,173
0.433111,-0.0397743,0.155642,172
0.432218,-0.0395803,0.156182,170
0.431978,-0.0395298,0.156964,159
0.43214,-0.0395672,0.157897,156
0.432251,-0.0395937,0.158814,156
0.432163,-0.0395763,0.159654,153
0.432125,-0.03957,0.160515,147
0.431937,-0.0395308,0.161318,149
0.43195,-0.0395356,0.1622,146
0.431863,-0.0395185,0.163043,142
0.431876,-0.0395235,0.163926,143
0.43184,-0.0395175,0.164791,151
0.431804,-0.0395116,0.165656,137
0.431417,-0.0394287,0.166382,136
0.431682,-0.039489,0.167368,134
0.4322,-0.0396047,0.168459,134
0.432467,-0.0396655,0.169451,133
0.432483,-0.039671,0.170342,130
0.432096,-0.0395882,0.171069,126
0.432063,-0.0395828,0.171941,126
0.432584,-0.0396993,0.173043,124
0.43245,-0.0396719,0.173876,129
0.432518,-0.0396889,0.174794,124
0.432839,-0.0397616,0.175819,120
0.432959,-0.03979,0.176761,119
0.433638,-0.0399411,0.177942,125
0.433302,-0.0398693,0.178694,124
0.433474,-0.0399092,0.179662,122
0.433342,-0.0398822,0.180502,121
0.433362,-0.0398888,0.181408,118
0.433586,-0.0399401,0.182403,117
0.43376,-0.0399804,0.183379,118
0.433833,-0.0399984,0.184311,116
0.433396,-0.0399046,0.18502,117
0.433775,-0.0399899,0.18609,117
0.433951,-0.0400306,0.187071,117
0.433821,-0.0400041,0.187917,109
0.433997,-0.040045,0.188902,114
0.433919,-0.0400299,0.189773,114
0.433892,-0.040026,0.190668,119
0.434275,-0.0401122,0.191751,115
0.434197,-0.0400973,0.192625,106
0.434068,-0.0400711,0.193477,116
0.435328,-0.04035,0.194971,111
0.434358,-0.0426937,-0.206438,6
0.436121,-0.043094,-0.206377,7
0.434632,-0.0427598,-0.204736,4
0.434435,-0.0427175,-0.203724,5
0.434188,-0.0426637,-0.202691,6
0.433941,-0.0426102,-0.201659,6
0.434721,-0.0427883,-0.201117,5
0.443277,-0.0447225,-0.20425,7
0.434485,-0.0427392,-0.199181,7
0.435318,-0.0429294,-0.19866,7
0.437658,-0.04346,-0.19884,7
0.435134,-0.0428922,-0.196753,7
0.438722,-0.0437045,-0.197501,8
0.437274,-0.0433798,-0.19592,5
0.436871,-0.0432909,-0.194823,7
0.437973,-0.0435419,-0.194415,8
0.439133,-0.0438058,-0.194029,5
0.436805,-0.0432822,-0.192064,5
0.437128,-0.0433574,-0.191302,5
0.438283,-0.0436203,-0.190911,10
0.437777,-0.043508,-0.189777,9
0.436601,-0.0432445,-0.188349,9
0.436976,-0.0433314,-0.187611,8
0.43865,-0.0437116,-0.187441,12
0.437006,-0.0433422,-0.185817,11
0.4379,-0.0435464,-0.185304,12
0.438175,-0.0436105,-0.184519,7
0.438138,-0.0436044,-0.183601,11
0.440029,-0.0440335,-0.183508,12
0.440044,-0.0440391,-0.18261,12
0.435766,-0.0430745,-0.179892,9
0.437428,-0.0434522,-0.179699,8
0.436159,-0.0431676,-0.178269,12
0.437824,-0.0435459,-0.178071,13
0.435224,-0.0429604,-0.176094,11
0.436419,-0.0432325,-0.175699,8
0.435109,-0.0429385,-0.174268,12
0.433656,-0.0426123,-0.172786,13
0.434487,-0.0428021,-0.172239,16
0.435168,-0.0429581,-0.17163,16
0.434985,-0.0429188,-0.170671,19
0.433991,-0.0426962,-0.169388,16
0.435281,-0.0429898,-0.16902,20
0.433984,-0.0426986,-0.167622,18
0.434664,-0.0428543,-0.16701,21
0.434382,-0.0427927,-0.166019,22
0.433697,-0.0426399,-0.164872,25
0.434478,-0.0428184,-0.164298,27
0.434906,-0.0429173,-0.163585,23
0.437224,-0.0434431,-0.163597,24
0.434903,-0.0429205,-0.161828,23
0.434017,-0.0427223,-0.160614,25
0.435967,-0.0431651,-0.160477,24
0.434773,-0.0428974,-0.159151,22
0.435203,-0.0429966,-0.158438,26
0.434369,-0.04281,-0.157253,22
0.435153,-0.0429893,-0.156671,24
0.434219,-0.0427802,-0.155455,28
0.434599,-0.042868,-0.154724,32
0.434525,-0.0428532,-0.153827,32
0.435411,-0.0430556,-0.153278,36
0.434478,-0.0428468,-0.152073,33
0.434405,-0.0428323,-0.151179,33
0.433629,-0.0426588,-0.150036,35
0.433307,-0.042588,-0.149058,35
0.432936,-0.0425061,-0.148065,26
0.432765,-0.0424695,-0.147144,34
0.432446,-0.0423993,-0.146172,33
0.433075,-0.0425435,-0.14553,39
0.432656,-0.0424508,-0.144527,33
0.432837,-0.0424936,-0.14373,38
0.433317,-0.0426043,-0.143035,37
0.4328,-0.0424893,-0.142002,40
0.433281,-0.0426,-0.141307,41
0.434264,-0.0428244,-0.140778,43
0.432847,-0.0425058,-0.139451,47
0.433929,-0.0427524,-0.138952,43
0.433262,-0.0426037,-0.137878,46
0.432997,-0.0425457,-0.136938,46
0.432683,-0.0424766,-0.135984,46
0.433215,-0.0425989,-0.135303,50
0.433399,-0.0426426,-0.13451,53
0.434084,-0.0427994,-0.133875,60
0.43357,-0.0426851,-0.132861,61
0.433705,-0.0427177,-0.132053,60
0.433393,-0.042649,-0.131106,62
0.434228,-0.0428399,-0.130515,62
0.433466,-0.0426696,-0.129431,68
0.434302,-0.0428606,-0.128838,68
0.43414,-0.0428259,-0.127941,65
0.434728,-0.0429609,-0.12727,68
0.434117,-0.0428246,-0.126239,68
0.433508,-0.0426888,-0.125212,67
0.433498,-0.0426884,-0.124364,63
0.433538,-0.0426994,-0.123532,66
0.433429,-0.0426767,-0.122656,63
0.432676,-0.0425083,-0.121597,63
0.431926,-0.0423407,-0.120541,62
0.429516,-0.0417974,-0.119017,67
0.428974,-0.0416767,-0.118031,73
0.428823,-0.0416443,-0.117157,73
0.4278,-0.0414149,-0.116042,77
0.427217,-0.0412847,-0.115053,83
0.427501,-0.041351,-0.114305,81
0.426583,-0.0411453,-0.113229,85
0.42658,-0.0411464,-0.112404,84
0.426433,-0.041115,-0.111542,86
0.426622,-0.0411597,-0.11077,84
0.426428,-0.0411177,-0.109897,80
0.426809,-0.0412059,-0.109176,75
0.426664,-0.0411749,-0.108317,78
0.426471,-0.0411332,-0.107447,86
0.426854,-0.0412217,-0.106726,91
0.426757,-0.0412018,-0.105882,94
0.426997,-0.0412579,-0.105124,98
0.426997,-0.0412599,-0.104305,102
0.427815,-0.0414468,-0.10369,106
0.427624,-0.0414054,-0.102824,105
0.427481,-0.041375,-0.10197,99
0.427531,-0.0413883,-0.101165,97
0.428255,-0.041554,-0.100522,106
0.428017,-0.041502,-0.0996475,108
0.428117,-0.0415264,-0.0988541,106
0.428072,-0.0415183,-0.0980269,110
0.428172,-0.0415428,-0.0972342,114
0.428659,-0.0416548,-0.0965308,111
0.428808,-0.0416906,-0.0957489,118
0.429296,-0.041803,-0.0950439,114
0.429592,-0.0418719,-0.0942941,116
0.429308,-0.0418094,-0.0934141,117
0.429798,-0.0419223,-0.0927071,122
0.430145,-0.0420026,-0.0919671,117
0.430346,-0.0420501,-0.0911948,124
0.43016,-0.0420098,-0.0903386,117
0.430362,-0.0420574,-0.0895666,114
0.430371,-0.0420613,-0.0887533,119
0.430574,-0.0421092,-0.0879812,121
0.430972,-0.0422013,-0.0872494,122
0.430933,-0.0421944,-0.0864265,117
0.430944,-0.0421986,-0.0856142,113
0.430955,-0.0422029,-0.0848025,119
0.431648,-0.0423618,-0.0841276,111
0.431513,-0.0423332,-0.0832865,112
0.43133,-0.0422937,-0.0824371,113
0.432075,-0.0424641,-0.0817686,119
0.43243,-0.0425465,-0.081023,114
0.432052,-0.0424628,-0.080137,116
0.432115,-0.0424789,-0.0793359,124
0.432276,-0.0425173,-0.0785532,134
0.43278,-0.0426334,-0.0778336,133
0.433286,-0.0427498,-0.0771128,138
0.433057,-0.0426997,-0.0762577,135
0.432975,-0.0426831,-0.0754303,147
0.433041,-0.0426999,-0.0746296,144
0.433745,-0.0428613,-0.0739408,152
0.433174,-0.0427338,-0.0730291,145
0.433241,-0.0427509,-0.0722292,151
0.433555,-0.0428237,-0.0714709,145
0.434262,-0.0429859,-0.0707777,148
0.433643,-0.0428474,-0.069863,151
0.434056,-0.042943,-0.0691196,153
0.435558,-0.0432851,-0.0685505,147
0.434344,-0.043012,-0.0675435,153
0.434464,-0.0430411,-0.0667513,153
0.434635,-0.0430815,-0.0659669,151
0.434805,-0.0431221,-0.0651822,150
0.434878,-0.0431404,-0.0643823,151
0.435247,-0.043226,-0.063627,152
0.435074,-0.0431886,-0.0627904,155
0.435049,-0.0431849,-0.0619765,155
0.434828,-0.0431366,-0.0611347,156
0.434903,-0.0431555,-0.0603361,154
0.434732,-0.0431186,-0.0595032,158
0.435697,-0.0433392,-0.0588282,160
0.435923,-0.0433922,-0.058049,160
0.435703,-0.0433443,-0.0572095,164
0.43588,-0.0433862,-0.0564237,168
0.435909,-0.0433947,-0.0556182,170
0.435839,-0.0433808,-0.0548002,169
0.435919,-0.0434006,-0.0540016,163
0.436098,-0.0434431,-0.0532155,162
0.436228,-0.0434745,-0.052423,164
0.43621,-0.0434723,-0.0516123,168
0.436094,-0.0434477,-0.0507903,169
0.436325,-0.0435019,-0.0500097,179
0.436308,-0.0435001,-0.0492,174
0.436144,-0.0434647,-0.0483738,173
0.436327,-0.043508,-0.0475872,175
0.43646,-0.0435402,-0.0467949,181
0.436347,-0.0435164,-0.0459756,177
0.435987,-0.0434366,-0.0451311,178
0.435628,-0.043357,-0.0442882,179
0.435023,-0.0432219,-0.0434221,175
0.434716,-0.0431542,-0.0425881,168
0.434508,-0.0431089,-0.0417653,171
0.434203,-0.0430416,-0.0409341,175
0.433361,-0.0428526,-0.0400538,176
0.432572,-0.0426755,-0.0391819,173
0.431689,-0.0424773,-0.0383047,178
0.431633,-0.0424663,-0.0375041,178
0.431673,-0.0424773,-0.0367123,175
0.431569,-0.0424556,-0.0359083,169
0.431708,-0.0424889,-0.035125,173
0.431412,-0.0424235,-0.0343062,172
0.431454,-0.042435,-0.0335154,176
0.431498,-0.0424467,-0.0327248,181
0.431542,-0.0424585,-0.0319341,177
0.431586,-0.0424704,-0.0311436,181
0.432407,-0.0426583,-0.0304082,181
