ply
format ascii 1.0
comment VCGLIB generated
element vertex 929
property float x
property float y
property float z
property float nx
property float ny
property float nz
property uchar red
property uchar green
property uchar blue
property uchar alpha
element face 0
property list uchar int vertex_indices
end_header
0.6676909 -0.008989344 4.220767 0 0 0 184 174 162 255 
-1.963956 1.058793 3.467663 0 0 0 177 161 145 255 
0.1747742 -0.1200226 4.213353 0 0 0 152 140 124 255 
0.06854186 -0.1327637 4.220572 0 0 0 159 147 133 255 
-0.7304617 0.2200648 4.008729 0 0 0 176 161 142 255 
-0.7687158 0.1890245 4.05716 0 0 0 169 156 137 255 
-1.040904 0.3684241 4.028128 0 0 0 143 135 126 255 
-0.7368444 0.1093728 4.123127 0 0 0 193 182 164 255 
-0.8033805 -0.1863711 4.212857 0 0 0 165 152 136 255 
0.201578 -0.6505523 4.503353 0 0 0 177 164 150 255 
-0.04200803 -0.5847675 4.461129 0 0 0 188 175 166 255 
-1.556121 0.1539215 4.07787 0 0 0 141 128 112 255 
-1.903047 0.3278962 3.9949 0 0 0 148 136 122 255 
-1.589905 -1.073117 4.676177 0 0 0 201 186 167 255 
-0.7056416 0.5124196 3.761868 0 0 0 172 160 144 255 
-1.336172 0.6922143 3.749383 0 0 0 197 185 169 255 
0.2829589 -0.09025717 4.192792 0 0 0 211 198 181 255 
0.1927337 0.08235293 3.993577 0 0 0 155 142 128 255 
0.4716821 1.435829 3.589659 0 0 0 238 172 218 255 
0.6317768 0.9311125 2.906143 0 0 0 240 172 182 255 
1.20853 1.785497 3.253756 0 0 0 197 191 179 255 
-1.219196 3.374561 2.403438 0 0 0 155 144 130 255 
1.808557 1.948596 3.104891 0 0 0 142 132 120 255 
-0.4067855 3.382311 2.384026 0 0 0 115 108 100 255 
2.060257 2.747286 2.569577 0 0 0 176 169 159 255 
2.929538 2.679857 2.680232 0 0 0 160 152 139 255 
0.3806202 4.396938 1.870512 0 0 0 141 131 121 255 
0.3008824 0.5312448 2.365423 0 0 0 244 239 228 255 
0.6621043 4.264637 1.873028 0 0 0 141 132 117 255 
-0.7468376 5.173007 1.286844 0 0 0 106 97 88 255 
0.1662967 -1.171203 4.805292 0 0 0 220 204 189 255 
0.01185964 -1.089428 4.707402 0 0 0 227 213 200 255 
0.08905309 -1.080765 4.72583 0 0 0 173 157 141 255 
-0.591225 -0.6688391 4.517095 0 0 0 174 158 141 255 
-1.280852 -0.357089 4.297274 0 0 0 159 143 128 255 
-1.282161 -0.3469047 4.28887 0 0 0 192 179 163 255 
-0.4894895 -0.6833281 4.485286 0 0 0 178 163 144 255 
4.578544 4.005929 1.961584 0 0 0 160 156 145 255 
-0.4946182 -0.6621594 4.473355 0 0 0 177 164 147 255 
-0.4816301 -0.5913501 4.4148 0 0 0 223 211 195 255 
-0.7069164 -0.4393866 4.344591 0 0 0 215 200 181 255 
-0.9452344 -0.2879603 4.293665 0 0 0 213 198 179 255 
0.4198246 -0.9615045 4.63391 0 0 0 221 206 185 255 
1.691686 5.284405 1.349862 0 0 0 165 155 141 255 
3.117675 4.147237 1.920147 0 0 0 128 120 109 255 
1.408282 4.800309 1.556697 0 0 0 174 164 149 255 
3.235912 3.210633 2.381556 0 0 0 133 126 116 255 
3.591658 3.293822 2.466828 0 0 0 107 103 92 255 
-0.2275207 -0.8070071 4.581858 0 0 0 179 163 147 255 
0.6406347 4.313887 1.809537 0 0 0 178 166 152 255 
0.3806202 4.396938 1.870512 0 0 0 141 131 121 255 
0.4561447 4.298219 1.932755 0 0 0 184 175 166 255 
0.3420986 4.302206 1.930177 0 0 0 153 144 135 255 
0.3445548 0.5396194 2.438945 0 0 0 137 72 97 255 
0.2859835 3.628628 2.150457 0 0 0 185 178 168 255 
2.001505 2.668064 2.661652 0 0 0 141 133 122 255 
1.796361 2.675959 2.643165 0 0 0 183 179 170 255 
0.03482673 3.485371 2.278648 0 0 0 148 136 122 255 
0.3417776 0.7335811 2.794119 0 0 0 174 97 140 255 
0.07477593 2.670265 2.788309 0 0 0 149 142 132 255 
0.3238054 0.8095517 2.925768 0 0 0 207 147 172 255 
-1.465043 2.973531 2.482704 0 0 0 180 171 162 255 
2.450221 0.9987124 3.581895 0 0 0 194 185 170 255 
1.301359 1.618421 3.373053 0 0 0 188 177 159 255 
-1.103523 2.461301 2.77069 0 0 0 147 139 128 255 
0.3476518 0.9386888 3.186422 0 0 0 250 190 216 255 
2.59856 0.724403 3.855625 0 0 0 179 173 161 255 
-1.483196 2.588883 2.737723 0 0 0 135 125 113 255 
-1.723325 2.673464 2.717376 0 0 0 144 134 124 255 
-1.441323 -0.3215301 4.287766 0 0 0 187 172 153 255 
-0.4915593 -0.6582567 4.465671 0 0 0 210 197 180 255 
-0.8036551 -0.1868094 4.212815 0 0 0 165 152 136 255 
-0.7426053 0.1646007 4.074042 0 0 0 175 162 145 255 
-1.669137 0.8402314 3.658528 0 0 0 201 192 181 255 
4.332217 2.301984 2.889349 0 0 0 173 166 150 255 
-1.864529 0.4177913 3.919749 0 0 0 190 177 160 255 
0.3294405 0.4350991 2.230536 0 0 0 243 174 205 255 
3.782581 4.25965 1.877136 0 0 0 167 161 149 255 
3.039608 2.613396 2.743267 0 0 0 190 184 170 255 
2.379326 2.301666 2.833723 0 0 0 187 181 169 255 
0.2779902 0.6479 2.548682 0 0 0 193 198 204 255 
2.754459 2.236861 3.013051 0 0 0 184 176 165 255 
-0.540655 3.964764 2.142869 0 0 0 0 0 0 255 
2.300626 1.722478 3.27106 0 0 0 132 126 114 255 
-0.04741776 1.885269 3.29367 0 0 0 167 156 134 255 
1.702878 0.516562 3.860296 0 0 0 201 192 177 255 
0.8244956 -0.1464206 4.284741 0 0 0 196 190 176 255 
-1.410535 0.8439581 3.652952 0 0 0 178 166 152 255 
-0.6210503 0.3150982 3.884607 0 0 0 169 155 142 255 
-0.3257974 0.04087787 4.089112 0 0 0 191 179 163 255 
-0.9618042 0.3265691 4.026532 0 0 0 150 141 124 255 
-1.942506 0.5343148 3.791947 0 0 0 213 201 183 255 
-0.875759 -0.1100612 4.176769 0 0 0 163 151 135 255 
-2.052496 0.3734036 3.950557 0 0 0 149 133 117 255 
-0.6008453 -0.4395747 4.339133 0 0 0 213 198 179 255 
-0.6006368 -0.4473401 4.345454 0 0 0 194 178 162 255 
-1.647415 0.1461977 4.121245 0 0 0 107 98 91 255 
-2.131614 0.03145039 4.088615 0 0 0 144 130 117 255 
-1.198291 3.528614 2.233761 0 0 0 120 112 99 255 
-1.763796 1.180506 3.386041 0 0 0 161 149 137 255 
3.793083 4.257263 1.897586 0 0 0 137 131 119 255 
1.87274 5.000577 1.448543 0 0 0 175 168 160 255 
1.764479 5.042142 1.429464 0 0 0 169 161 150 255 
4.450835 3.36493 2.376723 0 0 0 164 156 143 255 
0.9822822 3.978549 1.870486 0 0 0 167 162 156 255 
0.71408 4.24706 1.906275 0 0 0 195 187 176 255 
3.334171 2.104014 2.771363 0 0 0 159 150 133 255 
2.329202 2.857992 2.463776 0 0 0 181 173 162 255 
-0.493805 4.661715 1.636208 0 0 0 143 136 127 255 
0.4980595 4.320408 1.917458 0 0 0 173 165 154 255 
0.3508517 4.365882 1.892301 0 0 0 185 176 167 255 
0.2482823 0.5860411 2.368056 0 0 0 220 219 201 255 
3.039608 2.613396 2.743267 0 0 0 190 184 170 255 
1.134246 3.285162 2.273395 0 0 0 147 139 128 255 
1.966913 2.744693 2.533691 0 0 0 169 161 150 255 
-0.1792699 3.892627 2.00482 0 0 0 176 164 150 255 
-0.3864411 3.870399 2.138677 0 0 0 113 101 89 255 
-1.332416 3.764899 2.000781 0 0 0 181 172 163 255 
-0.4308357 3.811974 2.246457 0 0 0 145 136 127 255 
0.3065818 0.6960531 2.68819 0 0 0 220 213 205 255 
1.931119 1.975047 3.025186 0 0 0 152 143 128 255 
-0.348209 3.34936 2.391316 0 0 0 132 125 117 255 
3.449335 1.236965 3.513398 0 0 0 178 171 153 255 
0.6374992 1.212204 2.79405 0 0 0 252 251 254 255 
0.5852305 2.601318 2.77039 0 0 0 151 141 129 255 
0.2868404 0.8069865 2.880514 0 0 0 218 205 188 255 
-0.9122724 3.183442 2.569268 0 0 0 115 108 100 255 
-1.219682 3.192536 2.5467 0 0 0 79 74 70 255 
-1.41379 2.935087 2.556066 0 0 0 0 0 0 255 
-1.306212 2.93887 2.572263 0 0 0 197 193 184 255 
0.2444085 0.9129578 2.993161 0 0 0 235 240 236 255 
0.1841521 1.068368 3.108139 0 0 0 203 219 234 255 
1.004262 1.723596 3.40236 0 0 0 135 123 107 255 
2.004051 0.6599715 3.74904 0 0 0 148 140 129 255 
1.641714 0.9658033 3.66169 0 0 0 147 139 128 255 
0.2534733 1.947429 3.31917 0 0 0 131 122 107 255 
1.903289 0.6272724 3.768457 0 0 0 197 189 178 255 
1.971189 0.3374744 3.984506 0 0 0 167 155 139 255 
0.4001145 1.553421 3.677422 0 0 0 189 122 175 255 
0.254209 1.23915 3.631961 0 0 0 239 240 255 255 
2.089636 0.1092187 4.118766 0 0 0 155 148 132 255 
1.792433 0.289962 4.093393 0 0 0 118 112 100 255 
1.107913 0.3155276 3.938706 0 0 0 171 165 153 255 
0.3263419 1.355385 3.92104 0 0 0 227 160 203 255 
0.2749588 1.368874 3.928297 0 0 0 223 160 203 255 
-1.375654 1.283886 3.461961 0 0 0 178 164 151 255 
1.078884 0.01819886 4.1239 0 0 0 183 171 155 255 
-1.234047 1.172179 3.539853 0 0 0 171 163 152 255 
1.29655 -0.08605079 4.226215 0 0 0 219 211 192 255 
-1.309444 1.205341 3.530313 0 0 0 134 122 110 255 
1.109898 -0.06635006 4.19364 0 0 0 220 208 192 255 
0.734251 0.1101126 4.097281 0 0 0 157 142 123 255 
-1.626179 1.135107 3.430965 0 0 0 167 153 140 255 
1.272336 -0.1384675 4.294483 0 0 0 157 146 128 255 
1.291821 -0.1579066 4.309628 0 0 0 180 172 153 255 
-0.03970451 0.2647429 3.924713 0 0 0 169 157 143 255 
0.5062774 -0.02119878 4.123288 0 0 0 182 172 160 255 
-1.644301 0.995213 3.538311 0 0 0 192 178 165 255 
0.4754509 -0.02591389 4.120316 0 0 0 174 165 150 255 
1.397427 -0.4054247 4.396857 0 0 0 194 187 171 255 
-0.6020343 0.3830922 3.82513 0 0 0 153 139 130 255 
-1.813642 1.012068 3.512701 0 0 0 208 196 180 255 
-1.692108 0.9559739 3.545933 0 0 0 176 167 153 255 
0.6275944 -0.1289562 4.257431 0 0 0 226 220 208 255 
-1.465632 0.8232439 3.676749 0 0 0 181 169 155 255 
0.2090406 -0.05344518 4.131793 0 0 0 216 209 196 255 
0.09056423 -0.08858094 4.119917 0 0 0 191 175 159 255 
-1.43196 0.6733295 3.714742 0 0 0 204 191 175 255 
-1.722889 0.7847913 3.677184 0 0 0 210 202 189 255 
0.01598256 -0.1211469 4.139423 0 0 0 170 157 139 255 
-1.414872 0.5596545 3.777063 0 0 0 184 172 158 255 
-1.171063 0.5009466 3.886362 0 0 0 182 170 156 255 
0.1053318 -0.1762658 4.247901 0 0 0 205 199 187 255 
-0.9547882 0.3590466 4.013092 0 0 0 150 140 128 255 
0.1112167 -0.3052896 4.266398 0 0 0 170 162 149 255 
-0.4144288 -0.01269625 4.144828 0 0 0 200 188 174 255 
0.96063 -0.7179048 4.534541 0 0 0 224 213 195 255 
-0.8515362 0.1948556 4.067574 0 0 0 210 197 181 255 
-0.5659109 0.01786121 4.155657 0 0 0 175 163 147 255 
0.8592552 -0.6917285 4.537729 0 0 0 222 210 194 255 
-0.0457171 -0.2858309 4.30204 0 0 0 171 159 145 255 
-0.5808147 -0.06345109 4.190853 0 0 0 213 203 193 255 
-0.06353533 -0.3533312 4.345027 0 0 0 217 205 189 255 
-1.992009 0.5184017 3.798043 0 0 0 206 193 177 255 
-1.441505 0.2267778 3.953761 0 0 0 174 159 140 255 
0.8976869 -0.822494 4.615211 0 0 0 210 197 178 255 
-0.07948532 -0.3628342 4.358999 0 0 0 206 197 180 255 
-0.405795 -0.3483501 4.253644 0 0 0 181 171 159 255 
-2.111292 0.5070875 3.813778 0 0 0 176 167 152 255 
-1.61563 0.2646111 3.983863 0 0 0 164 148 133 255 
-1.374999 0.1231936 4.051954 0 0 0 171 156 137 255 
-1.633018 0.2401981 4.006299 0 0 0 156 143 127 255 
-1.43393 0.1193182 4.060755 0 0 0 181 166 150 255 
-0.04329717 -0.5664302 4.45802 0 0 0 226 218 207 255 
-1.448017 0.1012921 4.086083 0 0 0 155 140 121 255 
-0.5997521 -0.448047 4.344792 0 0 0 194 178 162 255 
-1.660143 0.150442 4.116422 0 0 0 141 132 123 255 
-1.057012 -0.2272098 4.258245 0 0 0 216 204 188 255 
-1.076245 -0.2557998 4.276258 0 0 0 220 208 192 255 
-0.7424506 -0.4480204 4.353095 0 0 0 181 166 147 255 
-1.63388 0.0256192 4.212446 0 0 0 119 109 99 255 
-0.5545176 -0.6165029 4.462375 0 0 0 155 139 123 255 
-2.217562 0.129357 4.005963 0 0 0 140 124 108 255 
-2.131614 0.03145039 4.088615 0 0 0 144 130 117 255 
0.7209333 -0.05078992 4.220491 0 0 0 164 158 153 255 
0.3499029 -0.08926494 4.187632 0 0 0 186 173 156 255 
-0.8361658 2.098345 3.084867 0 0 0 167 157 145 255 
-0.568703 1.432978 3.498747 0 0 0 177 159 138 255 
-0.9309798 0.6709999 3.794443 0 0 0 148 125 105 255 
-1.818762 0.02882097 4.134328 0 0 0 173 162 151 255 
-1.460325 1.615075 3.205224 0 0 0 196 178 157 255 
-0.420389 2.216172 2.940261 0 0 0 197 188 175 255 
-1.700208 1.587151 3.196181 0 0 0 163 152 140 255 
-1.704929 0.4658724 3.846767 0 0 0 129 122 115 255 
-0.3562551 0.3308708 3.881029 0 0 0 179 164 149 255 
1.344337 1.564843 3.415645 0 0 0 107 103 98 255 
2.058468 2.734321 2.587999 0 0 0 50 44 38 255 
-1.211439 1.299677 3.423389 0 0 0 202 189 178 255 
0.620447 3.609001 2.165938 0 0 0 178 169 156 255 
0.620346 -0.01075762 4.112944 0 0 0 174 159 140 255 
-1.232066 -0.2594133 4.241132 0 0 0 210 200 188 255 
-2.145919 -0.1114136 4.217064 0 0 0 189 176 157 255 
3.659789 4.391906 1.696468 0 0 0 150 144 132 255 
-0.6563488 3.807082 2.101522 0 0 0 175 167 156 255 
4.004128 4.261265 1.850388 0 0 0 143 141 129 255 
4.40253 3.907598 2.050483 0 0 0 161 157 146 255 
-1.024906 3.553587 2.176405 0 0 0 174 165 148 255 
0.3762696 0.2271926 1.874219 0 0 0 180 173 163 255 
5.471537 3.717831 2.244678 0 0 0 151 145 129 255 
0.6772988 0.2839372 3.98495 0 0 0 159 147 131 255 
3.022758 3.232334 2.524827 0 0 0 0 0 0 255 
0.3425036 1.236186 3.732914 0 0 0 177 112 159 255 
0.6088609 1.645798 3.538551 0 0 0 196 132 171 255 
3.640912 4.326276 1.753642 0 0 0 173 167 155 255 
-2.029681 -0.1074111 4.182888 0 0 0 208 191 171 255 
1.102166 3.343613 2.244637 0 0 0 181 171 161 255 
-0.7666815 -0.1493786 4.185027 0 0 0 166 156 144 255 
-2.168967 -0.01162882 4.121544 0 0 0 146 130 114 255 
5.39216 3.683585 2.259071 0 0 0 157 152 133 255 
2.475317 2.899838 2.367517 0 0 0 186 180 168 255 
-1.01594 4.085424 1.904973 0 0 0 143 135 124 255 
0.272979 0.6762996 2.593194 0 0 0 197 196 192 255 
0.5078998 0.8378548 3.246696 0 0 0 141 129 113 255 
0.2733913 0.6677575 2.57846 0 0 0 204 206 203 255 
3.819966 4.2898 1.891605 0 0 0 142 136 120 255 
3.782581 4.25965 1.877136 0 0 0 167 161 149 255 
2.472272 2.909149 2.416706 0 0 0 171 164 154 255 
-0.7779027 -0.413499 4.335719 0 0 0 214 201 184 255 
-1.930985 -0.07508583 4.225579 0 0 0 149 132 112 255 
0.5432976 0.5670477 3.939114 0 0 0 210 203 195 255 
2.584882 0.6566362 3.768793 0 0 0 98 91 84 255 
1.42084 2.49685 2.674522 0 0 0 168 159 146 255 
0.9067802 2.765375 2.544231 0 0 0 144 136 126 255 
-0.2629032 -0.3794305 4.316395 0 0 0 188 178 168 255 
1.687363 2.705619 2.518604 0 0 0 171 163 148 255 
0.3344218 0.6448461 1.688305 0 0 0 135 144 139 255 
0.6715996 0.7552021 2.078495 0 0 0 114 122 125 255 
1.391311 0.09639957 4.068338 0 0 0 202 189 174 255 
0.3072577 0.6937104 2.730001 0 0 0 205 202 185 255 
-0.4733637 2.841027 2.78201 0 0 0 161 152 145 255 
-1.221732 2.029086 2.91832 0 0 0 197 189 178 255 
1.148855 0.5399137 3.93346 0 0 0 185 178 168 255 
0.0839745 -1.329386 4.78723 0 0 0 215 205 196 255 
3.86674 3.005022 2.55877 0 0 0 133 129 120 255 
-1.68574 0.08747498 4.070693 0 0 0 0 0 0 255 
-1.658635 0.05673223 4.097978 0 0 0 117 112 109 255 
0.0839745 -1.329386 4.78723 0 0 0 215 205 196 255 
1.647038 -0.2221988 4.457201 0 0 0 207 201 189 255 
0.4199398 0.2941219 2.164298 0 0 0 236 245 250 255 
-0.3383667 3.750764 2.221839 0 0 0 101 94 84 255 
-1.149629 -1.038314 4.774334 0 0 0 0 0 0 255 
1.05352 0.9529248 3.797695 0 0 0 166 158 147 255 
-1.480634 0.1078127 3.960553 0 0 0 181 168 152 255 
-1.313919 -0.4122592 4.290868 0 0 0 183 171 155 255 
0.1530206 -1.089996 4.770985 0 0 0 179 166 151 255 
0.1003602 2.265435 3.054378 0 0 0 163 155 144 255 
1.064577 1.382284 3.65631 0 0 0 177 171 159 255 
-2.049134 -0.4307989 4.420874 0 0 0 154 138 123 255 
-1.194069 0.478834 3.958847 0 0 0 205 197 186 255 
-0.4714937 -0.02753641 4.139438 0 0 0 175 167 154 255 
-0.681787 0.06933884 4.10748 0 0 0 179 171 156 255 
0.4620028 0.6046755 2.640918 0 0 0 223 233 245 255 
-1.194069 0.478834 3.958847 0 0 0 205 197 186 255 
-2.049134 -0.4307989 4.420874 0 0 0 154 138 123 255 
-1.935284 -0.2777332 4.277071 0 0 0 177 161 145 255 
-2.049134 -0.4307989 4.420874 0 0 0 154 138 123 255 
-1.432046 -0.8217887 4.600157 0 0 0 209 197 183 255 
-2.050923 -0.5468915 4.463996 0 0 0 205 195 183 255 
-2.209728 -0.7610743 4.467784 0 0 0 188 172 157 255 
4.862878 2.815684 2.625336 0 0 0 162 160 148 255 
0.3569061 0.5389642 2.309435 0 0 0 224 161 190 255 
-0.1580721 4.107902 1.912733 0 0 0 168 160 149 255 
1.699484 1.890571 3.12493 0 0 0 149 142 132 255 
0.2137837 0.8140864 2.716764 0 0 0 207 223 238 255 
0.1802127 1.767372 3.542351 0 0 0 129 119 107 255 
-0.7417343 1.03158 3.622019 0 0 0 201 194 186 255 
-0.1941241 -0.05584895 4.148867 0 0 0 212 205 189 255 
0.4445404 0.8432418 3.06311 0 0 0 212 223 227 255 
0.4533766 0.9972715 3.288714 0 0 0 212 226 228 255 
-1.278152 1.72894 3.151919 0 0 0 166 156 144 255 
0.6768605 0.3020108 4.011868 0 0 0 170 158 144 255 
-1.836013 1.098341 3.521001 0 0 0 190 178 164 255 
-0.2541437 -0.2949652 4.222054 0 0 0 183 173 161 255 
-0.4104873 -0.2390784 4.230482 0 0 0 201 197 186 255 
-0.6040083 -0.553493 4.431979 0 0 0 171 159 145 255 
-0.3118622 3.289223 2.423276 0 0 0 155 148 138 255 
-0.6040083 -0.553493 4.431979 0 0 0 171 159 145 255 
-0.2195694 -1.119536 4.620992 0 0 0 219 211 200 255 
-1.596813 -0.621455 4.512742 0 0 0 180 164 149 255 
-1.071248 -1.144407 4.830498 0 0 0 196 181 160 255 
-0.2477681 -0.7306975 4.50012 0 0 0 165 155 145 255 
-0.6807801 4.965349 1.475448 0 0 0 150 141 132 255 
0.6747132 0.2979262 4.008235 0 0 0 170 158 144 255 
0.653509 0.2651467 3.997588 0 0 0 170 158 144 255 
-1.531966 3.057444 2.475633 0 0 0 128 121 115 255 
-0.8409431 4.186921 1.823335 0 0 0 132 127 123 255 
-0.4104873 -0.2390784 4.230482 0 0 0 201 197 186 255 
-1.070496 -1.141516 4.833775 0 0 0 196 181 160 255 
-1.187169 -0.8997239 4.636754 0 0 0 203 188 169 255 
-1.596813 -0.621455 4.512742 0 0 0 180 164 149 255 
-0.1838543 -1.057876 4.682959 0 0 0 219 211 200 255 
-1.490931 -0.1692601 4.243504 0 0 0 203 193 180 255 
1.063062 -0.06066318 4.225612 0 0 0 0 0 0 255 
0.2658587 -0.06991147 4.17922 0 0 0 192 180 164 255 
-0.8922132 -0.1135497 4.179993 0 0 0 174 162 148 255 
-1.797026 -0.8672992 4.53405 0 0 0 186 171 152 255 
-0.6102285 2.204537 2.971468 0 0 0 191 183 172 255 
3.029558 3.854502 1.939116 0 0 0 136 132 120 255 
-0.108057 5.234712 1.24952 0 0 0 157 150 140 255 
3.468913 2.193794 2.97465 0 0 0 171 163 150 255 
0.3127851 3.550643 2.193585 0 0 0 157 154 149 255 
-1.227883 4.078522 1.845916 0 0 0 175 172 165 255 
-0.589273 3.614015 2.216228 0 0 0 162 159 152 255 
0.2283044 2.958867 2.552461 0 0 0 169 161 150 255 
1.66864 1.265613 3.444535 0 0 0 148 141 125 255 
1.951642 1.004784 3.633675 0 0 0 175 167 156 255 
1.299647 1.449463 3.521078 0 0 0 153 143 133 255 
-0.9845326 2.404479 2.871924 0 0 0 162 154 143 255 
1.543423 1.032155 3.645949 0 0 0 163 155 144 255 
-0.6659015 -0.8415663 4.701449 0 0 0 179 166 150 255 
-2.082364 0.1689713 4.029039 0 0 0 197 190 180 255 
0.7049285 0.5343806 3.926698 0 0 0 168 160 147 255 
-0.4078751 1.677615 3.3732 0 0 0 113 108 104 255 
2.686018 0.7592741 3.790345 0 0 0 147 139 128 255 
-1.663109 3.10405 2.377672 0 0 0 172 162 152 255 
-0.9027687 2.979712 2.600623 0 0 0 108 103 99 255 
-1.23166 3.510496 2.24301 0 0 0 135 126 117 255 
1.012601 0.02339573 4.141318 0 0 0 204 195 180 255 
1.45372 -0.147506 4.295511 0 0 0 208 201 185 255 
0.3944072 -0.9012417 4.636127 0 0 0 208 195 179 255 
0.3134415 1.316368 3.770342 0 0 0 128 66 113 255 
4.198032 3.422745 2.46182 0 0 0 129 123 111 255 
0.1498751 4.329997 1.661842 0 0 0 160 152 141 255 
-0.5881221 4.311182 1.763137 0 0 0 158 155 150 255 
0.337523 0.7254849 2.777886 0 0 0 232 166 193 255 
0.344213 0.8062238 2.93294 0 0 0 242 178 201 255 
2.732302 0.8328097 3.694199 0 0 0 180 171 156 255 
-1.781027 2.638742 2.790008 0 0 0 186 179 171 255 
0.2953797 1.089826 3.456604 0 0 0 146 81 126 255 
-0.4935451 1.562264 3.454471 0 0 0 177 167 155 255 
0.2523232 1.329736 3.939781 0 0 0 107 95 89 255 
-0.3285868 0.3265664 3.924966 0 0 0 161 153 142 255 
0.3289714 -0.0208653 4.118599 0 0 0 179 167 153 255 
-1.633553 -0.9589388 4.625807 0 0 0 193 180 164 255 
-0.8366883 -1.20169 4.699385 0 0 0 210 194 179 255 
-1.834181 -0.6575194 4.390438 0 0 0 186 170 154 255 
-0.1856859 -1.289416 4.721877 0 0 0 173 157 142 255 
-1.352944 -0.6659251 4.473107 0 0 0 207 193 180 255 
-2.180856 -0.1625912 4.194744 0 0 0 200 187 170 255 
-0.1993469 -0.9473446 4.593702 0 0 0 172 160 144 255 
-2.172876 0.2043113 4.009192 0 0 0 199 190 181 255 
-0.2801378 -0.4754509 4.320946 0 0 0 219 210 201 255 
-0.9275571 0.003558213 4.116681 0 0 0 204 191 172 255 
-0.5213454 -0.2098652 4.214565 0 0 0 218 211 199 255 
0.1032627 -0.2371797 4.259616 0 0 0 211 207 198 255 
-0.3449549 0.08120524 4.078532 0 0 0 204 195 180 255 
0.5936835 -0.3143912 4.316957 0 0 0 159 151 140 255 
-0.9165841 0.5012549 3.916905 0 0 0 190 182 171 255 
0.6218346 -0.1334721 4.272054 0 0 0 206 200 191 255 
-0.4736822 0.4792242 3.853109 0 0 0 194 191 186 255 
0.3386903 0.1126352 4.00598 0 0 0 176 164 149 255 
0.2197119 1.242901 3.90967 0 0 0 107 95 89 255 
0.9601187 0.4202692 3.920816 0 0 0 199 199 191 255 
-0.5149265 5.698323 1.088115 0 0 0 141 133 122 255 
0.22756 4.689872 1.620971 0 0 0 160 152 141 255 
-0.50244 1.516378 3.443146 0 0 0 177 167 155 255 
0.2953797 1.089826 3.456604 0 0 0 146 81 126 255 
-1.781027 2.638742 2.790008 0 0 0 186 179 171 255 
0.6192822 -0.1392584 4.269218 0 0 0 206 200 191 255 
2.732302 0.8328097 3.694199 0 0 0 180 171 156 255 
0.3418635 0.8017342 2.933077 0 0 0 242 178 201 255 
3.584998 2.977358 2.628472 0 0 0 147 144 135 255 
-0.3672643 2.605471 2.702214 0 0 0 184 179 173 255 
0.337523 0.7254849 2.777886 0 0 0 232 166 193 255 
-0.5213454 -0.2098652 4.214565 0 0 0 218 211 199 255 
-0.6569141 -0.1629509 4.17599 0 0 0 209 205 194 255 
-1.352944 -0.6659251 4.473107 0 0 0 207 193 180 255 
-1.834181 -0.6575194 4.390438 0 0 0 186 170 154 255 
-1.633553 -0.9589388 4.625807 0 0 0 193 180 164 255 
0.1133692 4.018441 1.954406 0 0 0 165 162 155 255 
1.328882 5.569616 1.098719 0 0 0 150 142 129 255 
0.3919919 0.2978769 1.919109 0 0 0 244 249 252 255 
0.4301646 0.3114735 2.046591 0 0 0 243 253 254 255 
-0.05666151 4.810771 1.479355 0 0 0 145 138 132 255 
0.934585 4.17587 1.833661 0 0 0 173 169 160 255 
0.02526079 4.491644 1.680887 0 0 0 136 129 123 255 
4.145273 2.343103 2.902252 0 0 0 138 129 114 255 
2.329855 2.476528 2.672198 0 0 0 169 162 154 255 
-0.7512445 3.865787 2.060555 0 0 0 151 146 140 255 
0.3037016 0.587721 2.518958 0 0 0 231 238 254 255 
0.4091246 0.5818864 2.600094 0 0 0 233 244 248 255 
0.3029436 2.648397 2.814867 0 0 0 156 152 142 255 
-0.6240616 2.780495 2.603391 0 0 0 168 165 160 255 
0.3271517 2.456686 2.886568 0 0 0 125 120 116 255 
-1.196871 2.831088 2.66258 0 0 0 161 157 148 255 
2.420558 0.482314 3.904438 0 0 0 174 170 159 255 
0.3865812 1.101388 3.543201 0 0 0 218 231 237 255 
-0.8610637 1.260383 3.537843 0 0 0 152 145 136 255 
-0.722941 0.8527395 3.684046 0 0 0 203 198 189 255 
0.1359476 0.328939 3.964317 0 0 0 197 194 187 255 
0.2226591 0.1306687 3.9986 0 0 0 170 160 150 255 
-0.6656076 0.4442746 3.815762 0 0 0 176 164 152 255 
-1.211923 0.7033578 3.768222 0 0 0 207 198 189 255 
0.04541455 -0.04867397 4.113113 0 0 0 210 202 189 255 
1.356907 -0.7025177 4.507558 0 0 0 206 197 180 255 
0.215397 -0.6349456 4.487171 0 0 0 186 176 164 255 
-0.5026292 -0.8509867 4.616107 0 0 0 182 175 159 255 
-0.840673 -0.7637534 4.575198 0 0 0 187 174 157 255 
-1.615961 -0.5260399 4.449753 0 0 0 203 191 179 255 
-1.873775 -0.4878471 4.437481 0 0 0 205 197 186 255 
-1.088031 -1.024126 4.749695 0 0 0 127 116 110 255 
-1.645125 -0.8381154 4.55231 0 0 0 207 195 181 255 
-1.790579 -0.7439478 4.570054 0 0 0 198 183 164 255 
-1.730773 -0.8169262 4.569737 0 0 0 173 157 141 255 
-2.254943 -0.5214732 4.481605 0 0 0 148 134 123 255 
-1.757214 -0.8545855 4.599699 0 0 0 216 206 194 255 
-1.587731 -0.2858628 4.304493 0 0 0 178 162 147 255 
1.20798 5.274505 1.326379 0 0 0 108 105 98 255 
-2.254943 -0.5214732 4.481605 0 0 0 148 134 123 255 
-2.174812 -0.6641572 4.3833 0 0 0 192 178 165 255 
-0.8398538 -0.7605403 4.577781 0 0 0 187 174 157 255 
-1.261706 0.1365443 4.02925 0 0 0 185 172 156 255 
1.356511 -0.7016259 4.506845 0 0 0 206 197 180 255 
0.04427164 -0.04908457 4.111572 0 0 0 210 202 189 255 
1.448762 -0.6620861 4.475013 0 0 0 200 189 171 255 
-0.6669581 0.4389894 3.813571 0 0 0 176 164 152 255 
-0.9302747 1.188817 3.555015 0 0 0 199 195 186 255 
-1.238756 1.310795 3.431974 0 0 0 193 181 167 255 
-0.8610637 1.260383 3.537843 0 0 0 152 145 136 255 
2.186276 0.2979844 3.969317 0 0 0 176 169 159 255 
1.574531 1.161604 3.571074 0 0 0 188 181 165 255 
-1.413774 3.925883 1.925415 0 0 0 152 145 137 255 
2.870997 2.270888 2.934363 0 0 0 178 170 157 255 
0.3919919 0.2978769 1.919109 0 0 0 244 249 252 255 
0.7494118 0.09547321 4.088623 0 0 0 162 153 136 255 
0.4954339 1.171466 3.668496 0 0 0 196 210 219 255 
-1.59073 1.98953 2.944731 0 0 0 189 185 176 255 
0.4239005 1.097383 3.446484 0 0 0 203 208 205 255 
-1.701915 2.662262 2.731102 0 0 0 152 143 134 255 
1.252151 1.737895 3.279689 0 0 0 191 184 174 255 
1.674341 1.907078 3.247416 0 0 0 116 111 105 255 
0.1548584 2.730768 2.773635 0 0 0 0 0 0 255 
2.284687 1.481977 3.360113 0 0 0 176 173 166 255 
1.959567 1.812008 3.183375 0 0 0 170 162 149 255 
0.2905081 0.5864462 2.600236 0 0 0 233 241 252 255 
-1.42978 1.091478 3.56751 0 0 0 0 0 0 255 
-0.1072019 -0.4074805 4.370555 0 0 0 167 157 145 255 
0.6020386 -0.7224765 4.555893 0 0 0 213 205 194 255 
-0.1243962 -0.2804941 4.274151 0 0 0 213 204 195 255 
0.4742913 -0.5025228 4.442937 0 0 0 165 153 139 255 
1.248332 1.732108 3.278274 0 0 0 191 184 174 255 
-1.320524 3.0374 2.55351 0 0 0 179 174 168 255 
1.626422 1.836227 3.23419 0 0 0 116 111 105 255 
-1.736643 1.176358 3.384938 0 0 0 119 110 102 255 
0.5919619 0.1988991 4.050535 0 0 0 174 164 152 255 
3.699642 3.895696 1.988571 0 0 0 162 159 150 255 
1.450043 5.356759 1.238303 0 0 0 174 173 168 255 
2.660854 1.938737 3.120327 0 0 0 174 171 162 255 
2.410912 2.021155 3.006456 0 0 0 169 169 161 255 
-0.03135456 3.430223 2.299124 0 0 0 170 162 151 255 
1.686381 2.512272 2.709279 0 0 0 183 182 177 255 
3.561419 2.655824 2.757083 0 0 0 129 125 114 255 
0.1820127 4.821622 1.492386 0 0 0 134 127 119 255 
1.09202 4.319798 1.74777 0 0 0 128 123 117 255 
4.289382 2.782885 2.606061 0 0 0 165 161 149 255 
2.861675 3.535435 2.097515 0 0 0 172 172 162 255 
0.9312712 5.112437 1.359377 0 0 0 130 125 119 255 
1.0236 5.088881 1.389454 0 0 0 159 160 155 255 
4.072182 2.467839 2.814351 0 0 0 172 163 146 255 
0.2743773 0.2519851 1.902053 0 0 0 235 241 241 255 
1.450043 5.356759 1.238303 0 0 0 174 173 168 255 
0.5701503 5.732499 0.9677422 0 0 0 164 159 153 255 
0.3020728 -1.047212 4.708367 0 0 0 219 207 195 255 
-1.812145 -0.8166843 4.606099 0 0 0 182 166 150 255 
-2.213745 -0.5931951 4.468663 0 0 0 190 177 161 255 
-0.4900528 -1.416244 4.903874 0 0 0 203 188 169 255 
-2.321402 -0.5179577 4.44645 0 0 0 158 142 129 255 
-0.2291557 -1.22182 4.689275 0 0 0 179 163 148 255 
-0.6517895 -0.7684253 4.613694 0 0 0 165 154 136 255 
-1.421993 -0.4451878 4.372063 0 0 0 203 190 174 255 
-1.862067 -0.123817 4.145782 0 0 0 163 149 140 255 
-2.027542 0.06735358 4.060904 0 0 0 161 147 136 255 
-1.27333 3.480483 2.290848 0 0 0 103 96 88 255 
0.5446367 4.895103 1.487135 0 0 0 164 163 158 255 
3.957167 3.542111 2.274032 0 0 0 175 167 156 255 
5.427559 3.599037 2.32486 0 0 0 124 118 104 255 
0.5433038 4.886211 1.48859 0 0 0 164 163 158 255 
0.4275231 0.439824 2.289207 0 0 0 234 243 244 255 
2.44202 1.614669 3.330231 0 0 0 121 117 108 255 
-0.2018682 3.417274 2.348185 0 0 0 132 128 117 255 
2.44202 1.614669 3.330231 0 0 0 121 117 108 255 
1.633623 1.652831 3.315912 0 0 0 0 0 0 255 
2.797353 1.869498 3.129683 0 0 0 187 181 165 255 
2.805358 2.128056 3.062994 0 0 0 125 122 113 255 
2.805358 2.128056 3.062994 0 0 0 125 122 113 255 
0.4440199 4.410639 1.775093 0 0 0 141 131 121 255 
3.54306 3.313735 2.411247 0 0 0 105 100 89 255 
0.9037641 4.761005 1.528729 0 0 0 125 121 112 255 
0.3988893 4.922221 1.486669 0 0 0 133 126 116 255 
0.9037641 4.761005 1.528729 0 0 0 125 121 112 255 
3.33291 3.075061 2.577483 0 0 0 171 171 163 255 
0.3836252 0.3141294 1.972146 0 0 0 197 190 174 255 
3.333464 3.840841 2.102669 0 0 0 134 127 117 255 
-1.668927 -0.9511609 4.629822 0 0 0 176 163 146 255 
-1.291562 -0.8659561 4.573458 0 0 0 198 187 173 255 
0.6497805 4.131231 1.925259 0 0 0 163 159 150 255 
0.3988893 4.922221 1.486669 0 0 0 133 126 116 255 
-0.3967886 -1.561549 5.026437 0 0 0 172 156 140 255 
-0.5311558 -1.485288 4.998483 0 0 0 163 147 131 255 
-1.070145 -1.088283 4.788238 0 0 0 207 192 173 255 
-1.291562 -0.8659561 4.573458 0 0 0 198 187 173 255 
-1.052962 -0.9310006 4.628832 0 0 0 196 181 162 255 
-0.9508431 -0.6979825 4.531229 0 0 0 223 215 204 255 
-2.20322 0.1493837 4.012609 0 0 0 139 130 121 255 
0.4431365 -1.044028 4.686597 0 0 0 204 191 174 255 
-1.378761 -0.05923969 4.208242 0 0 0 198 188 176 255 
-1.695863 0.2281263 4.18922 0 0 0 104 100 99 255 
-2.090446 0.3170392 3.981059 0 0 0 160 146 133 255 
-0.3556599 -0.4392229 4.261925 0 0 0 210 203 193 255 
-1.980913 0.479368 3.843496 0 0 0 185 173 159 255 
-0.2246732 -0.3656272 4.297906 0 0 0 209 200 191 255 
0.5110002 -0.6440885 4.517313 0 0 0 211 203 192 255 
1.1301 -0.8042848 4.58022 0 0 0 189 177 161 255 
0.09574272 -0.1148647 4.186462 0 0 0 192 183 166 255 
0.4450498 0.02797935 4.057468 0 0 0 160 153 137 255 
-1.875188 1.196096 3.358069 0 0 0 135 125 116 255 
-0.8429993 1.20837 3.591131 0 0 0 193 190 181 255 
0.3965033 5.091102 1.41442 0 0 0 157 154 147 255 
-1.313157 1.947639 3.044428 0 0 0 189 184 178 255 
0.1160423 1.213355 3.401557 0 0 0 187 205 219 255 
-1.831279 2.354665 2.868197 0 0 0 115 110 107 255 
0.5373935 1.083473 3.423196 0 0 0 103 108 102 255 
1.360876 1.133791 3.638225 0 0 0 195 191 182 255 
1.390685 1.367383 3.572836 0 0 0 134 127 117 255 
2.098835 0.7071429 3.735067 0 0 0 191 188 179 255 
1.397196 1.479303 3.45987 0 0 0 176 164 148 255 
-0.9167415 2.703362 2.668462 0 0 0 163 159 150 255 
-1.004115 3.184419 2.579751 0 0 0 138 131 123 255 
1.856945 1.658587 3.326359 0 0 0 148 142 130 255 
2.297355 1.639367 3.35124 0 0 0 181 180 175 255 
1.937722 1.765005 3.245476 0 0 0 154 144 132 255 
-0.4957134 3.375461 2.384524 0 0 0 98 93 89 255 
-0.2288122 3.247041 2.412998 0 0 0 163 158 152 255 
-0.7603552 3.427868 2.259354 0 0 0 134 125 116 255 
-0.9410494 3.559938 2.163781 0 0 0 145 136 127 255 
3.924711 1.640048 3.402775 0 0 0 172 166 150 255 
2.805358 2.128056 3.062994 0 0 0 125 122 113 255 
3.636943 1.953219 3.189384 0 0 0 171 167 156 255 
3.74983 1.791697 3.228045 0 0 0 180 178 166 255 
0.4208314 4.599095 1.609399 0 0 0 132 123 114 255 
0.3970424 3.437696 2.252013 0 0 0 178 177 173 255 
0.1337692 -0.1531968 4.245609 0 0 0 159 150 141 255 
-0.5422962 0.0821745 4.118539 0 0 0 174 164 152 255 
0.4363258 -0.6190072 4.479936 0 0 0 214 206 195 255 
4.373056 2.001339 3.102093 0 0 0 162 156 142 255 
0.4440199 4.410639 1.775093 0 0 0 141 131 121 255 
1.749969 5.541036 1.119574 0 0 0 161 162 156 255 
1.014416 5.582652 1.104198 0 0 0 164 164 159 255 
4.770136 3.608387 2.257038 0 0 0 165 165 155 255 
-0.1617218 6.121908 0.8877088 0 0 0 142 138 129 255 
0.8061523 5.398695 1.210463 0 0 0 165 158 148 255 
0.2698664 0.0124713 4.11407 0 0 0 182 174 161 255 
1.546636 1.125349 3.623038 0 0 0 149 141 128 255 
1.81597 1.06705 3.594401 0 0 0 194 188 176 255 
-0.3575809 2.305858 2.875113 0 0 0 158 150 139 255 
0.2380199 0.5434163 1.535268 0 0 0 153 155 150 255 
5.504911 3.37716 2.432417 0 0 0 143 137 123 255 
3.171854 4.289657 1.843044 0 0 0 170 168 156 255 
1.050468 5.282383 1.286488 0 0 0 158 157 152 255 
0.6980204 5.417585 1.197733 0 0 0 171 163 152 255 
0.7531261 5.306784 1.285975 0 0 0 136 129 120 255 
4.428227 3.012971 2.551008 0 0 0 126 122 111 255 
1.362486 4.307492 1.738385 0 0 0 142 137 131 255 
3.38331 3.216724 2.448915 0 0 0 123 120 111 255 
3.64433 2.936236 2.602259 0 0 0 156 153 144 255 
3.084971 3.108588 2.476238 0 0 0 142 134 123 255 
2.772278 3.187884 2.394443 0 0 0 142 138 127 255 
3.481577 2.912563 2.62906 0 0 0 158 155 146 255 
3.411491 3.004961 2.649856 0 0 0 128 124 115 255 
-0.08367035 4.252413 1.773985 0 0 0 175 173 168 255 
0.008713813 4.055708 1.876095 0 0 0 172 167 161 255 
0.4694798 0.4568473 2.322839 0 0 0 155 157 155 255 
3.316026 2.39131 2.870821 0 0 0 152 148 136 255 
0.307982 3.812914 2.101279 0 0 0 164 161 156 255 
-0.2260817 3.81585 2.093019 0 0 0 158 150 139 255 
0.4225253 3.216756 2.330659 0 0 0 134 129 123 255 
-0.8376124 3.95908 1.993431 0 0 0 136 131 125 255 
0.3686232 2.897198 2.553492 0 0 0 173 165 154 255 
-1.045499 3.582398 2.270282 0 0 0 0 0 0 255 
2.860267 1.514112 3.36684 0 0 0 152 146 134 255 
1.387807 2.056284 2.968939 0 0 0 175 167 154 255 
-1.370072 3.42059 2.262893 0 0 0 171 169 164 255 
3.077473 1.102676 3.582453 0 0 0 134 128 116 255 
-1.007121 2.588562 2.724535 0 0 0 195 190 184 255 
-1.208452 2.541262 2.753927 0 0 0 150 143 135 255 
0.3689112 0.891385 3.134321 0 0 0 129 97 76 255 
0.3689208 1.048007 3.372165 0 0 0 185 138 158 255 
-0.2969681 1.933921 3.267963 0 0 0 184 177 167 255 
-1.750624 1.320511 3.376353 0 0 0 187 180 172 255 
1.276584 -0.1324581 4.285187 0 0 0 166 157 142 255 
0.587137 0.01519507 4.158127 0 0 0 182 176 164 255 
1.282224 -0.561394 4.391958 0 0 0 174 162 148 255 
-1.792713 0.7273422 3.671752 0 0 0 173 163 151 255 
1.221047 -0.7930001 4.583333 0 0 0 195 188 170 255 
-1.240147 0.2552705 3.940566 0 0 0 202 194 183 255 
-0.1106866 -0.3401252 4.344213 0 0 0 171 163 150 255 
-0.332951 -0.3157871 4.309365 0 0 0 210 206 195 255 
-0.6070843 -0.2424972 4.217078 0 0 0 173 165 154 255 
-1.720523 0.09448575 4.217494 0 0 0 165 158 148 255 
-1.008582 -0.4877648 4.354362 0 0 0 186 174 160 255 
-2.100453 0.09434965 4.102697 0 0 0 140 127 119 255 
-1.452469 -0.7856974 4.559762 0 0 0 228 220 207 255 
-2.050678 -0.4844077 4.483535 0 0 0 218 211 196 255 
-1.169678 -0.9726534 4.721286 0 0 0 161 144 128 255 
-1.897841 -0.650738 4.519608 0 0 0 202 187 168 255 
-1.311433 -0.969147 4.669307 0 0 0 174 158 142 255 
-0.1023331 -1.573023 4.967023 0 0 0 206 192 179 255 
-1.094604 -1.066394 4.777665 0 0 0 128 115 106 255 
-1.753304 -0.8865697 4.562703 0 0 0 216 206 194 255 
-1.669035 -1.059622 4.637794 0 0 0 162 145 127 255 
0.7543166 2.686352 2.617015 0 0 0 175 167 156 255 
2.334386 1.758381 3.228474 0 0 0 176 168 155 255 
-0.5561389 1.595155 3.427151 0 0 0 0 0 0 255 
-1.93144 1.362589 3.342269 0 0 0 193 189 180 255 
0.4296594 -0.989227 4.651352 0 0 0 214 201 185 255 
-2.103606 0.5802245 3.804857 0 0 0 0 0 0 255 
3.239198 4.214537 1.80382 0 0 0 131 127 118 255 
3.68641 4.103414 1.973608 0 0 0 136 130 118 255 
3.64433 2.936236 2.602259 0 0 0 156 153 144 255 
0.7920178 4.279804 1.842597 0 0 0 177 171 159 255 
-0.6084896 4.792655 1.539538 0 0 0 172 165 155 255 
0.3938316 4.364974 1.828621 0 0 0 153 143 134 255 
-1.10724 3.547235 2.23466 0 0 0 174 167 155 255 
1.5722 1.983415 3.079325 0 0 0 143 134 119 255 
3.077473 1.102676 3.582453 0 0 0 134 128 116 255 
1.325378 -0.0125381 4.148398 0 0 0 205 195 183 255 
-1.364013 1.204808 3.575446 0 0 0 0 0 0 255 
0.6127162 -0.0156067 4.200924 0 0 0 193 186 176 255 
-0.9215651 0.5045611 3.914684 0 0 0 193 186 171 255 
0.4470437 -0.3944935 4.297331 0 0 0 164 155 140 255 
0.8446825 -0.6830402 4.537317 0 0 0 206 196 186 255 
0.8497062 -0.6810123 4.54133 0 0 0 204 189 168 255 
-1.331625 -0.9110777 4.604643 0 0 0 185 176 161 255 
2.829781 1.408219 3.388555 0 0 0 182 176 164 255 
0.4238045 -0.9929129 4.647601 0 0 0 214 201 185 255 
1.135656 4.182827 1.838257 0 0 0 182 181 177 255 
2.646374 3.04776 2.425293 0 0 0 178 175 168 255 
-2.186438 -0.5102225 4.332769 0 0 0 208 196 184 255 
-1.3465 1.264351 3.481042 0 0 0 136 126 116 255 
-0.1838744 1.053209 3.806407 0 0 0 152 146 134 255 
2.557019 2.296047 2.898869 0 0 0 171 168 159 255 
0.3431984 1.211408 3.668251 0 0 0 156 132 145 255 
-1.424904 1.852718 3.038512 0 0 0 141 131 122 255 
-0.8122641 1.973287 3.165602 0 0 0 92 93 88 255 
-0.5907269 1.709158 3.194314 0 0 0 180 173 165 255 
1.426964 0.9959763 3.687175 0 0 0 193 189 179 255 
-1.764982 0.702783 3.686327 0 0 0 172 163 148 255 
-0.7283779 2.217684 2.954642 0 0 0 153 144 135 255 
-1.715249 2.863919 2.650384 0 0 0 131 122 115 255 
-1.438467 2.85738 2.557276 0 0 0 153 150 143 255 
2.823304 0.7933955 3.728974 0 0 0 175 167 154 255 
2.699942 0.8476368 3.67027 0 0 0 181 172 157 255 
0.365414 0.7804499 2.923609 0 0 0 135 78 71 255 
-1.402032 3.067738 2.549547 0 0 0 0 0 0 255 
3.736184 4.539576 1.561384 0 0 0 119 116 107 255 
2.295437 1.669079 3.326253 0 0 0 186 183 176 255 
2.446097 1.414671 3.337218 0 0 0 183 179 168 255 
0.3253295 0.6533171 2.626986 0 0 0 230 234 246 255 
1.480987 2.127165 2.915764 0 0 0 172 165 155 255 
-0.3706167 3.394853 2.3696 0 0 0 100 97 92 255 
-0.4013405 3.79874 2.259672 0 0 0 88 83 79 255 
-0.968241 3.792862 2.097177 0 0 0 175 172 167 255 
-0.4868048 3.805362 2.220686 0 0 0 117 114 109 255 
-0.1711248 3.493883 2.312043 0 0 0 112 105 95 255 
2.008762 2.296885 2.794128 0 0 0 189 186 177 255 
0.2874202 0.5594041 2.418289 0 0 0 232 232 237 255 
0.4461814 3.368485 2.286276 0 0 0 184 178 166 255 
-0.1401873 3.960549 2.172719 0 0 0 0 0 0 255 
-0.4195477 3.997897 1.968393 0 0 0 150 141 131 255 
0.2872004 0.4828207 2.327439 0 0 0 161 108 107 255 
1.84444 2.738235 2.534692 0 0 0 153 146 138 255 
0.3511724 0.4608928 2.327491 0 0 0 236 167 198 255 
0.3438448 4.367558 1.86401 0 0 0 121 113 105 255 
1.160659 3.397148 2.145218 0 0 0 176 172 163 255 
3.007098 2.728967 2.637251 0 0 0 149 146 131 255 
4.318255 2.267396 2.997585 0 0 0 174 170 154 255 
0.3703549 0.3873068 2.244682 0 0 0 160 106 114 255 
0.8073251 4.328178 1.648602 0 0 0 168 165 156 255 
0.5699759 0.6815022 1.992269 0 0 0 0 0 0 255 
1.057492 5.87618 0.9524869 0 0 0 172 168 157 255 
4.004128 4.261265 1.850388 0 0 0 143 139 128 255 
4.40253 3.907598 2.050483 0 0 0 156 154 142 255 
0.004950908 6.119953 0.870892 0 0 0 154 147 139 255 
0.8233454 5.084795 1.405953 0 0 0 160 156 145 255 
1.553358 4.246498 1.682463 0 0 0 139 136 129 255 
0.3559428 0.3154714 2.02432 0 0 0 244 253 248 255 
0.3692747 0.3407854 2.020138 0 0 0 244 253 248 255 
0.700397 5.123202 1.422937 0 0 0 112 109 104 255 
1.174018 4.787482 1.605306 0 0 0 128 124 115 255 
4.140002 2.172365 2.910271 0 0 0 0 0 0 255 
0.3404239 4.349281 1.864829 0 0 0 121 113 105 255 
0.2907468 0.5159088 2.354914 0 0 0 230 225 221 255 
1.258064 -0.2590211 4.370603 0 0 0 188 181 171 255 
1.615777 0.3689682 4.023489 0 0 0 178 172 160 255 
-0.1703914 -0.1885611 4.212718 0 0 0 206 197 182 255 
-1.666581 0.4995787 3.807753 0 0 0 162 150 137 255 
-0.4651158 5.407901 1.243743 0 0 0 86 81 75 255 
-1.905166 0.1937436 4.057639 0 0 0 139 129 119 255 
-1.60667 0.03695008 4.236349 0 0 0 150 145 139 255 
-1.387259 -0.7584693 4.568942 0 0 0 204 195 180 255 
-2.217006 -0.5703098 4.410864 0 0 0 144 130 119 255 
-1.763572 -0.7592415 4.575408 0 0 0 204 188 172 255 
-2.280249 -0.5615398 4.434951 0 0 0 164 151 134 255 
-0.7730955 -1.410066 4.919271 0 0 0 197 181 165 255 
-0.5312686 -1.473609 4.981646 0 0 0 181 165 149 255 
-0.7035255 -1.386691 4.909568 0 0 0 204 188 172 255 
-2.337461 -0.5092032 4.41311 0 0 0 152 136 121 255 
-1.703918 -0.8242204 4.563608 0 0 0 170 157 140 255 
-1.272843 -1.007598 4.678163 0 0 0 169 153 137 255 
4.159321 3.380896 2.362403 0 0 0 151 147 135 255 
0.8604456 5.215806 1.392547 0 0 0 160 156 145 255 
-2.217006 -0.5703098 4.410864 0 0 0 144 130 119 255 
-1.995112 -0.5131913 4.457154 0 0 0 209 201 190 255 
-2.295005 -0.4224755 4.315847 0 0 0 154 138 125 255 
-1.301232 -0.8406124 4.563172 0 0 0 171 159 143 255 
-1.388032 -0.77798 4.55254 0 0 0 204 195 180 255 
-1.919774 -0.4501903 4.437511 0 0 0 166 154 138 255 
2.423661 1.708703 3.300938 0 0 0 171 163 152 255 
-2.097704 -0.03676268 4.153392 0 0 0 200 184 168 255 
0.2360485 5.329954 1.205991 0 0 0 165 156 147 255 
1.656554 4.488323 1.614782 0 0 0 164 161 154 255 
-1.60613 -0.003228938 4.213798 0 0 0 150 145 139 255 
-1.41535 -0.05368873 4.209541 0 0 0 160 148 134 255 
-0.3239609 -0.4340348 4.295915 0 0 0 213 204 195 255 
5.126164 2.891367 2.576513 0 0 0 158 154 142 255 
1.723003 4.981123 1.472328 0 0 0 137 130 122 255 
3.418199 4.241109 1.936193 0 0 0 137 135 123 255 
5.433157 3.111192 2.524494 0 0 0 112 105 89 255 
1.776889 5.125155 1.402878 0 0 0 155 149 137 255 
0.00542234 6.113173 0.8729566 0 0 0 154 147 139 255 
0.2399199 0.5347625 1.836722 0 0 0 198 214 226 255 
1.974306 5.303169 1.282979 0 0 0 161 161 153 255 
1.61102 5.490867 1.137583 0 0 0 128 123 117 255 
1.059299 5.882881 0.9510307 0 0 0 172 168 157 255 
0.4885401 0.2736852 1.862451 0 0 0 244 249 252 255 
0.7987639 6.020981 0.8360289 0 0 0 160 157 152 255 
-0.1694447 -0.1858986 4.214154 0 0 0 206 197 182 255 
-1.308331 1.930174 3.052485 0 0 0 189 187 180 255 
0.5850056 1.147027 3.516742 0 0 0 128 115 102 255 
4.10305 4.107051 1.928185 0 0 0 165 161 150 255 
4.105757 4.113031 1.927638 0 0 0 165 161 150 255 
-1.143452 -0.9531577 4.698908 0 0 0 185 168 152 255 
0.1847191 0.4486356 1.729679 0 0 0 134 124 112 255 
0.4699304 1.111074 3.507658 0 0 0 42 45 47 255 
2.53773 2.853233 2.481733 0 0 0 150 145 139 255 
-1.197024 -0.9090363 4.649257 0 0 0 207 192 173 255 
-1.344698 -0.8620234 4.569495 0 0 0 188 176 162 255 
-1.055946 -0.9500439 4.640869 0 0 0 170 154 131 255 
-1.966411 -0.416893 4.417264 0 0 0 149 133 118 255 
-0.1652762 -1.277464 4.71986 0 0 0 218 206 193 255 
-0.8878331 -0.7842379 4.56749 0 0 0 213 207 195 255 
-0.9387676 -0.7792271 4.531236 0 0 0 220 212 199 255 
-0.6405649 -0.7716545 4.604843 0 0 0 158 142 127 255 
-2.106798 -0.02821485 4.139203 0 0 0 178 162 146 255 
-0.2160661 -0.9479206 4.616029 0 0 0 171 159 145 255 
-1.616253 -0.1276827 4.247797 0 0 0 198 185 169 255 
-0.6627185 -0.464936 4.37471 0 0 0 207 194 178 255 
-2.0438 0.2987486 4.017131 0 0 0 156 143 134 255 
-0.2719609 -0.4157583 4.325566 0 0 0 197 188 179 255 
0.7972915 -0.7866961 4.598447 0 0 0 181 173 160 255 
-1.187056 0.2961566 3.961271 0 0 0 189 181 170 255 
-1.918205 0.8401337 3.597232 0 0 0 207 203 192 255 
-1.948625 0.8687488 3.587595 0 0 0 207 203 194 255 
0.09437415 -0.0632301 4.116435 0 0 0 210 202 191 255 
1.010942 -0.4277618 4.359954 0 0 0 176 166 154 255 
1.486597 -0.4191671 4.38192 0 0 0 196 190 178 255 
-0.1344244 0.4768033 3.89923 0 0 0 203 202 197 255 
-1.619081 1.181822 3.402561 0 0 0 172 162 152 255 
-1.860771 1.622717 3.224552 0 0 0 185 175 165 255 
1.806498 -0.1120283 4.198478 0 0 0 206 198 185 255 
0.3440532 1.296004 3.839065 0 0 0 158 114 144 255 
1.134351 0.3582924 3.934562 0 0 0 199 196 187 255 
0.1622013 1.558765 3.733956 0 0 0 183 193 195 255 
0.1654942 1.627678 3.736359 0 0 0 93 80 71 255 
0.351684 1.180198 3.634003 0 0 0 141 110 125 255 
0.3690102 1.153552 3.587554 0 0 0 227 239 252 255 
-0.8163545 1.747214 3.184777 0 0 0 184 182 170 255 
0.5093409 1.131644 3.523695 0 0 0 199 203 202 255 
0.1667693 1.260507 3.417162 0 0 0 192 207 221 255 
-0.5988813 1.678666 3.215167 0 0 0 136 124 112 255 
-1.821422 2.479475 2.82334 0 0 0 135 130 124 255 
1.550492 0.8942063 3.689193 0 0 0 192 188 179 255 
0.4473837 0.9902724 3.304476 0 0 0 211 225 226 255 
1.315322 1.30343 3.602355 0 0 0 187 183 174 255 
2.555847 0.8104799 3.910879 0 0 0 149 145 136 255 
0.2384458 1.00479 3.171942 0 0 0 218 233 238 255 
0.623529 1.103303 3.309093 0 0 0 135 126 111 255 
0.3856075 0.7575938 2.874278 0 0 0 239 249 255 255 
2.607534 0.9978977 3.66809 0 0 0 149 141 128 255 
1.795963 1.468041 3.403988 0 0 0 188 184 175 255 
-0.9359634 3.144937 2.617832 0 0 0 125 120 114 255 
-1.359491 3.066532 2.487847 0 0 0 159 152 144 255 
1.225007 1.938873 3.095394 0 0 0 150 142 129 255 
-0.9590437 3.357778 2.445436 0 0 0 0 0 0 255 
-0.8629385 3.286109 2.386134 0 0 0 176 166 154 255 
-1.021184 3.454165 2.291469 0 0 0 161 153 142 255 
0.3710684 0.6458235 2.670978 0 0 0 185 137 175 255 
3.180296 1.415495 3.428719 0 0 0 163 157 143 255 
0.801853 2.639314 2.694905 0 0 0 188 185 178 255 
3.121239 1.42422 3.354663 0 0 0 137 131 119 255 
1.479322 2.171226 2.871464 0 0 0 171 165 155 255 
-0.7457047 3.415053 2.21665 0 0 0 180 177 170 255 
0.3758326 0.5457706 2.492857 0 0 0 169 111 136 255 
1.940302 2.276805 2.796054 0 0 0 181 181 173 255 
0.6522925 3.168625 2.37106 0 0 0 188 185 180 255 
-0.9851873 4.124251 1.891337 0 0 0 167 160 152 255 
-0.8943325 4.106214 1.878587 0 0 0 115 110 104 255 
2.025162 2.697551 2.62651 0 0 0 173 165 154 255 
0.3158624 0.4920011 2.348285 0 0 0 225 208 188 255 
-0.9659583 4.303713 1.758935 0 0 0 117 112 106 255 
0.1417579 3.995541 2.01022 0 0 0 172 169 164 255 
0.4809616 0.4618435 2.345054 0 0 0 218 229 225 255 
4.045084 2.204935 3.061761 0 0 0 120 116 105 255 
0.2985594 4.272393 1.984079 0 0 0 156 151 145 255 
0.324072 4.286913 1.953659 0 0 0 110 103 97 255 
4.1794 2.276647 3.030993 0 0 0 180 173 163 255 
0.02236094 4.120166 1.860888 0 0 0 176 171 165 255 
-0.782672 4.876596 1.484267 0 0 0 165 158 148 255 
0.3943284 0.3730148 2.14268 0 0 0 215 220 223 255 
1.306947 4.206092 1.826492 0 0 0 125 120 114 255 
0.4776786 0.3578602 2.107445 0 0 0 215 224 229 255 
2.93907 3.333809 2.234461 0 0 0 156 153 146 255 
5.146316 2.66522 2.792294 0 0 0 172 166 150 255 
0.5567957 5.247439 1.386035 0 0 0 122 118 108 255 
3.881953 3.331593 2.344845 0 0 0 136 130 118 255 
1.38774 4.569636 1.629337 0 0 0 124 119 111 255 
0.4119185 0.3098957 1.991816 0 0 0 243 254 254 255 
0.9585112 5.067322 1.367678 0 0 0 119 117 112 255 
0.5085658 0.3186715 1.994646 0 0 0 230 235 239 255 
1.054484 5.403859 1.214159 0 0 0 160 161 155 255 
0.3141887 0.3153187 1.872803 0 0 0 0 0 0 255 
0.3816015 0.2696265 1.881303 0 0 0 0 0 0 255 
0.3730756 0.2289882 1.878711 0 0 0 184 180 177 255 
1.335053 5.492844 1.10558 0 0 0 162 154 143 255 
3.367576 4.345422 1.703574 0 0 0 170 170 162 255 
1.274503 5.720584 0.9676964 0 0 0 161 153 142 255 
4.063591 4.391191 1.740108 0 0 0 138 134 122 255 
0.9367322 6.110185 0.7411704 0 0 0 166 162 159 255 
1.547971 5.447339 1.160016 0 0 0 165 162 155 255 
-1.134586 -1.102038 4.813813 0 0 0 151 135 120 255 
-2.086058 -0.240062 4.266311 0 0 0 194 182 166 255 
-1.979144 0.8937334 3.583659 0 0 0 195 191 182 255 
-1.036071 0.6398555 3.876247 0 0 0 142 130 116 255 
-1.520108 -1.118694 4.703349 0 0 0 218 205 188 255 
-1.51071 -1.107835 4.702165 0 0 0 197 184 168 255 
-1.152851 -1.183204 4.855093 0 0 0 212 197 178 255 
-1.714489 -0.9176618 4.601978 0 0 0 227 215 201 255 
-1.613322 -0.9414512 4.610757 0 0 0 189 173 157 255 
-0.719723 -1.340107 4.853402 0 0 0 211 195 179 255 
-1.246506 -1.054046 4.751277 0 0 0 197 181 166 255 
-1.198128 -1.052605 4.779815 0 0 0 132 121 117 255 
-0.5888612 -1.3441 4.826257 0 0 0 184 168 152 255 
-1.338124 -0.9484243 4.641826 0 0 0 198 186 174 255 
-0.5246531 -1.35229 4.827443 0 0 0 208 195 179 255 
-1.093236 -1.011396 4.73631 0 0 0 127 114 105 255 
-2.092965 -0.4789965 4.46676 0 0 0 210 202 191 255 
-1.154788 -1.193932 4.843812 0 0 0 212 197 178 255 
-0.5888612 -1.3441 4.826257 0 0 0 184 168 152 255 
-0.3369013 -1.379562 4.852859 0 0 0 209 193 177 255 
-1.02658 -1.018589 4.701626 0 0 0 178 162 139 255 
-1.400225 -0.7441684 4.535673 0 0 0 166 153 137 255 
-0.9047841 -0.9809067 4.6122 0 0 0 143 129 118 255 
-0.2163305 -0.9507143 4.614144 0 0 0 171 159 145 255 
-0.6627185 -0.464936 4.37471 0 0 0 207 194 178 255 
-1.059828 -0.2420185 4.270918 0 0 0 207 198 181 255 
0.9864209 -0.756558 4.552313 0 0 0 196 184 170 255 
0.1299527 -0.291661 4.261398 0 0 0 212 208 199 255 
-0.3376167 0.01802184 4.129971 0 0 0 180 170 158 255 
-1.860771 1.622717 3.224552 0 0 0 185 175 165 255 
1.860405 -0.05934676 4.229063 0 0 0 206 198 185 255 
-1.02658 -1.018589 4.701626 0 0 0 178 162 139 255 
-0.5689837 1.439587 3.500808 0 0 0 175 165 153 255 
-0.1396094 2.814296 2.673726 0 0 0 158 153 147 255 
-0.8596345 3.311712 2.385835 0 0 0 176 166 154 255 
-1.021184 3.454165 2.291469 0 0 0 161 153 142 255 
0.9503118 2.950349 2.388654 0 0 0 188 187 183 255 
0.06333265 3.693267 2.083915 0 0 0 154 147 139 255 
0.3222099 0.4582965 2.268073 0 0 0 250 185 219 255 
0.3725606 0.350496 2.16528 0 0 0 242 252 251 255 
1.12614 3.815738 1.919382 0 0 0 137 132 128 255 
-1.322315 -0.8930604 4.594881 0 0 0 170 158 142 255 
3.448905 3.978376 2.028809 0 0 0 171 168 159 255 
1.397763 5.328328 1.298537 0 0 0 163 159 151 255 
5.531642 3.794054 2.249274 0 0 0 149 143 129 255 
0.9614801 5.994896 0.8825981 0 0 0 142 135 127 255 
0.942942 6.128141 0.7379209 0 0 0 166 162 159 255 
-1.009785 -1.018496 4.692055 0 0 0 206 190 167 255 
-1.584456 3.277692 2.222869 0 0 0 86 81 78 255 
0.4688334 0.4187214 2.252547 0 0 0 197 202 206 255 
0.2186829 4.437758 1.807773 0 0 0 111 104 97 255 
0.2859455 4.403387 1.863142 0 0 0 103 98 92 255 
0.2429379 0.5402052 2.309364 0 0 0 223 224 202 255 
0.4938064 0.4882946 2.418314 0 0 0 220 230 226 255 
0.4724182 0.5006663 2.437863 0 0 0 156 155 146 255 
0.4655813 0.5123591 2.458122 0 0 0 205 206 198 255 
0.5976232 3.038541 2.399131 0 0 0 131 127 118 255 
0.4448563 0.5261955 2.487374 0 0 0 191 182 166 255 
0.4801154 0.5490736 2.496781 0 0 0 119 96 78 255 
-0.4941749 3.897159 2.109739 0 0 0 129 124 120 255 
