ply
format ascii 1.0
comment Created by CloudCompare v2.11 alpha (Anoia)
comment Created 2025/12/9 15:23
obj_info Generated by CloudCompare!
element vertex 1456
property float x
property float y
property float z
property float scalar_Scalar_field
end_header
0.459055 0.0447207 0.157588 148 
0.459545 0.044704 0.158389 144 
0.459542 0.0447022 0.159223 143 
0.45965 0.0446971 0.16005 151 
0.458446 0.0447315 0.160954 146 
0.458664 0.044723 0.161772 149 
0.459156 0.0447064 0.162577 151 
0.45812 0.0447357 0.163464 158 
0.457307 0.0447583 0.164335 149 
0.457797 0.0447417 0.165139 153 
0.457583 0.0447462 0.165979 150 
0.45699 0.0447622 0.166834 153 
0.457373 0.0447488 0.167645 153 
0.457595 0.0447403 0.168464 160 
0.457004 0.0447562 0.169316 160 
0.4562 0.0447786 0.170174 155 
0.456314 0.0447733 0.170995 159 
0.456106 0.0447777 0.171828 157 
0.455467 0.0447951 0.172674 157 
0.456014 0.0447767 0.173481 162 
0.456077 0.044773 0.174304 160 
0.454797 0.0448098 0.175164 159 
0.454647 0.0448124 0.17599 165 
0.454712 0.0448086 0.176811 167 
0.454242 0.044821 0.177643 162 
0.454414 0.0448139 0.178461 162 
0.45416 0.0448197 0.179287 163 
0.455084 0.04479 0.180094 165 
0.454348 0.0448103 0.180927 168 
0.454202 0.0448129 0.18175 170 
0.454485 0.0448025 0.182568 168 
0.454715 0.0447937 0.183388 169 
0.45543 0.0447702 0.184205 178 
0.45475 0.0447889 0.185032 176 
0.454126 0.0448059 0.185856 179 
0.453984 0.0448084 0.186677 177 
0.45395 0.0448075 0.187497 177 
0.45397 0.0448051 0.188318 173 
0.453137 0.0448284 0.189135 169 
0.453371 0.0448195 0.189956 176 
0.45334 0.0448186 0.190775 173 
0.453735 0.0448048 0.191598 178 
0.453811 0.0448006 0.19242 172 
0.453621 0.0448045 0.193237 172 
0.455466 0.0447468 0.194087 171 
0.455115 0.0447556 0.194904 172 
0.454926 0.0447594 0.195723 173 
0.455006 0.0447552 0.196548 173 
0.454229 0.0447768 0.197353 175 
0.45447 0.0447677 0.198181 174 
0.454178 0.0447747 0.198995 172 
0.45442 0.0447655 0.199823 172 
0.454503 0.0447611 0.200648 170 
0.453945 0.0447762 0.201452 166 
0.454243 0.0447653 0.202284 167 
0.454756 0.0447479 0.203125 169 
0.45452 0.0447532 0.203939 168 
0.454659 0.0447471 0.204767 166 
0.454425 0.0447524 0.205581 171 
0.454887 0.0447365 0.206424 169 
0.455029 0.0447303 0.207254 167 
0.455386 0.0447176 0.208095 168 
0.455583 0.0447097 0.20893 173 
0.455835 0.0447002 0.209768 177 
0.455603 0.0447054 0.210582 174 
0.455856 0.0446959 0.211421 176 
0.456003 0.0446896 0.212256 178 
0.45588 0.0446914 0.213076 181 
0.456244 0.0446785 0.213924 176 
0.456338 0.0446738 0.214758 179 
0.456433 0.044669 0.215592 177 
0.458593 0.0446015 0.216562 179 
0.459183 0.0445817 0.217435 177 
0.45868 0.0445951 0.218233 180 
0.458834 0.0445885 0.219077 182 
0.458169 0.0446069 0.219862 178 
0.456964 0.0446416 0.220604 176 
0.458097 0.0446053 0.221522 176 
0.459017 0.0445754 0.222427 180 
0.458792 0.0445804 0.223243 180 
0.458403 0.0445903 0.224046 178 
0.458834 0.0445753 0.224916 171 
0.458829 0.0445736 0.225751 177 
0.458824 0.0445719 0.226585 172 
0.459203 0.0445584 0.227455 175 
0.459584 0.044545 0.228326 177 
0.459856 0.0445348 0.229189 175 
0.459799 0.0445346 0.230022 176 
0.460183 0.044521 0.230897 179 
0.459687 0.0445342 0.231687 180 
0.460347 0.0445122 0.232592 182 
0.459963 0.0445221 0.233393 176 
0.461067 0.0444865 0.234348 177 
0.461623 0.0444677 0.235249 179 
0.46074 0.0444927 0.235997 175 
0.46113 0.0444789 0.236882 175 
0.461966 0.0444515 0.237818 178 
0.461527 0.044463 0.238613 183 
0.462421 0.0444338 0.239561 178 
0.462093 0.0444419 0.240368 180 
0.462434 0.0444296 0.241255 177 
0.462887 0.0444138 0.242157 174 
0.463734 0.0443861 0.24311 173 
0.463463 0.0443924 0.243926 180 
0.464932 0.0443457 0.244962 174 
0.463482 0.044388 0.245628 175 
0.463773 0.0443772 0.246516 175 
0.463953 0.0443698 0.247392 181 
0.465881 0.044309 0.248504 178 
0.466461 0.0442893 0.249439 178 
0.466531 0.0442852 0.250306 177 
0.466205 0.0442932 0.251118 179 
0.466618 0.0442787 0.252035 185 
0.466804 0.0442711 0.252921 180 
0.466821 0.0442686 0.253783 183 
0.466838 0.0442661 0.254645 181 
0.467312 0.0442497 0.255576 181 
0.467045 0.0442559 0.256398 179 
0.468321 0.0442149 0.257455 179 
0.468456 0.0442089 0.258341 173 
0.468821 0.0441957 0.259263 175 
0.469188 0.0441826 0.260188 175 
0.469325 0.0441764 0.261077 172 
0.468888 0.0441878 0.261874 172 
0.47018 0.0441463 0.262955 171 
0.47032 0.0441401 0.263848 171 
0.470867 0.0441213 0.264812 177 
0.471707 0.0440936 0.265828 178 
0.471442 0.0440998 0.266657 179 
0.471703 0.0440898 0.267577 171 
0.473016 0.0440476 0.268684 173 
0.47211 0.0440734 0.269401 173 
0.472549 0.044058 0.270357 175 
0.4734 0.0440299 0.271391 177 
0.473843 0.0440143 0.272353 177 
0.472759 0.0440455 0.273033 174 
0.473437 0.0440228 0.274041 176 
0.473235 0.044027 0.274885 174 
0.473446 0.0440185 0.275808 168 
0.473657 0.0440101 0.276732 165 
0.474046 0.0439961 0.277692 172 
0.473964 0.0439966 0.278561 171 
0.474001 0.0439935 0.279454 167 
0.474156 0.0439867 0.280371 166 
0.474253 0.0439817 0.281278 162 
0.474174 0.0439822 0.282149 160 
0.474213 0.043979 0.283046 160 
0.473781 0.0439902 0.283844 166 
0.474412 0.0439688 0.284866 167 
0.474454 0.0439655 0.285765 172 
0.474674 0.0439568 0.286703 167 
0.474657 0.0439553 0.287591 173 
0.4734 0.0439919 0.288208 172 
0.473149 0.0439976 0.289043 176 
0.473606 0.0439815 0.290035 170 
0.473121 0.0439945 0.290819 173 
0.472225 0.04402 0.291508 169 
0.472212 0.0440184 0.292395 174 
0.471496 0.0440384 0.293122 169 
0.471718 0.0440295 0.294063 173 
0.47159 0.0440315 0.294925 175 
0.471169 0.0440424 0.295717 172 
0.470984 0.0440461 0.296564 176 
0.471149 0.044039 0.297496 173 
0.470731 0.0440499 0.298287 173 
0.470314 0.0440607 0.299078 172 
0.469898 0.0440715 0.299868 166 
0.469949 0.0440679 0.300772 165 
0.469186 0.0440894 0.301475 164 
0.468773 0.0441001 0.302263 164 
0.469057 0.0440893 0.303226 154 
0.467605 0.0441321 0.303749 155 
0.467196 0.0441427 0.304534 155 
0.468057 0.0441141 0.305648 155 
0.467418 0.0441318 0.306374 152 
0.466723 0.0441512 0.307083 153 
0.466202 0.0441653 0.307837 152 
0.466085 0.0441669 0.308696 155 
0.46868 0.0440848 0.310285 150 
0.465221 0.0441895 0.310246 160 
0.466079 0.044161 0.311371 153 
0.46459 0.044205 0.311856 160 
0.464761 0.0441977 0.312794 158 
0.463451 0.0442361 0.313322 156 
0.463508 0.0442323 0.314228 157 
0.46385 0.0442198 0.315216 163 
0.463965 0.0442142 0.316141 150 
0.46283 0.0442472 0.316709 158 
0.462776 0.0442469 0.317586 160 
0.461703 0.044278 0.318167 168 
0.461875 0.0442707 0.319108 155 
0.461596 0.0442773 0.319918 157 
0.460924 0.0442961 0.320611 156 
0.460759 0.0442992 0.321453 162 
0.460426 0.0443074 0.322245 159 
0.459589 0.0443313 0.322885 159 
0.459035 0.0443464 0.323607 159 
0.458984 0.044346 0.324482 158 
0.457764 0.0443817 0.324998 164 
0.458438 0.0443589 0.326096 159 
0.457777 0.0443773 0.326782 160 
0.457784 0.0443751 0.327675 161 
0.457624 0.044378 0.328516 155 
0.457021 0.0443947 0.329217 157 
0.456475 0.0444096 0.329934 149 
0.456262 0.0444142 0.330757 152 
0.456381 0.0444084 0.331687 150 
0.456169 0.044413 0.332511 158 
0.45535 0.0444364 0.333135 156 
0.455415 0.0444323 0.334049 160 
0.454929 0.0444454 0.33478 158 
0.454775 0.0444482 0.335622 156 
0.455558 0.0444218 0.336778 154 
0.45557 0.0444195 0.337677 152 
0.45514 0.0444308 0.338428 147 
0.454326 0.044454 0.339046 142 
0.454503 0.0444465 0.340002 138 
0.454572 0.0444423 0.340922 140 
0.45431 0.0444484 0.341728 140 
0.453609 0.0444682 0.342381 138 
0.453898 0.0444572 0.343379 137 
0.454022 0.0444513 0.344322 143 
0.453872 0.0444539 0.345168 134 
0.453777 0.0444548 0.346034 134 
0.453958 0.0444472 0.347 137 
0.453699 0.0444532 0.347808 138 
0.453221 0.044466 0.348535 132 
0.45247 0.0444873 0.349163 139 
0.452377 0.0444881 0.35003 115 
0.452668 0.044477 0.351039 118 
0.452961 0.0444659 0.352051 120 
0.45243 0.0444804 0.352757 116 
0.45201 0.0444914 0.353503 124 
0.452084 0.0444871 0.354435 125 
0.452706 0.0444656 0.355577 117 
0.451849 0.0444903 0.356157 126 
0.451868 0.0444876 0.357071 116 
0.451834 0.0444866 0.357965 121 
0.451417 0.0444976 0.358711 121 
0.452314 0.0444676 0.359969 116 
0.451842 0.0444802 0.360694 113 
0.452523 0.044457 0.361873 119 
0.45238 0.0444594 0.36273 109 
0.452183 0.0444634 0.363564 111 
0.452316 0.0444572 0.364531 101 
0.452946 0.0444355 0.3657 101 
0.452419 0.0444499 0.366404 99 
0.452719 0.0444385 0.367443 102 
0.453351 0.0444167 0.36862 102 
0.452934 0.0444276 0.369369 103 
0.45296 0.0444247 0.3703 97 
0.453207 0.0444149 0.371324 101 
0.453289 0.0444103 0.372281 97 
0.454205 0.0443796 0.373589 101 
0.454623 0.0443645 0.374692 93 
0.453816 0.0443876 0.375279 97 
0.454513 0.0443638 0.376503 98 
0.454096 0.0443747 0.377255 95 
0.45446 0.0443612 0.378342 94 
0.454155 0.0443686 0.379142 94 
0.454912 0.0443429 0.380402 87 
0.454383 0.0443573 0.381107 93 
0.454694 0.0443455 0.382177 87 
0.454558 0.0443476 0.383053 88 
0.454533 0.0443463 0.38398 88 
0.454734 0.0443379 0.385006 84 
0.454598 0.04434 0.385885 109 
0.455474 0.0443105 0.387217 86 
0.456184 0.0442862 0.38848 94 
0.455373 0.0443094 0.389058 94 
0.263893 0.0488192 0.0650154 5 
0.461324 0.0415046 -0.0274816 8 
0.45349 0.0417926 -0.0228216 8 
0.457718 0.0416338 -0.0238666 10 
0.647758 0.0345913 -0.112096 6 
0.45162 0.0418555 -0.0191246 8 
0.448065 0.0419851 -0.0165406 8 
0.450973 0.0418753 -0.0169546 8 
0.467781 0.0412501 -0.0237486 7 
0.449072 0.0419415 -0.0142206 8 
0.451659 0.0418435 -0.0144716 9 
0.448709 0.0419508 -0.0122036 11 
0.454004 0.0417523 -0.0136676 8 
0.451135 0.0418566 -0.0114456 11 
0.449176 0.0419272 -0.00964156 9 
0.452755 0.0417924 -0.0103116 8 
0.453153 0.0417755 -0.00955856 7 
0.454609 0.0417194 -0.00927157 11 
0.453729 0.0417499 -0.00795356 10 
0.45614 0.0416583 -0.00807856 15 
0.452865 0.0417778 -0.00572256 12 
0.454429 0.0417176 -0.00547456 11 
0.459051 0.0415439 -0.00653656 9 
0.459858 0.0415118 -0.00594657 14 
0.455693 0.0416644 -0.00323356 14 
0.455259 0.0416785 -0.00212256 12 
0.454159 0.0417172 -0.000732561 14 
0.451691 0.0418069 0.00122644 13 
0.45541 0.0416666 0.000587444 14 
0.45216 0.0417853 0.00286343 9 
0.453663 0.0417274 0.00315643 11 
0.455398 0.0416608 0.00335943 14 
0.455524 0.041654 0.00422844 19 
0.45593 0.0416368 0.00498244 17 
0.455 0.0416693 0.00628043 14 
0.455906 0.0416336 0.00683143 12 
0.454589 0.0416805 0.00827944 15 
0.459026 0.0415133 0.00742043 17 
0.455178 0.0416544 0.00987343 19 
0.456197 0.0416144 0.0103844 17 
0.456829 0.0415889 0.0110514 15 
0.459716 0.0414793 0.0108374 16 
0.457369 0.0415646 0.0126724 16 
0.455215 0.0416427 0.0144224 16 
0.457239 0.0415653 0.0145524 23 
0.458155 0.0415291 0.0151144 22 
0.460261 0.0414486 0.0152264 27 
0.459772 0.0414648 0.0163304 22 
0.458103 0.0415249 0.0178764 24 
0.459812 0.0414591 0.0181464 18 
0.460739 0.0414226 0.0187154 25 
0.457049 0.041558 0.0210014 26 
0.461463 0.0413915 0.0202794 25 
0.460407 0.0414287 0.0215824 26 
0.461222 0.0413963 0.0221974 24 
0.460735 0.0414124 0.0232884 27 
0.465795 0.0412216 0.0223724 25 
0.459034 0.0414717 0.0257224 33 
0.461656 0.0413719 0.0256924 30 
0.461793 0.0413647 0.0265554 30 
0.461024 0.0413913 0.0277384 30 
0.462582 0.0413311 0.0280994 33 
0.464496 0.0412577 0.0283424 31 
0.464005 0.0412739 0.0294274 27 
0.462887 0.0413136 0.0307254 31 
0.463942 0.0412721 0.0312724 23 
0.464198 0.0412605 0.0320954 27 
0.464626 0.0412425 0.0328604 31 
0.46254 0.0413183 0.0344744 34 
0.464854 0.0412299 0.0346044 31 
0.464825 0.0412289 0.0355244 33 
0.465371 0.0412064 0.0362524 32 
0.46563 0.0411947 0.0370754 35 
0.467625 0.0411181 0.0373314 35 
0.466901 0.0411431 0.0384784 29 
0.467221 0.0411291 0.0392854 36 
0.468181 0.0410912 0.0398874 39 
0.468386 0.0410814 0.0407324 41 
0.468069 0.0410912 0.0417434 40 
0.46752 0.0411097 0.0428264 38 
0.467379 0.0411129 0.0437774 38 
0.469214 0.0410422 0.0441124 43 
0.469481 0.0410302 0.0449394 43 
0.470568 0.0409875 0.0455144 46 
0.469257 0.0410345 0.0468264 43 
0.469408 0.0410268 0.0476874 42 
0.470613 0.0409796 0.0482314 47 
0.471412 0.0409477 0.0489004 45 
0.472096 0.04092 0.0496064 46 
0.471367 0.0409453 0.0507324 52 
0.471403 0.0409418 0.0516294 52 
0.472738 0.0408898 0.0521474 49 
0.472716 0.0408886 0.0530634 51 
0.472106 0.0409094 0.0541474 54 
0.47238 0.040897 0.0549764 57 
0.474493 0.0408158 0.0552824 50 
0.471753 0.0409164 0.0569654 55 
0.471559 0.0409217 0.0579244 53 
0.473783 0.0408363 0.0582094 56 
0.473528 0.0408438 0.0591864 57 
0.472507 0.04088 0.0603724 61 
0.473968 0.0408232 0.0608774 55 
0.473183 0.0408506 0.0619944 52 
0.473581 0.0408336 0.0627904 55 
0.473566 0.0408322 0.0636984 55 
0.473256 0.0408418 0.0646824 59 
0.475675 0.040749 0.0649484 57 
0.473524 0.0408276 0.0664144 61 
0.474044 0.0408061 0.0671804 63 
0.474624 0.0407823 0.0679324 57 
0.475742 0.0407383 0.0685494 62 
0.474601 0.0407791 0.0697414 67 
0.473172 0.0408307 0.0710004 70 
0.472221 0.0408644 0.0721334 68 
0.471626 0.0408847 0.0731754 74 
0.47285 0.0408367 0.0737674 75 
0.472255 0.040857 0.0748064 78 
0.472365 0.0408509 0.0756734 79 
0.473534 0.040805 0.0762854 73 
0.471357 0.0408847 0.0776964 75 
0.471119 0.0408917 0.0786414 83 
0.470823 0.0409008 0.0795994 83 
0.470296 0.0409186 0.0806084 84 
0.470699 0.0409014 0.0814014 82 
0.469305 0.0409518 0.0826044 88 
0.469477 0.0409434 0.0834484 90 
0.469533 0.0409393 0.0843174 93 
0.469706 0.0409308 0.0851614 95 
0.468552 0.0409722 0.0862974 93 
0.468035 0.0409897 0.0872884 92 
0.468094 0.0409855 0.0881535 98 
0.467293 0.0410136 0.089202 96 
0.467582 0.0410008 0.0900156 99 
0.467528 0.0410008 0.0909019 101 
0.466561 0.0410353 0.0919781 105 
0.466964 0.0410181 0.0927665 106 
0.466285 0.0410417 0.0937778 109 
0.465496 0.0410694 0.0948085 101 
0.466582 0.0410266 0.0954586 97 
0.46585 0.0410522 0.0964744 101 
0.466141 0.0410393 0.097285 106 
0.465242 0.0410712 0.0983288 96 
0.465364 0.0410646 0.0991712 102 
0.463682 0.041126 0.100359 99 
0.463355 0.0411364 0.101283 102 
0.46275 0.0411572 0.102258 104 
0.461535 0.0412011 0.103343 113 
0.461214 0.0412113 0.104259 110 
0.461393 0.0412026 0.105082 115 
0.461573 0.0411939 0.105905 117 
0.461087 0.0412102 0.106847 118 
0.461047 0.0412098 0.107708 120 
0.460619 0.0412241 0.108636 116 
0.460745 0.0412174 0.109466 119 
0.460762 0.0412148 0.110316 118 
0.460889 0.0412081 0.111146 110 
0.460741 0.0412118 0.112022 113 
0.460759 0.0412091 0.11287 117 
0.460281 0.0412253 0.113799 119 
0.460742 0.041206 0.114573 116 
0.460596 0.0412095 0.115446 117 
0.460341 0.0412173 0.116335 122 
0.459921 0.0412312 0.117249 122 
0.459558 0.041243 0.118152 120 
0.460075 0.0412215 0.118919 116 
0.459933 0.041225 0.119787 118 
0.459297 0.0412471 0.120727 119 
0.458883 0.0412609 0.121631 115 
0.459731 0.0412269 0.122352 120 
0.459921 0.0412178 0.123169 121 
0.459782 0.0412212 0.124033 117 
0.459424 0.0412328 0.124927 117 
0.459397 0.0412319 0.125773 119 
0.459315 0.0412331 0.126626 119 
0.459782 0.0412135 0.127406 121 
0.459812 0.0412105 0.128245 123 
0.459896 0.0412054 0.129076 125 
0.459817 0.0412065 0.129928 122 
0.459299 0.0412242 0.130834 122 
0.45955 0.0412128 0.131644 132 
0.459527 0.0412118 0.132487 135 
0.459286 0.041219 0.133356 131 
0.458717 0.0412386 0.134262 130 
0.458861 0.0412313 0.135083 131 
0.458458 0.0412447 0.135967 130 
0.458821 0.041229 0.136763 138 
0.458693 0.041232 0.137615 142 
0.458948 0.0412205 0.138424 136 
0.458275 0.041244 0.139333 132 
0.458041 0.041251 0.140193 133 
0.457807 0.041258 0.141052 136 
0.457303 0.0412752 0.141937 141 
0.457668 0.0412595 0.142733 134 
0.45798 0.0412458 0.143536 136 
0.457857 0.0412486 0.144382 137 
0.457302 0.0412677 0.145267 136 
0.457072 0.0412745 0.14612 137 
0.457007 0.0412752 0.146957 136 
0.456887 0.0412778 0.147798 131 
0.456715 0.0412825 0.148644 135 
0.456867 0.0412748 0.149461 135 
0.45702 0.0412671 0.150278 136 
0.457283 0.0412553 0.151087 137 
0.456517 0.0412825 0.151978 138 
0.455971 0.0413013 0.152848 138 
0.457098 0.0412567 0.153591 138 
0.455582 0.0413123 0.154532 138 
0.455254 0.0413229 0.155382 136 
0.455357 0.0413171 0.1562 140 
0.455407 0.0413134 0.157023 140 
0.455565 0.0413055 0.157838 142 
0.455992 0.0412874 0.158636 142 
0.456421 0.0412693 0.159436 146 
0.455773 0.041292 0.160302 149 
0.455557 0.0412984 0.16114 146 
0.455128 0.0413128 0.16199 149 
0.455074 0.041313 0.162817 152 
0.455343 0.0413009 0.163626 149 
0.454702 0.0413234 0.164483 157 
0.454758 0.0413194 0.165304 157 
0.4546 0.0413235 0.166134 155 
0.453271 0.0413722 0.167017 153 
0.454234 0.0413338 0.167795 158 
0.454239 0.0413317 0.168617 160 
0.453977 0.0413398 0.169449 165 
0.453983 0.0413377 0.17027 155 
0.453564 0.0413518 0.171106 159 
0.453412 0.0413558 0.171931 161 
0.453792 0.0413394 0.172738 161 
0.453322 0.0413555 0.173573 158 
0.452853 0.0413715 0.174406 159 
0.452598 0.0413793 0.175231 155 
0.452873 0.041367 0.176042 155 
0.45299 0.0413607 0.176858 161 
0.453373 0.0413443 0.177668 165 
0.452696 0.0413682 0.178501 166 
0.452074 0.04139 0.179329 166 
0.452775 0.0413615 0.180135 168 
0.453107 0.041347 0.180948 175 
0.452751 0.0413587 0.181771 171 
0.453031 0.0413462 0.182586 176 
0.453366 0.0413316 0.183402 180 
0.453117 0.0413392 0.184222 179 
0.453559 0.0413205 0.185039 180 
0.453311 0.0413281 0.185859 183 
0.452481 0.0413579 0.186679 184 
0.453189 0.0413291 0.187496 174 
0.453262 0.0413244 0.188315 179 
0.453601 0.0413097 0.189136 174 
0.453303 0.0413192 0.189953 178 
0.453272 0.0413185 0.190772 179 
0.4534 0.0413118 0.191592 177 
0.452945 0.0413273 0.192406 177 
0.45265 0.0413367 0.19322 176 
0.453364 0.0413076 0.194049 178 
0.454188 0.0412743 0.194882 173 
0.453574 0.0412959 0.195691 175 
0.453813 0.0412849 0.196516 170 
0.453626 0.0412902 0.197332 179 
0.454881 0.0412405 0.198183 178 
0.455017 0.0412334 0.199009 176 
0.454885 0.0412366 0.199828 172 
0.454112 0.0412642 0.200627 174 
0.453875 0.0412714 0.20144 170 
0.453799 0.0412725 0.202258 171 
0.454204 0.0412552 0.203094 173 
0.45493 0.0412256 0.203943 171 
0.454054 0.0412572 0.204731 173 
0.454514 0.0412378 0.205572 172 
0.454923 0.0412203 0.206412 174 
0.453995 0.0412539 0.207193 174 
0.45419 0.0412446 0.208024 174 
0.455188 0.0412046 0.208895 172 
0.455171 0.0412034 0.209719 181 
0.455047 0.0412062 0.210536 175 
0.455568 0.0411845 0.211389 178 
0.454962 0.0412058 0.21218 174 
0.456129 0.0411593 0.213073 175 
0.456115 0.0411579 0.213898 171 
0.456425 0.0411442 0.214744 177 
0.457331 0.0411077 0.21563 175 
0.458514 0.0410606 0.216537 182 
0.458612 0.041055 0.217375 183 
0.457948 0.0410785 0.218161 182 
0.456799 0.0411206 0.218911 180 
0.457493 0.0410921 0.219791 180 
0.457755 0.0410802 0.220641 178 
0.457747 0.0410787 0.221472 177 
0.457413 0.0410896 0.222277 184 
0.457298 0.0410921 0.223099 177 
0.458923 0.041028 0.224064 179 
0.45859 0.0410389 0.22487 176 
0.45853 0.0410393 0.225699 175 
0.459236 0.0410104 0.226595 175 
0.459396 0.0410023 0.227445 177 
0.459667 0.0409901 0.228306 178 
0.459664 0.0409883 0.229143 176 
0.459552 0.0409907 0.229969 179 
0.45999 0.040972 0.230849 177 
0.461366 0.0409174 0.231824 183 
0.460319 0.0409556 0.232559 179 
0.462198 0.0408817 0.233592 175 
0.462421 0.0408712 0.234458 179 
0.460268 0.0409519 0.235072 177 
0.461207 0.040914 0.236015 172 
0.461598 0.0408971 0.2369 178 
0.462323 0.0408674 0.237825 178 
0.462494 0.0408589 0.238689 176 
0.462833 0.040844 0.239574 178 
0.462339 0.040861 0.240362 181 
0.462735 0.0408439 0.241255 182 
0.463076 0.0408289 0.242143 185 
0.463754 0.0408009 0.243075 179 
0.463763 0.0407987 0.243926 179 
0.465627 0.0407252 0.245013 176 
0.464905 0.040751 0.245773 178 
0.464298 0.0407724 0.246546 182 
0.464646 0.0407571 0.247444 185 
0.466237 0.0406941 0.248511 184 
0.466477 0.0406829 0.2494 185 
0.465812 0.0407065 0.250165 181 
0.466902 0.0406627 0.251174 184 
0.466861 0.0406624 0.252027 186 
0.467161 0.0406489 0.252929 179 
0.467007 0.0406529 0.253766 179 
0.467081 0.0406481 0.254637 175 
0.467326 0.0406367 0.255534 182 
0.467174 0.0406406 0.256372 178 
0.466909 0.0406489 0.257192 165 
0.467213 0.0406352 0.258101 168 
0.467746 0.0406128 0.259047 172 
0.468625 0.040577 0.260051 174 
0.469279 0.0405499 0.261022 172 
0.470108 0.040516 0.262024 169 
0.470536 0.0404976 0.262964 171 
0.470561 0.0404947 0.263839 174 
0.470644 0.0404895 0.264724 174 
0.471191 0.0404665 0.265689 174 
0.471508 0.0404523 0.266617 174 
0.471361 0.040456 0.267465 182 
0.472379 0.0404148 0.268519 175 
0.471592 0.0404431 0.269256 176 
0.471971 0.0404266 0.270199 177 
0.472293 0.0404122 0.271135 183 
0.472849 0.0403888 0.272115 180 
0.473408 0.0403653 0.273099 180 
0.474146 0.0403348 0.274118 173 
0.474062 0.0403361 0.274985 178 
0.474331 0.0403237 0.27592 175 
0.473954 0.0403363 0.276732 176 
0.473343 0.0403578 0.277496 172 
0.47379 0.0403386 0.278468 170 
0.473886 0.0403329 0.279371 174 
0.473629 0.0403408 0.280205 173 
0.47349 0.0403442 0.281063 171 
0.473587 0.0403384 0.281968 168 
0.474156 0.0403145 0.282972 171 
0.47349 0.0403382 0.283721 170 
0.473177 0.0403482 0.284543 173 
0.472807 0.0403605 0.285351 169 
0.472145 0.040384 0.286096 175 
0.47207 0.0403849 0.286966 172 
0.471937 0.0403881 0.287824 178 
0.472155 0.0403776 0.288759 177 
0.471614 0.0403965 0.289526 176 
0.471366 0.0404041 0.290358 180 
0.470886 0.0404206 0.291137 176 
0.470872 0.0404192 0.292022 177 
0.471035 0.0404109 0.292947 174 
0.470149 0.0404431 0.29363 174 
0.469557 0.0404639 0.29438 176 
0.468794 0.0404914 0.295087 171 
0.468783 0.0404899 0.29597 170 
0.468889 0.0404838 0.296882 176 
0.468359 0.0405022 0.297642 177 
0.468062 0.0405117 0.298457 176 
0.467707 0.0405234 0.299257 172 
0.467239 0.0405395 0.300028 177 
0.467174 0.04054 0.300899 166 
0.46625 0.0405738 0.301554 165 
0.465842 0.0405875 0.302337 166 
0.465665 0.0405924 0.303178 159 
0.465032 0.0406149 0.303901 155 
0.465026 0.0406131 0.304785 153 
0.465592 0.0405892 0.305819 154 
0.464562 0.0406271 0.306436 159 
0.464388 0.0406318 0.307277 159 
0.463703 0.0406563 0.307981 158 
0.463757 0.0406522 0.308882 156 
0.463584 0.0406569 0.309722 161 
0.462564 0.0406944 0.310331 159 
0.462449 0.0406969 0.311186 159 
0.461603 0.0407276 0.311838 152 
0.461715 0.0407213 0.312755 156 
0.461602 0.0407237 0.31361 159 
0.461153 0.0407391 0.314369 158 
0.460368 0.0407675 0.315033 159 
0.460369 0.0407654 0.315919 158 
0.460314 0.0407656 0.31679 155 
0.460596 0.0407526 0.317758 157 
0.459424 0.0407961 0.318304 152 
0.458535 0.0408285 0.318929 154 
0.457927 0.0408501 0.319635 146 
0.458597 0.0408221 0.32072 149 
0.457712 0.0408544 0.321341 150 
0.457384 0.0408652 0.322128 145 
0.456946 0.0408802 0.322881 147 
0.457172 0.0408694 0.323836 148 
0.456403 0.0408972 0.324486 150 
0.456796 0.04088 0.325494 155 
0.456084 0.0409056 0.32616 151 
0.45565 0.0409205 0.326911 154 
0.455546 0.0409225 0.327765 159 
0.455609 0.040918 0.328672 157 
0.455286 0.0409286 0.329457 148 
0.455019 0.0409369 0.33026 149 
0.455028 0.0409346 0.331151 153 
0.454707 0.040945 0.331936 154 
0.454716 0.0409427 0.332829 157 
0.453958 0.0409701 0.333469 155 
0.453804 0.0409741 0.334307 153 
0.453595 0.0409802 0.335127 159 
0.453715 0.0409735 0.336058 150 
0.453507 0.0409796 0.336879 150 
0.453628 0.0409729 0.337811 142 
0.453147 0.0409896 0.33854 148 
0.453378 0.0409786 0.339512 142 
0.4535 0.0409718 0.340447 150 
0.452802 0.0409969 0.341099 141 
0.453198 0.0409795 0.342132 144 
0.452938 0.0409876 0.342936 146 
0.453116 0.0409786 0.343895 141 
0.453131 0.040976 0.344797 131 
0.45342 0.0409628 0.345798 132 
0.452505 0.0409964 0.346368 131 
0.452247 0.0410043 0.347173 135 
0.451991 0.0410123 0.347978 132 
0.452116 0.0410054 0.348923 122 
0.453282 0.040958 0.350251 115 
0.452204 0.0409979 0.350756 111 
0.452112 0.0409994 0.351623 115 
0.452732 0.0409733 0.352757 110 
0.452312 0.0409876 0.353503 109 
0.451348 0.0410231 0.354043 121 
0.451421 0.0410182 0.354974 115 
0.451986 0.0409941 0.356094 123 
0.451787 0.0409999 0.356924 125 
0.451152 0.0410226 0.357585 126 
0.451172 0.0410197 0.358499 129 
0.451302 0.0410126 0.359456 130 
0.451105 0.0410183 0.360287 117 
0.45244 0.0409642 0.361722 111 
0.452188 0.0409719 0.362534 107 
0.452595 0.040954 0.363608 110 
0.452178 0.0409682 0.364355 104 
0.453027 0.040933 0.365611 109 
0.452665 0.0409451 0.366381 109 
0.452249 0.0409592 0.367129 115 
0.451999 0.0409669 0.367944 104 
0.452849 0.0409316 0.36921 106 
0.452489 0.0409436 0.369981 99 
0.454174 0.0408758 0.3716 105 
0.454479 0.0408618 0.372652 95 
0.454228 0.0408695 0.373473 100 
0.453922 0.0408793 0.37427 101 
0.453229 0.0409043 0.374903 98 
0.454479 0.0408534 0.376361 90 
0.45423 0.040861 0.377184 95 
0.454538 0.0408469 0.378246 89 
0.454735 0.0408371 0.379262 95 
0.454989 0.0408251 0.380305 97 
0.454015 0.040861 0.380815 102 
0.453767 0.0408686 0.38164 101 
0.454188 0.04085 0.382759 99 
0.454275 0.0408445 0.383733 94 
0.455595 0.0407908 0.385255 95 
0.454675 0.0408246 0.385785 123 
0.454372 0.0408344 0.386589 95 
0.454629 0.0408222 0.387644 103 
0.454495 0.0408253 0.388524 98 
0.288506 0.0457025 0.0536344 6 
0.452098 0.0383545 -0.0229716 11 
0.450614 0.038419 -0.0213306 12 
0.272846 0.0464021 0.0626734 9 
0.457434 0.0381085 -0.0226516 9 
0.453453 0.0382851 -0.0198486 8 
0.447805 0.0385368 -0.0162886 8 
0.457846 0.0380835 -0.0199996 8 
0.451262 0.0383772 -0.0160256 9 
0.447237 0.038556 -0.0132526 10 
0.45051 0.0384068 -0.0138206 11 
0.448448 0.0384974 -0.0119576 11 
0.453118 0.0382854 -0.0131416 8 
0.449447 0.0384483 -0.0105606 11 
0.452694 0.0383003 -0.0110886 9 
0.449904 0.0384236 -0.00891756 10 
0.453378 0.0382653 -0.00953456 12 
0.4496 0.0384331 -0.00693956 16 
0.452791 0.0382875 -0.00741956 11 
0.457488 0.0380741 -0.00854557 11 
0.450727 0.0383762 -0.00467156 14 
0.449433 0.0384323 -0.00319157 13 
0.452013 0.0383142 -0.00338656 15 
0.453956 0.0382246 -0.00329856 10 
0.454135 0.0382145 -0.00245056 18 
0.452437 0.0382888 -0.00080656 13 
0.456949 0.0380836 -0.00179257 11 
0.448436 0.0384648 0.00271144 12 
0.453526 0.0382336 0.00149244 15 
0.452056 0.0382977 0.00302244 17 
0.454441 0.0381882 0.00295044 13 
0.452416 0.0382773 0.00470344 13 
0.452816 0.0382572 0.00545343 14 
0.459129 0.0379708 0.00379143 16 
0.453895 0.0382045 0.00684244 15 
0.457247 0.0380514 0.00640344 18 
0.453268 0.0382286 0.00892244 20 
0.453616 0.0382109 0.00969444 16 
0.454406 0.0381733 0.0102914 22 
0.454258 0.0381779 0.0112624 21 
0.455549 0.0381176 0.0116654 17 
0.457462 0.0380293 0.0118294 22 
0.458489 0.0379809 0.0123444 19 
0.458901 0.0379602 0.0131024 18 
0.459822 0.0379166 0.0136644 17 
0.457593 0.0380151 0.0154374 18 
0.454615 0.0381474 0.0174864 25 
0.45425 0.0381618 0.0185304 24 
0.454767 0.0381364 0.0192394 24 
0.457173 0.0380258 0.0192414 22 
0.457641 0.0380027 0.0199764 27 
0.457551 0.0380047 0.0209184 21 
0.459647 0.037908 0.0210524 26 
0.459556 0.03791 0.0219974 30 
0.45986 0.0378942 0.0227964 27 
0.458872 0.0379368 0.0240664 26 
0.459344 0.0379134 0.0248034 29 
0.457634 0.0379886 0.0263254 28 
0.459448 0.0379046 0.0265804 27 
0.461503 0.0378098 0.0267574 38 
0.461528 0.0378066 0.0276584 29 
0.459804 0.0378824 0.0291724 26 
0.460505 0.0378487 0.0298324 31 
0.463594 0.037707 0.0296654 27 
0.461517 0.0377989 0.0312934 33 
0.461827 0.0377828 0.0320934 33 
0.463217 0.0377179 0.0325244 34 
0.464157 0.0376734 0.0331134 34 
0.461061 0.0378113 0.0350664 29 
0.462107 0.037762 0.0356184 38 
0.462589 0.0377381 0.0363614 39 
0.463187 0.0377091 0.0370674 36 
0.465618 0.0375971 0.0371704 31 
0.464787 0.0376326 0.0383504 35 
0.466195 0.0375668 0.0387984 32 
0.462512 0.0377314 0.0408974 35 
0.465739 0.0375834 0.0407604 36 
0.465139 0.0376085 0.0418574 37 
0.465687 0.0375816 0.0425874 36 
0.465662 0.0375807 0.0434994 40 
0.467828 0.0374807 0.0437234 41 
0.466129 0.0375555 0.0451594 41 
0.468126 0.0374631 0.0454444 42 
0.466485 0.0375353 0.0468554 46 
0.467615 0.0374821 0.0474114 37 
0.46846 0.0374418 0.0480584 42 
0.46896 0.0374171 0.0488124 44 
0.468126 0.0374528 0.0499674 53 
0.468684 0.0374255 0.0507044 48 
0.468836 0.0374166 0.0515614 52 
0.470037 0.0373601 0.0521114 49 
0.471655 0.0372847 0.0525434 51 
0.471048 0.0373102 0.0536264 53 
0.470794 0.0373197 0.0546044 48 
0.471126 0.0373026 0.0554134 52 
0.471987 0.0372616 0.0560724 60 
0.47144 0.0372843 0.0571314 58 
0.473304 0.0371977 0.0575124 58 
0.471814 0.0372632 0.0588324 57 
0.473387 0.0371899 0.0593004 59 
0.471781 0.0372607 0.0606464 64 
0.473235 0.0371927 0.0611514 64 
0.473101 0.0371967 0.0620904 67 
0.472497 0.0372221 0.0631554 62 
0.473071 0.037194 0.0639024 65 
0.473588 0.0371685 0.0646674 65 
0.473869 0.0371537 0.0654944 66 
0.473915 0.0371496 0.0663834 64 
0.473902 0.0371481 0.0672884 68 
0.473182 0.0371788 0.0683734 61 
0.473524 0.0371612 0.0691844 66 
0.474222 0.0371275 0.0699054 64 
0.473739 0.0371474 0.0709264 68 
0.474497 0.037111 0.0716344 66 
0.473661 0.0371469 0.0727394 69 
0.472535 0.037196 0.0739114 67 
0.473585 0.0371463 0.0745494 73 
0.472872 0.0371767 0.0756164 73 
0.472689 0.037183 0.0765524 74 
0.47163 0.0372291 0.0776964 72 
0.471859 0.0372167 0.0785314 79 
0.47162 0.0372255 0.0794764 81 
0.471558 0.0372263 0.0803794 80 
0.471205 0.0372404 0.0813474 84 
0.471319 0.0372332 0.0822084 92 
0.471549 0.0372207 0.0830414 85 
0.470617 0.0372611 0.0841364 85 
0.470153 0.0372802 0.0851224 92 
0.469171 0.0373229 0.0862214 95 
0.469171 0.0373209 0.0871004 93 
0.468769 0.0373372 0.0880664 98 
0.468886 0.0373299 0.0889191 99 
0.469234 0.0373121 0.0897226 99 
0.468031 0.0373648 0.0908537 97 
0.467462 0.0373887 0.091847 96 
0.468096 0.0373579 0.0925891 103 
0.466673 0.0374207 0.0937545 101 
0.467363 0.0373873 0.0944852 103 
0.466117 0.0374421 0.0956072 105 
0.466124 0.0374398 0.0964744 103 
0.465169 0.0374813 0.0975309 101 
0.466253 0.03743 0.0981849 103 
0.464285 0.0375177 0.0994332 102 
0.463732 0.0375409 0.100402 108 
0.463799 0.0375359 0.101251 113 
0.463417 0.0375514 0.102184 107 
0.463261 0.0375565 0.103074 106 
0.462881 0.0375719 0.104003 104 
0.461613 0.0376277 0.105092 113 
0.461017 0.037653 0.106055 116 
0.461086 0.0376479 0.106896 119 
0.460162 0.0376881 0.107913 118 
0.460232 0.037683 0.108752 118 
0.460193 0.0376828 0.109609 107 
0.459769 0.0377002 0.110532 111 
0.459566 0.0377076 0.111416 108 
0.459858 0.0376923 0.112216 113 
0.459382 0.0377121 0.113143 116 
0.458743 0.0377393 0.114094 120 
0.459475 0.037704 0.114822 122 
0.458619 0.0377412 0.115805 121 
0.458694 0.0377358 0.116638 123 
0.458825 0.037728 0.117462 121 
0.458409 0.037745 0.11837 120 
0.457941 0.0377645 0.119285 125 
0.459002 0.0377142 0.119968 120 
0.45777 0.0377685 0.120994 122 
0.458339 0.0377406 0.121751 122 
0.457493 0.0377773 0.122715 121 
0.457681 0.0377668 0.123528 128 
0.458197 0.0377414 0.124295 127 
0.45806 0.0377457 0.125154 124 
0.457652 0.0377625 0.126049 123 
0.457192 0.0377816 0.12695 123 
0.457709 0.0377561 0.127719 125 
0.457195 0.0377777 0.128624 125 
0.45755 0.0377596 0.129415 130 
0.456659 0.0377984 0.130365 128 
0.456528 0.0378025 0.131217 133 
0.456127 0.0378189 0.132101 133 
0.456753 0.0377884 0.132858 135 
0.4563 0.0378073 0.133747 136 
0.456819 0.0377816 0.134519 138 
0.456043 0.0378152 0.135443 137 
0.456024 0.0378142 0.136277 138 
0.45579 0.0378231 0.137135 138 
0.455664 0.0378269 0.13798 139 
0.45468 0.03787 0.138918 139 
0.455146 0.0378469 0.139697 142 
0.455183 0.0378433 0.140522 140 
0.455329 0.0378348 0.141336 143 
0.454778 0.0378581 0.14222 139 
0.454924 0.0378495 0.143033 137 
0.454001 0.0378899 0.143951 142 
0.454522 0.0378642 0.144727 139 
0.454617 0.037858 0.145544 135 
0.454231 0.0378738 0.146406 139 
0.454487 0.0378602 0.147209 141 
0.454529 0.0378564 0.148031 139 
0.453879 0.0378843 0.148912 141 
0.454083 0.0378731 0.149719 137 
0.452957 0.0379228 0.150637 137 
0.453533 0.0378946 0.151412 141 
0.452623 0.0379344 0.152307 144 
0.45267 0.0379304 0.153124 142 
0.453194 0.0379045 0.153906 141 
0.452076 0.0379539 0.154809 137 
0.452441 0.0379353 0.155602 136 
0.452807 0.0379167 0.156397 140 
0.452963 0.0379077 0.157207 150 
0.452747 0.0379157 0.158042 150 
0.4537 0.0378702 0.158801 148 
0.452372 0.0379292 0.159705 148 
0.453059 0.0378958 0.160482 144 
0.453059 0.037894 0.161302 143 
0.45179 0.0379504 0.162194 149 
0.451896 0.0379436 0.163006 148 
0.451002 0.0379828 0.163871 146 
0.450951 0.0379833 0.164689 152 
0.450796 0.0379885 0.165512 155 
0.451009 0.0379769 0.166317 158 
0.451275 0.0379629 0.16712 157 
0.450807 0.0379825 0.167957 164 
0.450917 0.0379756 0.168767 161 
0.450712 0.0379832 0.16959 163 
0.450876 0.0379738 0.170398 167 
0.450568 0.0379861 0.171224 162 
0.450732 0.0379767 0.172032 163 
0.451055 0.0379601 0.172836 166 
0.450958 0.0379627 0.173654 165 
0.45081 0.0379677 0.174473 166 
0.450715 0.0379702 0.175289 164 
0.451302 0.0379414 0.176089 164 
0.451103 0.0379487 0.176908 167 
0.451851 0.0379125 0.177707 166 
0.451969 0.0379052 0.17852 167 
0.452509 0.0378786 0.179327 168 
0.451626 0.0379173 0.180158 171 
0.451114 0.037939 0.18098 169 
0.452023 0.0378953 0.181783 173 
0.452303 0.0378807 0.182597 177 
0.45253 0.0378684 0.183411 174 
0.452546 0.0378658 0.184228 176 
0.451509 0.0379116 0.18505 176 
0.451842 0.0378945 0.185864 177 
0.451966 0.0378869 0.186679 179 
0.452354 0.0378672 0.187495 176 
0.453221 0.0378256 0.188314 179 
0.452235 0.037869 0.189128 182 
0.452997 0.0378322 0.189949 179 
0.453336 0.0378147 0.19077 179 
0.45304 0.0378265 0.191585 174 
0.453063 0.0378236 0.192404 175 
0.45261 0.0378426 0.193215 169 
0.453057 0.0378201 0.19404 173 
0.453188 0.0378123 0.19486 172 
0.453266 0.0378068 0.19568 174 
0.453027 0.037816 0.196494 176 
0.453478 0.0377934 0.197322 175 
0.453611 0.0377854 0.198145 176 
0.453267 0.0377994 0.198955 174 
0.45319 0.0378011 0.199771 175 
0.45359 0.0377808 0.200602 175 
0.453514 0.0377825 0.20142 176 
0.455036 0.0377105 0.202291 175 
0.453787 0.0377662 0.203069 171 
0.453872 0.0377604 0.203892 168 
0.453532 0.0377742 0.204699 175 
0.454097 0.0377463 0.205543 176 
0.453758 0.0377601 0.206349 173 
0.454005 0.0377469 0.207181 174 
0.454093 0.037741 0.208006 182 
0.454822 0.0377055 0.208864 181 
0.454858 0.037702 0.209689 180 
0.45543 0.0376737 0.210542 182 
0.456274 0.037633 0.211413 183 
0.455828 0.0376517 0.212213 182 
0.455652 0.0376579 0.213029 182 
0.456391 0.037622 0.213898 181 
0.456162 0.0376307 0.214711 179 
0.45658 0.0376096 0.215564 179 
0.456244 0.0376232 0.21637 180 
0.456933 0.0375895 0.217243 185 
0.456976 0.0375856 0.218075 186 
0.458429 0.0375167 0.219007 181 
0.457226 0.0375704 0.219751 184 
0.456947 0.0375814 0.22056 178 
0.457317 0.0375624 0.221417 179 
0.458666 0.0374983 0.222354 182 
0.458714 0.0374942 0.223191 174 
0.45762 0.0375428 0.223934 180 
0.458701 0.037491 0.224856 176 
0.45826 0.0375095 0.225652 175 
0.458964 0.0374751 0.226547 177 
0.460987 0.0373798 0.227564 177 
0.459886 0.0374288 0.228301 181 
0.459719 0.0374346 0.229122 186 
0.459389 0.037448 0.229927 178 
0.459935 0.0374209 0.230817 179 
0.460538 0.0373911 0.231714 180 
0.460043 0.037412 0.232503 185 
0.460813 0.0373746 0.233421 184 
0.462306 0.0373037 0.234418 185 
0.462142 0.0373094 0.235243 181 
0.461536 0.0373355 0.236021 179 
0.462703 0.0372797 0.236992 181 
0.462429 0.0372904 0.237806 186 
0.461824 0.0373164 0.238581 180 
0.462162 0.0372989 0.239464 179 
0.463001 0.0372582 0.240408 178 
0.463397 0.037238 0.241302 181 
0.463182 0.037246 0.242123 176 
0.463301 0.0372386 0.242985 174 
0.463924 0.0372079 0.243912 177 
0.466124 0.0371042 0.245041 180 
0.464055 0.037198 0.245628 183 
0.464682 0.037167 0.246561 177 
0.464357 0.0371801 0.247369 176 
0.465944 0.0371048 0.248435 183 
0.465112 0.0371414 0.249176 184 
0.46535 0.0371284 0.250063 181 
0.465646 0.0371128 0.250959 180 
0.465492 0.037118 0.251793 174 
0.466468 0.0370709 0.252789 177 
0.466767 0.0370551 0.253691 177 
0.467011 0.0370418 0.254586 174 
0.467483 0.037018 0.255517 176 
0.467787 0.037002 0.256424 174 
0.467578 0.0370097 0.257253 176 
0.467655 0.0370042 0.258127 174 
0.467846 0.0369934 0.25902 174 
0.468267 0.036972 0.25995 169 
0.469033 0.0369345 0.260938 174 
0.469917 0.0368916 0.261949 178 
0.469653 0.0369019 0.262774 176 
0.470426 0.0368641 0.263771 175 
0.47074 0.0368475 0.264695 179 
0.470824 0.0368417 0.26558 178 
0.471313 0.036817 0.266537 175 
0.471051 0.0368272 0.267364 174 
0.472182 0.0367728 0.268437 175 
0.471513 0.0368018 0.269193 176 
0.471078 0.03682 0.26999 174 
0.471166 0.036814 0.270881 178 
0.471371 0.0368025 0.271794 178 
0.471344 0.0368018 0.272665 176 
0.471841 0.0367768 0.273635 172 
0.471699 0.0367814 0.274486 177 
0.471732 0.0367778 0.27537 177 
0.471417 0.0367905 0.276188 172 
0.471975 0.0367626 0.277176 178 
0.472477 0.0367373 0.278155 173 
0.472046 0.0367553 0.278951 172 
0.473252 0.0366973 0.280075 175 
0.471945 0.036756 0.280694 175 
0.471691 0.0367658 0.281524 179 
0.471671 0.0367647 0.282402 177 
0.471826 0.0367555 0.283317 175 
0.471458 0.0367706 0.284123 176 
0.471906 0.0367478 0.285102 176 
0.471714 0.0367548 0.285946 181 
0.471813 0.0367481 0.286852 175 
0.471331 0.0367686 0.287633 175 
0.470559 0.0368024 0.288348 177 
0.469444 0.0368523 0.288984 179 
0.470414 0.0368052 0.290084 177 
0.469242 0.0368577 0.290705 180 
0.46917 0.036859 0.291572 177 
0.468753 0.0368764 0.29236 173 
0.468395 0.036891 0.293161 174 
0.467579 0.036927 0.293854 172 
0.467166 0.0369442 0.294639 169 
0.466926 0.0369534 0.295464 164 
0.466001 0.0369944 0.296126 171 
0.465649 0.0370088 0.296922 171 
0.465241 0.0370258 0.297704 175 
0.464608 0.0370533 0.29843 172 
0.464713 0.0370464 0.299336 170 
0.464875 0.0370369 0.300258 170 
0.464073 0.0370722 0.300939 165 
0.463331 0.0371047 0.301632 158 
0.46293 0.0371214 0.302411 159 
0.463431 0.0370961 0.30342 157 
0.462918 0.037118 0.304169 157 
0.462631 0.0371294 0.304976 157 
0.461951 0.037159 0.305679 151 
0.462003 0.0371546 0.306573 155 
0.461775 0.0371633 0.307394 156 
0.460987 0.037198 0.308064 155 
0.460313 0.0372274 0.308763 154 
0.459976 0.0372411 0.309552 162 
0.459639 0.0372548 0.31034 159 
0.45936 0.0372658 0.311143 160 
0.459191 0.0372717 0.311976 161 
0.459079 0.0372749 0.312826 159 
0.458579 0.0372962 0.313566 156 
0.458302 0.0373072 0.314368 156 
0.458469 0.0372974 0.315297 154 
0.457474 0.0373418 0.315892 159 
0.457254 0.0373501 0.316709 154 
0.456594 0.0373788 0.317397 155 
0.457147 0.0373511 0.318441 156 
0.457094 0.0373515 0.319307 155 
0.455886 0.0374059 0.31983 150 
0.455505 0.0374217 0.320597 154 
0.455783 0.0374067 0.321562 154 
0.455293 0.0374276 0.322295 151 
0.454696 0.0374535 0.322994 153 
0.453827 0.037492 0.323609 152 
0.454432 0.0374618 0.324677 150 
0.454875 0.0374391 0.325697 152 
0.454881 0.0374369 0.326583 150 
0.454613 0.0374473 0.327384 145 
0.453692 0.0374884 0.327976 147 
0.454354 0.0374555 0.329072 149 
0.454854 0.0374301 0.330119 150 
0.453932 0.0374711 0.330708 151 
0.453559 0.0374866 0.331473 146 
0.453077 0.0375071 0.332201 151 
0.453086 0.0375047 0.333091 151 
0.452987 0.0375073 0.333945 156 
0.452996 0.0375049 0.334836 152 
0.453224 0.0374922 0.335801 151 
0.453235 0.0374897 0.336694 148 
0.453519 0.0374744 0.337681 148 
0.453695 0.0374642 0.338633 149 
0.45327 0.037482 0.33938 147 
0.452846 0.0374998 0.340126 144 
0.453295 0.0374768 0.341175 144 
0.45249 0.0375124 0.341788 151 
0.452449 0.0375123 0.342667 143 
0.452354 0.0375148 0.343528 142 
0.452749 0.0374942 0.344564 138 
0.453092 0.0374762 0.345583 137 
0.452561 0.037499 0.34629 138 
0.452686 0.0374911 0.347232 134 
0.452592 0.0374935 0.348097 133 
0.451302 0.0375518 0.348524 130 
0.451698 0.0375312 0.349568 124 
0.451824 0.0375233 0.350513 122 
0.452933 0.0374694 0.351826 120 
0.452459 0.0374895 0.352552 119 
0.45155 0.0375301 0.353113 111 
0.452441 0.0374863 0.354353 113 
0.452405 0.0374859 0.355244 108 
0.452042 0.0375009 0.35601 116 
0.452007 0.0375005 0.356903 123 
0.452191 0.0374898 0.35788 122 
0.451993 0.037497 0.358711 119 
0.451631 0.0375119 0.359477 122 
0.451216 0.0375294 0.360222 123 
0.452549 0.0374648 0.361657 127 
0.452023 0.0374874 0.36236 121 
0.452978 0.0374406 0.363652 117 
0.452837 0.0374452 0.364509 112 
0.453245 0.0374239 0.365589 104 
0.452719 0.0374465 0.366292 105 
0.452358 0.0374614 0.367062 111 
0.452878 0.037435 0.368191 102 
0.452737 0.0374395 0.369052 107 
0.452543 0.0374465 0.36989 103 
0.452623 0.0374407 0.370843 108 
0.453256 0.0374089 0.372028 102 
0.453006 0.0374185 0.372846 101 
0.454196 0.0373606 0.37427 92 
0.453614 0.0373858 0.37495 94 
0.453919 0.0373694 0.376006 92 
0.454949 0.037319 0.377374 98 
0.454198 0.0373521 0.377983 97 
0.453728 0.0373721 0.37871 101 
0.454369 0.0373399 0.379918 100 
0.454901 0.0373128 0.381082 100 
0.454932 0.0373092 0.38203 93 
0.454238 0.0373397 0.382661 98 
0.454158 0.0373414 0.38356 92 
0.455531 0.0372747 0.385106 97 
0.45478 0.0373079 0.38571 131 
0.453864 0.0373488 0.386238 106 
0.45479 0.0373032 0.387593 112 
0.454656 0.0373074 0.388474 102 
0.452015 0.0348701 -0.0237526 9 
0.469968 0.0339205 -0.0313366 8 
0.453912 0.0347657 -0.0227686 10 
0.455988 0.034654 -0.0228026 8 
0.45476 0.0347167 -0.0212816 9 
0.461747 0.0343457 -0.0235976 12 
0.372568 0.0390523 0.0186724 7 
0.454276 0.0347359 -0.0182336 7 
0.451791 0.034865 -0.0161526 7 
0.45318 0.0347895 -0.0158556 11 
0.450436 0.0349323 -0.0136706 14 
0.447891 0.0350647 -0.0115886 10 
0.449473 0.034979 -0.0113816 9 
0.445977 0.0351616 -0.00888657 9 
0.449006 0.0349995 -0.00932557 10 
0.452405 0.0348178 -0.00991856 16 
0.447192 0.0350912 -0.00668157 11 
0.449637 0.0349599 -0.00684356 8 
0.448079 0.0350402 -0.00524056 13 
0.44939 0.0349688 -0.00489757 14 
0.451255 0.0348682 -0.00479056 15 
0.453797 0.0347317 -0.00497056 12 
0.446843 0.0350973 -0.00105057 13 
0.451621 0.0348426 -0.00218957 15 
0.453614 0.0347351 -0.00212056 13 
0.449797 0.0349349 0.000421445 16 
0.450626 0.034889 0.00098444 16 
0.451131 0.0348602 0.00168544 21 
0.449517 0.0349435 0.00327543 14 
0.451489 0.0348371 0.00336444 18 
0.451559 0.0348314 0.00424844 18 
0.451957 0.0348082 0.00499644 14 
0.452959 0.0347531 0.00549843 16 
0.456238 0.0345775 0.00507344 15 
0.451898 0.0348052 0.00775544 16 
0.449688 0.0349201 0.00955744 17 
0.455453 0.0346129 0.00814543 19 
0.449455 0.0349284 0.0114594 20 
0.451914 0.0347961 0.0113834 21 
0.452916 0.034741 0.0118934 20 
0.451081 0.0348361 0.0135234 22 
0.453173 0.0347233 0.0136074 18 
0.452646 0.0347492 0.0147194 21 
0.453871 0.0346822 0.0151494 23 
0.453671 0.0346908 0.0161324 22 
0.454736 0.0346323 0.0166294 22 
0.454977 0.0346175 0.0174444 26 
0.453022 0.0347191 0.0190924 23 
0.452225 0.0347592 0.0202944 20 
0.453557 0.0346866 0.0206934 25 
0.456944 0.034505 0.0203294 29 
0.45481 0.0346161 0.0220294 31 
0.456766 0.0345104 0.0222084 31 
0.456956 0.0344983 0.0230444 24 
0.456424 0.0345244 0.0241434 25 
0.455895 0.0345504 0.0252384 29 
0.456971 0.0344914 0.0257514 32 
0.455612 0.0345614 0.0271414 29 
0.45802 0.0344316 0.0271804 28 
0.456878 0.0344901 0.0284894 29 
0.460478 0.0342971 0.0281174 29 
0.459324 0.0343563 0.0294294 27 
0.45935 0.0343529 0.0303234 33 
0.458929 0.0343732 0.0313724 23 
0.458286 0.0344053 0.0324954 33 
0.458704 0.0343811 0.0332514 29 
0.460523 0.0342825 0.0335294 34 
0.460101 0.0343028 0.0345744 33 
0.461141 0.0342456 0.0351234 33 
0.461001 0.034251 0.0360724 32 
0.461593 0.0342175 0.0367764 35 
0.463151 0.0341328 0.0371614 36 
0.461765 0.0342043 0.0385214 34 
0.464863 0.0340378 0.0384074 32 
0.46324 0.0341219 0.0398404 37 
0.463896 0.034085 0.0405304 34 
0.463643 0.0340964 0.0415134 38 
0.466362 0.03395 0.0415454 38 
0.463991 0.0340739 0.0432044 43 
0.463796 0.0340822 0.0441664 39 
0.465025 0.0340148 0.0446794 36 
0.464773 0.0340262 0.0456594 41 
0.465378 0.033992 0.0463714 46 
0.466501 0.0339303 0.0469254 39 
0.467054 0.0338989 0.0476584 45 
0.467607 0.0338674 0.0483924 44 
0.467066 0.0338941 0.0494584 45 
0.467909 0.0338473 0.0501064 45 
0.466277 0.033932 0.0514944 42 
0.467925 0.0338424 0.0519044 53 
0.468077 0.0338322 0.0527594 46 
0.467596 0.0338558 0.0538004 51 
0.469834 0.0337347 0.0540494 56 
0.471449 0.0336468 0.0544864 55 
0.470727 0.0336831 0.0555974 57 
0.470417 0.0336976 0.0565884 53 
0.471274 0.0336499 0.0572474 57 
0.472076 0.0336052 0.0579244 59 
0.471297 0.0336446 0.0590444 59 
0.473041 0.0335498 0.0594634 61 
0.472084 0.0335987 0.0606304 65 
0.471775 0.0336131 0.0616154 62 
0.471994 0.0335994 0.0624564 61 
0.473094 0.0335388 0.0630604 64 
0.473138 0.0335344 0.0639494 64 
0.47389 0.0334923 0.0646514 69 
0.473523 0.0335099 0.0656494 73 
0.47298 0.0335368 0.0666914 70 
0.473791 0.0334915 0.0673794 60 
0.473485 0.0335058 0.0683584 63 
0.474299 0.0334604 0.0690484 72 
0.47311 0.0335217 0.0702484 69 
0.4741 0.0334669 0.0708964 70 
0.473325 0.0335062 0.0719874 70 
0.473081 0.0335172 0.0729434 70 
0.473248 0.0335062 0.0737964 67 
0.472888 0.0335234 0.0747784 74 
0.472471 0.0335436 0.0757724 76 
0.472816 0.0335232 0.0765814 80 
0.472693 0.0335278 0.0775014 72 
0.473861 0.0334635 0.0781174 79 
0.472799 0.0335181 0.0792584 79 
0.472386 0.0335381 0.0802434 86 
0.47209 0.0335519 0.0812004 89 
0.47197 0.0335563 0.0821154 89 
0.472201 0.0335419 0.0829494 86 
0.472199 0.03354 0.0838364 89 
0.471325 0.0335847 0.0849164 89 
0.47179 0.0335579 0.0856974 90 
0.470687 0.0336147 0.0868234 88 
0.47063 0.0336158 0.0877164 94 
0.469246 0.0336876 0.0888944 91 
0.469421 0.0336763 0.0897348 100 
0.468907 0.0337018 0.0907207 100 
0.469025 0.0336935 0.0915719 106 
0.468112 0.0337402 0.0926365 98 
0.467204 0.0337868 0.0936962 98 
0.467209 0.0337845 0.0945662 98 
0.46642 0.0338247 0.0955958 99 
0.466483 0.0338193 0.0964518 98 
0.465924 0.0338472 0.0974305 99 
0.464691 0.0339111 0.0985383 99 
0.464419 0.0339237 0.099455 107 
0.464147 0.0339362 0.10037 101 
0.463765 0.0339547 0.101305 100 
0.464393 0.0339192 0.102047 103 
0.463619 0.0339586 0.103053 106 
0.463073 0.0339859 0.104013 103 
0.462305 0.034025 0.105011 113 
0.46132 0.0340757 0.106045 118 
0.461168 0.0340819 0.106926 117 
0.460906 0.0340939 0.107825 111 
0.460094 0.0341354 0.108819 116 
0.459067 0.0341884 0.109847 111 
0.458155 0.0342353 0.11085 110 
0.458063 0.0342383 0.111712 112 
0.458244 0.0342266 0.112527 118 
0.457664 0.0342558 0.113468 116 
0.457791 0.034247 0.11429 124 
0.45792 0.0342383 0.115113 119 
0.457451 0.0342615 0.116031 117 
0.457092 0.0342788 0.11693 114 
0.457547 0.0342525 0.1177 121 
0.457678 0.0342436 0.118521 119 
0.456995 0.0342783 0.119466 125 
0.456639 0.0342954 0.120359 123 
0.456771 0.0342864 0.121178 124 
0.455824 0.0343352 0.122155 119 
0.455579 0.0343464 0.123027 124 
0.455336 0.0343576 0.123897 114 
0.455362 0.0343543 0.124728 120 
0.454691 0.0343883 0.125656 118 
0.455739 0.0343304 0.126345 122 
0.454746 0.0343816 0.127314 119 
0.454989 0.0343667 0.128114 118 
0.454965 0.0343661 0.128949 129 
0.454941 0.0343655 0.129785 134 
0.454596 0.0343821 0.13066 134 
0.455002 0.0343585 0.13144 133 
0.45407 0.0344065 0.132386 127 
0.453623 0.0344286 0.13327 135 
0.454028 0.034405 0.134049 134 
0.453529 0.0344299 0.134937 137 
0.45335 0.0344377 0.135785 139 
0.453065 0.034451 0.136644 146 
0.452729 0.0344672 0.137508 141 
0.453029 0.0344492 0.138299 142 
0.452271 0.034488 0.139207 145 
0.452307 0.0344842 0.140027 141 
0.452239 0.034486 0.140857 137 
0.451748 0.0345104 0.141731 138 
0.451207 0.0345376 0.142607 138 
0.452248 0.03448 0.143324 143 
0.451496 0.0345184 0.14422 137 
0.451378 0.0345229 0.145052 135 
0.451103 0.0345358 0.145897 141 
0.45146 0.0345148 0.146684 143 
0.451028 0.0345361 0.147543 145 
0.450703 0.0345517 0.14839 138 
0.450641 0.0345531 0.149213 138 
0.450371 0.0345658 0.150054 141 
0.450886 0.0345363 0.150828 143 
0.450511 0.0345546 0.151676 136 
0.449668 0.034598 0.15256 140 
0.449557 0.0346021 0.153383 144 
0.449603 0.0345978 0.154194 144 
0.449963 0.0345766 0.154982 144 
0.449385 0.0346058 0.155839 140 
0.448965 0.0346266 0.156682 147 
0.449013 0.0346221 0.157491 148 
0.449166 0.0346121 0.158294 153 
0.449008 0.0346187 0.159117 150 
0.450362 0.0345442 0.159845 156 
0.450465 0.0345368 0.160654 159 
0.449942 0.034563 0.161499 159 
0.450203 0.0345472 0.162298 160 
0.449369 0.0345901 0.163158 164 
0.449892 0.0345602 0.163943 161 
0.450155 0.0345443 0.164742 165 
0.449063 0.0346011 0.16561 166 
0.44891 0.0346075 0.166428 166 
0.449017 0.0345999 0.167235 165 
0.449594 0.034567 0.168021 169 
0.448611 0.034618 0.168874 169 
0.449188 0.0345852 0.169661 170 
0.449454 0.0345691 0.170462 163 
