0.457426,0.0114431,0.0492097,181
0.457375,0.011446,0.0500481,176
0.457545,0.0114281,0.0509121,176
0.45755,0.0114257,0.0517577,180
0.457501,0.0114284,0.0525972,179
0.45845,0.0113376,0.053557,177
0.457958,0.0113818,0.0543445,180
0.458076,0.0113688,0.0552063,178
0.45814,0.0113609,0.056062,175
0.458372,0.0113373,0.0569396,176
0.458827,0.0112927,0.0578475,180
0.458615,0.0113107,0.0586696,186
0.458848,0.0112869,0.0595508,184
0.45886,0.0112838,0.0604031,184
0.459431,0.0112285,0.0613326,187
0.4595,0.0112201,0.0621948,183
0.45957,0.0112116,0.0630577,187
0.46065,0.0111085,0.0640656,183
0.46016,0.0111525,0.0648506,187
0.4613,0.0110437,0.0658735,181
0.460529,0.011114,0.0666168,181
0.459929,0.0111683,0.0673833,180
0.459554,0.0112014,0.0681824,182
0.460245,0.0111347,0.0691448,182
0.460152,0.0111415,0.0699878,180
0.460565,0.0111009,0.0709109,173
0.461036,0.0110548,0.0718452,178
0.461792,0.010982,0.0728278,184
0.460854,0.011068,0.0735362,181
0.459752,0.0111693,0.0742144,177
0.460561,0.0110915,0.0752091,178
0.460472,0.0110979,0.0760551,176
0.460722,0.0110725,0.0769592,175
0.460521,0.0110894,0.0777867,176
0.459143,0.0112166,0.0784075,173
0.460516,0.0110859,0.0795109,176
0.460262,0.0111079,0.0803285,178
0.458886,0.0112349,0.0809428,174
0.459081,0.0112146,0.0818395,176
0.459278,0.0111943,0.0827376,176
0.458578,0.0112578,0.0834698,179
0.458831,0.0112322,0.0843793,177
0.458973,0.0112169,0.0852691,182
0.45906,0.0112068,0.0861493,180
0.458643,0.011244,0.0869325,181
0.458451,0.01126,0.0877587,183
0.456867,0.0114066,0.088309,184
0.457288,0.0113652,0.0892548,184
0.458102,0.0112869,0.0902818,182
0.457801,0.0113132,0.0910853,186
0.455724,0.011506,0.0915229,187
0.455648,0.0115112,0.0923683,183
0.455516,0.0115216,0.0932026,190
0.455055,0.0115629,0.0939669,187
0.4541,0.0116506,0.0946247,179
0.453258,0.0117276,0.0953038,184
0.452966,0.0117531,0.0960996,184
0.452184,0.0118245,0.0967873,182
0.451894,0.0118498,0.0975815,179
0.450899,0.0119412,0.0982179,172
0.450666,0.0119611,0.0990222,180
0.450055,0.0120166,0.0997405,175
0.450905,0.0119348,0.100791,178
0.449053,0.0121066,0.101223,174
0.448931,0.0121162,0.10205,180
0.44854,0.0121509,0.102814,184
0.44858,0.0121452,0.103679,179
0.448782,0.0121244,0.104583,183
0.447108,0.0122795,0.105038,180
0.446403,0.0123438,0.105722,177
0.446444,0.012338,0.106586,174
0.446113,0.0123672,0.107359,174
0.44573,0.0124012,0.108118,171
0.446304,0.0123454,0.109116,175
0.445921,0.0123794,0.109876,169
0.444957,0.012468,0.110487,162
0.444366,0.0125216,0.11119,161
0.44404,0.0125502,0.11196,161
0.444084,0.0125442,0.112825,156
0.443865,0.0125628,0.113623,161
0.444015,0.0125467,0.114517,163
0.443428,0.0126,0.115217,162
0.443474,0.0125937,0.116085,166
0.442994,0.0126369,0.116811,168
0.442306,0.0126996,0.11748,163
0.443035,0.0126291,0.118534,166
0.44324,0.0126079,0.119448,160
0.44229,0.0126953,0.120042,160
0.442915,0.0126345,0.121074,160
0.442649,0.0126576,0.121858,160
0.444122,0.0125172,0.123134,159
0.442905,0.0126296,0.123649,158
0.444488,0.0124789,0.124965,152
0.442954,0.0126212,0.125385,156
0.443269,0.0125896,0.126339,155
0.44332,0.0125828,0.127218,152
0.443056,0.0126057,0.128004,154
0.44332,0.012579,0.128946,151
0.443003,0.0126067,0.129717,151
0.443427,0.012565,0.13071,154
0.443534,0.012553,0.13161,157
0.443641,0.0125409,0.132511,158
0.44359,0.0125437,0.133364,157
0.443858,0.0125165,0.134316,144
0.443278,0.0125691,0.135007,153
0.443547,0.0125419,0.135961,149
0.443021,0.0125893,0.136667,148
0.443661,0.0125272,0.137741,150
0.443825,0.0125098,0.138666,154
0.443565,0.0125323,0.139457,151
0.44373,0.0125148,0.140385,152
0.443948,0.0124922,0.141331,152
0.444168,0.0124696,0.14228,150
0.44359,0.012522,0.142968,150
0.443597,0.0125193,0.143847,148
0.444297,0.0124514,0.144959,141
0.444199,0.0124587,0.145806,146
0.444474,0.0124308,0.14678,146
0.444591,0.0124178,0.147701,147
0.444654,0.0124099,0.148606,145
0.44397,0.0124723,0.149255,144
0.44414,0.0124542,0.150198,141
0.443991,0.0124663,0.15103,137
0.444911,0.0123776,0.152237,135
0.444762,0.0123896,0.153072,138
0.444507,0.0124117,0.15387,138
0.444948,0.0123681,0.154915,129
0.444639,0.0123952,0.155695,125
0.444706,0.0123868,0.156609,127
0.445096,0.0123481,0.157641,131
0.445595,0.0122991,0.158715,133
0.445502,0.0123059,0.159575,135
0.444495,0.0123986,0.160101,128
0.444726,0.0123749,0.161079,126
0.44501,0.0123461,0.16208,130
0.445565,0.0122917,0.163184,122
0.445205,0.0123237,0.163947,117
0.444899,0.0123505,0.16473,112
0.444808,0.0123569,0.165595,114
0.445311,0.0123075,0.166686,118
0.444306,0.0124002,0.167202,123
0.44524,0.0123101,0.168462,123
0.444289,0.0123977,0.168996,124
0.445387,0.0122922,0.170325,120
0.446003,0.0122322,0.171471,127
0.445535,0.0122741,0.172194,128
0.446261,0.0122037,0.173388,126
0.446936,0.012138,0.174565,116
0.447559,0.0120773,0.175726,111
0.447417,0.0120885,0.176582,113
0.445914,0.0122281,0.176889,107
0.446427,0.0121778,0.178009,105
0.446559,0.0121632,0.178977,112
0.447402,0.0120816,0.180237,113
0.446607,0.0121545,0.180827,109
0.447616,0.0120573,0.182162,105
0.447861,0.0120321,0.183184,109
0.447997,0.0120172,0.184162,102
0.447639,0.0120489,0.184933,104
0.44794,0.0120184,0.185983,101
0.448078,0.0120034,0.186965,98
0.448822,0.0119311,0.188208,98
0.44885,0.0119263,0.189148,98
0.448824,0.0119267,0.190065,95
0.448521,0.0119531,0.190863,101
0.448772,0.0119274,0.191902,106
0.449356,0.0118702,0.193088,104
0.448832,0.0119175,0.193791,102
0.449028,0.0118968,0.194812,103
0.448727,0.0119232,0.195612,102
0.449091,0.0118867,0.196709,106
0.449846,0.0118133,0.197984,134
0.449879,0.0118081,0.198938,100
0.449689,0.0118239,0.199792,98
0.448832,0.0119026,0.200344,103
0.438591,0.0103475,-0.207523,10
0.43357,0.0108484,-0.20421,10
0.220525,0.0321934,-0.103308,7
0.436822,0.0105184,-0.203923,12
0.439686,0.0102294,-0.204352,11
0.441994,0.00999603,-0.20451,9
0.437535,0.0104408,-0.201509,9
0.432604,0.0109328,-0.198309,7
0.435984,0.0105921,-0.198964,11
0.441173,0.0100699,-0.200437,12
0.440916,0.0100936,-0.1994,11
0.431732,0.011012,-0.194303,10
0.442437,0.00993702,-0.198253,14
0.439831,0.0101961,-0.196159,9
0.433982,0.0107804,-0.192621,9
0.439538,0.0102214,-0.194201,10
0.438389,0.0103345,-0.19278,14
0.434645,0.0107078,-0.190216,10
0.433628,0.0108077,-0.188869,13
0.433798,0.0107887,-0.188047,12
0.435104,0.0106557,-0.187721,15
0.950781,-0.0410558,-0.411813,8
0.434,0.0107623,-0.18545,14
0.437754,0.0103838,-0.186171,18
0.436413,0.0105163,-0.184697,14
0.435806,0.0105751,-0.183542,17
0.436342,0.0105193,-0.182875,16
0.433777,0.0107746,-0.180898,16
0.435495,0.0106002,-0.18073,23
0.438167,0.0103301,-0.180955,16
0.437088,0.0104363,-0.17961,16
0.437107,0.0104325,-0.178725,20
0.436086,0.0105328,-0.177413,14
0.438659,0.0102727,-0.177576,18
0.437371,0.0103998,-0.176158,19
0.437026,0.0104324,-0.175128,18
0.440821,0.0100496,-0.175769,20
0.440787,0.010051,-0.17486,17
0.43907,0.0102213,-0.173279,19
0.438201,0.0103065,-0.172044,20
0.43864,0.0102604,-0.171329,26
0.43887,0.0102353,-0.170531,28
0.438056,0.010315,-0.169325,23
0.438652,0.0102532,-0.168671,26
0.438256,0.0102909,-0.167633,28
0.43781,0.0103337,-0.166577,27
0.439451,0.0101669,-0.166322,31
0.439579,0.0101521,-0.165486,25
0.440389,0.0100687,-0.164908,30
0.43858,0.0102484,-0.163341,28
0.44091,0.0100124,-0.163333,24
0.440776,0.0100239,-0.162398,27
0.441169,0.00998241,-0.16166,26
0.440877,0.0100097,-0.160669,22
0.44323,0.0097714,-0.160649,26
0.442512,0.00984152,-0.1595,29
0.440848,0.0100066,-0.158013,26
0.440612,0.0100283,-0.157047,33
0.441427,0.00994446,-0.15646,32
0.442404,0.00984433,-0.155929,36
0.441113,0.00997206,-0.15459,33
0.443306,0.00974972,-0.154485,36
0.442644,0.00981418,-0.153372,34
0.443149,0.00976148,-0.152668,33
0.442278,0.009847,-0.151487,39
0.442782,0.00979433,-0.150783,35
0.443129,0.00975751,-0.150024,33
0.442788,0.00978979,-0.149031,33
0.442924,0.00977417,-0.148201,37
0.443377,0.00972659,-0.147478,36
0.44463,0.00959873,-0.147021,36
0.446479,0.00941085,-0.146758,42
0.445759,0.0094812,-0.14564,45
0.445844,0.00947067,-0.144789,40
0.447757,0.00927637,-0.144536,40
0.4486,0.00918962,-0.143928,42
0.445567,0.00949262,-0.142068,45
0.446402,0.00940663,-0.14146,44
0.449567,0.00908648,-0.141592,44
0.449818,0.00905925,-0.14079,41
0.448657,0.0091739,-0.139543,44
0.448313,0.00920651,-0.138557,43
0.449377,0.00909758,-0.13801,48
0.449738,0.0090593,-0.137243,51
0.44896,0.00913555,-0.136126,47
0.447431,0.00928725,-0.134784,48
0.449845,0.00904248,-0.134642,52
0.450644,0.00896017,-0.134005,44
0.449757,0.00904745,-0.132862,50
0.450991,0.00892124,-0.132353,49
0.451193,0.00889896,-0.131536,48
0.451559,0.00886012,-0.130766,53
0.452036,0.00881017,-0.130028,53
0.451856,0.00882626,-0.129099,56
0.452006,0.00880926,-0.128265,54
0.452265,0.00878118,-0.127463,56
0.455229,0.00848093,-0.127427,54
0.454771,0.00852504,-0.126417,57
0.453873,0.00861344,-0.125287,56
0.454854,0.00851266,-0.124682,56
0.454178,0.00857875,-0.123618,60
0.45378,0.00861684,-0.122633,58
0.454762,0.00851602,-0.122024,56
0.45597,0.00839236,-0.121474,59
0.456293,0.0083579,-0.120682,63
0.455948,0.0083906,-0.119713,63
0.456829,0.00829996,-0.119068,63
0.457994,0.00818075,-0.118495,62
0.45681,0.00829794,-0.117308,65
0.457527,0.00822377,-0.116617,56
0.458808,0.00809279,-0.116067,57
0.459024,0.00806899,-0.115243,65
0.459242,0.00804512,-0.114419,65
0.459403,0.00802686,-0.11358,63
0.459115,0.00805392,-0.11263,66
0.461825,0.007779,-0.11242,59
0.459835,0.00797741,-0.111052,66
0.459999,0.00795892,-0.110214,69
0.459543,0.00800286,-0.109227,75
0.461007,0.00785335,-0.1087,75
0.46055,0.00789739,-0.107714,83
0.462136,0.0077357,-0.107209,80
0.461621,0.00778558,-0.10621,75
0.461448,0.007801,-0.105292,81
0.461332,0.00781064,-0.104389,81
0.461218,0.0078202,-0.103487,86
0.461557,0.00778402,-0.102688,83
0.462068,0.00773056,-0.101926,85
0.463151,0.00761945,-0.10129,84
0.462581,0.00767488,-0.100287,90
0.461446,0.00778726,-0.0991651,89
0.461618,0.00776793,-0.0983291,86
0.461055,0.00782275,-0.0973359,94
0.460324,0.00789439,-0.0963101,82
0.460103,0.00791472,-0.0953943,82
0.461349,0.00778715,-0.0947846,82
0.459271,0.0079947,-0.0934866,87
0.458717,0.00804857,-0.0925078,83
0.458723,0.00804595,-0.0916448,85
0.458172,0.00809954,-0.0906708,90
0.45668,0.00824802,-0.0895129,97
0.456301,0.00828424,-0.0885797,97
0.454879,0.00842575,-0.0874455,103
0.45445,0.00846705,-0.0865085,94
0.45457,0.00845299,-0.0856781,96
0.453542,0.00855468,-0.0846313,95
0.453282,0.00857903,-0.083732,97
0.453839,0.00852086,-0.0829853,105
0.453089,0.00859457,-0.0819979,111
0.450992,0.00880422,-0.08077,112
0.450844,0.00881715,-0.0798996,119
0.449732,0.00892746,-0.0788593,113
0.449908,0.00890776,-0.0780494,117
0.448642,0.00903357,-0.0769894,117
0.448233,0.00907292,-0.0760814,109
0.447614,0.00913352,-0.0751398,109
0.446944,0.00919921,-0.0741924,120
0.446645,0.0092274,-0.0733096,119
0.445298,0.00936151,-0.0722564,118
0.444428,0.00944736,-0.0712862,117
0.444866,0.00940124,-0.0705289,121
0.44374,0.00951304,-0.0695229,123
0.443086,0.00957713,-0.0685954,128
0.442591,0.00962529,-0.0676951,129
0.442458,0.00963679,-0.0668524,128
0.44181,0.00970029,-0.0659331,129
0.440806,0.00979979,-0.0649636,134
0.440574,0.00982134,-0.0641115,135
0.440036,0.00987377,-0.0632164,136
0.439807,0.00989511,-0.0623676,140
0.439884,0.00988549,-0.0615634,136
0.439197,0.00995297,-0.0606529,141
0.438513,0.0100202,-0.0597457,147
0.438389,0.0100309,-0.0589172,148
0.438164,0.0100518,-0.058076,144
0.437838,0.0100828,-0.0572228,142
0.438576,0.0100064,-0.056509,148
0.438251,0.0100374,-0.0556569,149
0.43813,0.0100478,-0.054832,148
0.437605,0.010099,-0.0539578,144
0.437788,0.0100787,-0.0531723,150
0.437668,0.0100889,-0.0523501,146
0.437852,0.0100685,-0.0515645,150
0.437582,0.0100939,-0.0507256,142
0.438121,0.0100378,-0.0499807,150
0.43765,0.0100835,-0.0491202,157
0.438088,0.0100374,-0.0483626,153
0.43777,0.0100677,-0.0475211,153
0.438109,0.0100316,-0.0467515,159
0.437842,0.0100567,-0.0459171,158
0.438182,0.0100206,-0.0451467,159
0.438017,0.0100354,-0.0443241,150
0.438105,0.0100247,-0.0435275,154
0.438093,0.010024,-0.042721,150
0.438183,0.0100132,-0.0419245,151
0.43888,0.00994091,-0.0411851,153
0.439326,0.00989403,-0.0404202,158
0.438404,0.00998533,-0.0395303,161
0.438445,0.00997934,-0.0387292,156
0.438386,0.00998351,-0.0379194,156
0.439086,0.00991091,-0.0371745,162
0.438219,0.00999677,-0.0362972,154
0.439122,0.00990363,-0.0355668,155
0.438155,0.00999959,-0.0346852,156
0.438856,0.00992685,-0.0339363,162
0.438446,0.00996647,-0.0331012,158
0.438644,0.0099447,-0.0323125,164
0.438791,0.00992797,-0.0315196,163
0.438686,0.00993675,-0.0307088,163
0.438532,0.00995058,-0.0298951,163
0.438933,0.00990811,-0.0291189,162
0.439641,0.00983473,-0.0283611,164
0.439995,0.00979709,-0.0275787,172
0.439842,0.00981078,-0.0267644,172
0.440707,0.00972145,-0.0260106,177
0.440452,0.0097454,-0.0251901,173
0.440249,0.0097641,-0.0243735,176
0.439742,0.00981357,-0.0235417,168
0.439896,0.00979614,-0.0227457,171
0.440102,0.00977349,-0.0219519,175
0.440207,0.00976107,-0.0211526,177
0.440363,0.00974343,-0.0203553,178
0.439961,0.00978235,-0.0195332,180
0.441547,0.00962005,-0.0187959,179
0.44048,0.0097262,-0.0179467,177
0.442019,0.00956858,-0.017201,175
0.441104,0.00965934,-0.0163605,177
0.440754,0.00969295,-0.015543,170
0.440813,0.00968519,-0.0147402,173
0.440821,0.00968253,-0.0139357,177
0.441853,0.0095763,-0.0131608,170
0.44217,0.00954236,-0.0123628,172
0.442385,0.00951872,-0.0115612,176
0.442808,0.00947417,-0.0107636,181
0.442356,0.00951805,-0.00994574,177
0.442316,0.00952022,-0.0091377,179
0.442998,0.00944943,-0.00834263,179
0.442547,0.00949318,-0.00752711,178
0.44251,0.00949518,-0.00671908,182
0.44309,0.00943458,-0.00591873,175
0.443156,0.00942603,-0.00511095,184
0.44312,0.00942785,-0.00430209,183
0.443239,0.00941396,-0.00349439,187
0.44429,0.00930571,-0.00269065,181
0.445035,0.00922851,-0.00188213,182
0.443343,0.009398,-0.00106844,187
0.444603,0.0092685,-0.000258469,177
0.443742,0.00935392,0.000550407,184
0.445058,0.00921877,0.00136609,186
0.44487,0.00923594,0.00217698,182
0.444268,0.00929507,0.00298376,177
0.445225,0.00919633,0.00380417,176
0.445351,0.00918169,0.00461818,179
0.445166,0.00919864,0.00542837,179
0.446809,0.00903033,0.00626671,177
0.446152,0.009095,0.00707071,180
0.445916,0.00911712,0.0078805,174
0.445784,0.00912858,0.0086917,179
0.4467,0.009034,0.00952675,178
0.447357,0.0089656,0.0103588,179
0.446964,0.00900357,0.0111651,179
0.446101,0.00908914,0.0119565,178
0.446496,0.00904729,0.0127833,179
0.447049,0.00898934,0.0136168,174
0.448502,0.00884026,0.0144833,178
0.448321,0.00885673,0.0152962,178
0.448617,0.00882491,0.0161267,186
0.448067,0.00887874,0.0169246,179
0.448522,0.00883075,0.0177625,182
0.44808,0.00887374,0.0185631,182
0.448219,0.00885776,0.0193886,180
0.449472,0.00872891,0.0202676,186
0.449933,0.00868034,0.0211123,186
0.449437,0.00872875,0.02191,184
0.449579,0.00871242,0.0227398,190
0.449776,0.00869062,0.0235732,186
0.451256,0.00853874,0.0244802,186
0.451294,0.00853294,0.0253086,190
0.450852,0.00857594,0.0261081,185
0.451588,0.00849939,0.0269796,187
0.45179,0.00847705,0.0278197,187
0.45167,0.00848732,0.0286395,179
0.451551,0.00849752,0.0294591,182
0.452886,0.00836027,0.0303799,183
0.453146,0.00833205,0.0312288,182
0.452057,0.00844057,0.0319797,186
0.452533,0.00839045,0.0328447,190
0.451985,0.00844407,0.0336326,183
0.454086,0.00822915,0.0346282,178
0.453103,0.00832696,0.0353821,180
0.453367,0.0082983,0.0362359,182
0.454555,0.00817583,0.0371692,179
0.454931,0.00813577,0.0380369,182
0.454654,0.008162,0.0388483,179
0.454541,0.00817157,0.0396738,172
0.455356,0.00808698,0.0405848,174
0.454916,0.00812969,0.0413809,180
0.455078,0.00811139,0.0422333,177
0.457492,0.00786447,0.0433071,183
0.455513,0.00806343,0.043952,185
0.455842,0.0080282,0.0448241,179
0.456061,0.00800398,0.0456866,183
0.455898,0.00801865,0.0465098,186
0.45733,0.00787138,0.0475037,177
0.457664,0.00783555,0.0483835,182
0.45695,0.00790615,0.0491484,175
0.45734,0.00786465,0.0500357,178
0.457953,0.00780052,0.0509502,182
0.45746,0.00784862,0.0517384,178
0.456528,0.00794129,0.052473,179
0.458137,0.0077761,0.0535103,182
0.458144,0.00777344,0.0543581,183
0.457764,0.00781011,0.0551582,181
0.457661,0.00781858,0.0559922,180
0.458391,0.00774255,0.0569325,183
0.45829,0.00775091,0.0577681,188
0.458689,0.00770843,0.0586696,184
0.458979,0.0076771,0.0595582,184
0.459046,0.00766832,0.0604182,180
0.458502,0.00772166,0.0611948,180
0.459406,0.00762786,0.0621715,182
0.458807,0.00768683,0.0629396,183
0.459156,0.00764948,0.0638414,181
0.459115,0.00765168,0.0646885,178
0.459019,0.00765949,0.0655278,182
0.459147,0.00764457,0.0664003,181
0.459164,0.00764091,0.0672569,183
0.459237,0.00763152,0.0681227,183
0.459479,0.00760502,0.0690151,180
0.459218,0.00762956,0.0698303,181
0.458735,0.00767667,0.0706098,183
0.458867,0.00766137,0.0714862,182
0.459167,0.00762897,0.0723908,179
0.459467,0.00759645,0.0732971,179
0.459042,0.00763772,0.0740845,182
0.459288,0.00761077,0.0749834,182
0.45892,0.00764622,0.0757795,181
0.458944,0.00764187,0.0766418,184
0.458801,0.00765447,0.0774757,185
0.458547,0.00767836,0.07829,180
0.458293,0.00770216,0.079104,186
0.458598,0.00766922,0.0800174,188
0.458625,0.00766456,0.0808821,183
0.458596,0.00766551,0.0817373,183
0.458234,0.00770042,0.082531,179
0.457539,0.00776917,0.0832617,181
0.457957,0.00772468,0.0842004,184
0.456764,0.00784402,0.084834,181
0.457182,0.00779955,0.0857737,179
0.457324,0.0077832,0.0866617,182
0.455749,0.00794143,0.0872138,181
0.45578,0.00793631,0.0880786,185
0.455481,0.0079648,0.088878,184
0.454193,0.00809381,0.0894771,181
0.453733,0.00813872,0.0902404,183
0.453274,0.0081835,0.0910027,182
0.452761,0.00823369,0.0917527,183
0.452795,0.00822833,0.0926158,184
0.452829,0.0082229,0.0934796,184
0.452482,0.00825624,0.0942627,182
0.451919,0.00831162,0.0949984,185
0.45152,0.00835026,0.0957682,184
0.450096,0.00849327,0.0963121,179
0.449916,0.00850961,0.0971264,177
0.449629,0.00853684,0.0979167,180
0.448699,0.00862956,0.0985616,178
0.44879,0.00861839,0.0994352,175
0.448667,0.00862899,0.100261,178
0.447475,0.00874839,0.10084,176
0.447087,0.00878597,0.101601,179
0.446912,0.00880179,0.102413,176
0.446632,0.00882838,0.103199,176
0.446406,0.00884948,0.103997,176
0.446127,0.00887592,0.104783,180
0.445373,0.00895081,0.105452,179
0.444463,0.00904152,0.106081,172
0.444082,0.00907835,0.106838,172
0.444228,0.00906153,0.107725,168
0.444165,0.00906609,0.10856,171
0.443786,0.00910275,0.109316,172
0.44346,0.00913397,0.110085,168
0.443083,0.00917044,0.11084,166
0.442707,0.00920682,0.111594,165
0.443958,0.00907745,0.112771,159
0.442532,0.00922074,0.113251,158
0.442315,0.00924094,0.114046,159
0.442203,0.00925044,0.114869,158
0.443034,0.00916386,0.115944,159
0.442293,0.00923734,0.116599,157
0.442497,0.00921471,0.117508,159
0.442177,0.00924536,0.118276,162
0.442171,0.00924397,0.11913,159
0.442585,0.00919982,0.120101,152
0.442005,0.00925704,0.120796,158
0.442367,0.00921815,0.121754,153
0.441997,0.00925393,0.122508,155
0.442099,0.00924163,0.123395,151
0.442621,0.0091865,0.124404,155
0.442618,0.00918476,0.125264,155
0.441778,0.0092685,0.12588,155
0.442458,0.00919721,0.12694,150
0.443299,0.00910949,0.12805,155
0.442509,0.00918806,0.12868,150
0.442247,0.00921287,0.129465,155
0.442195,0.00921622,0.130314,158
0.442564,0.00917665,0.13129,155
0.442934,0.00913695,0.132269,152
0.442514,0.00917775,0.133007,147
0.442517,0.00917555,0.133875,151
0.44273,0.00915182,0.13481,154
0.443103,0.00911185,0.135795,151
0.442105,0.00921163,0.136351,148
0.442372,0.00918242,0.137305,148
0.443168,0.00909925,0.13843,150
0.442856,0.00912911,0.139202,144
0.443073,0.00910501,0.140145,150
0.442445,0.00916709,0.140815,144
0.443562,0.00905117,0.142054,145
0.443887,0.00901599,0.143038,151
0.44347,0.00905658,0.143777,151
0.443583,0.00904298,0.144693,150
0.443751,0.0090239,0.145628,152
0.443919,0.00900475,0.146564,151
0.443875,0.00900726,0.14743,141
0.444097,0.00898257,0.148388,151
0.44416,0.00897412,0.149292,141
0.443638,0.00902541,0.149995,138
0.443595,0.00902776,0.150864,140
0.443234,0.00906262,0.151622,139
0.444311,0.00895072,0.152884,138
0.444163,0.00896383,0.153719,139
0.443216,0.00905847,0.15427,130
0.444241,0.00895179,0.155523,125
0.44479,0.00889379,0.156609,129
0.444857,0.00888488,0.157524,125
0.444711,0.00889783,0.158363,133
0.443388,0.00903078,0.158772,133
0.444472,0.00891815,0.160061,128
0.445239,0.00883781,0.161238,115
0.444128,0.00894923,0.161721,119
0.444304,0.00892917,0.162682,115
0.443411,0.00901835,0.163242,121
0.444069,0.0089491,0.164386,116
0.444194,0.00893438,0.16533,124
0.44464,0.0088867,0.166398,126
0.444068,0.00894314,0.167078,129
0.444516,0.00889538,0.16815,122
0.444481,0.00889691,0.169038,122
0.445038,0.00883792,0.170157,118
0.444465,0.00889438,0.170836,121
0.445186,0.00881873,0.172024,107
0.446289,0.00870395,0.173366,112
0.446582,0.00867195,0.174392,106
0.446876,0.00863985,0.17542,105
0.44679,0.00864663,0.176297,108
0.445671,0.00875884,0.176757,115
0.446237,0.00869899,0.177898,108
0.445825,0.00873896,0.178643,114
0.446992,0.00861766,0.180036,113
0.447071,0.00860752,0.180985,108
0.446768,0.0086364,0.181776,105
0.446684,0.00864292,0.182659,105
0.448188,0.00848709,0.184208,103
0.446844,0.00862237,0.184564,108
0.447582,0.00854485,0.185797,101
0.447828,0.00851757,0.186825,101
0.448847,0.00841132,0.188184,99
0.449041,0.00838939,0.189195,97
0.448352,0.00845773,0.189827,94
0.448877,0.00840188,0.190983,96
0.448134,0.00847579,0.191589,99
0.448992,0.00838596,0.192894,108
0.44941,0.00834109,0.194011,100
0.448721,0.00840947,0.19464,103
0.448585,0.00842117,0.195514,101
0.44834,0.00844414,0.196339,105
0.448206,0.00845576,0.197213,132
0.449068,0.00836544,0.198537,98
0.449323,0.00833726,0.199591,95
0.44869,0.00839989,0.200243,100
0.439242,0.00683945,-0.207802,8
0.438772,0.00688814,-0.206654,8
0.38014,0.0132259,-0.177955,7
0.445511,0.00615532,-0.207994,10
0.43326,0.00747795,-0.201299,8
0.272895,0.0248193,-0.125788,6
0.436084,0.00716844,-0.2008,14
0.718075,-0.0233306,-0.33116,8
0.522242,-0.00215418,-0.238819,9
0.432701,0.0075281,-0.196514,11
0.352807,0.0161682,-0.159149,7
0.431041,0.00770363,-0.193955,10
0.434182,0.00736182,-0.194482,10
0.447342,0.00593611,-0.199518,10
0.434725,0.00729891,-0.192922,12
0.435412,0.00722252,-0.192328,12
0.434443,0.00732536,-0.190994,13
0.431179,0.00767644,-0.18865,11
0.434111,0.00735717,-0.18905,14
0.435366,0.00721935,-0.188704,13
0.435226,0.00723247,-0.187744,9
0.435242,0.00722876,-0.186853,12
0.433506,0.00741455,-0.185206,13
0.434139,0.00734403,-0.184586,15
0.433796,0.00737912,-0.183547,20
0.435358,0.007208,-0.183321,16
0.434087,0.00734355,-0.181889,21
0.437835,0.00693586,-0.18258,17
0.440798,0.00661308,-0.182928,15
0.435531,0.00718114,-0.179825,19
0.437782,0.00693544,-0.17987,17
0.435156,0.0072178,-0.177889,18
0.434198,0.00731949,-0.176607,17
0.435761,0.0071482,-0.176362,17
0.435884,0.00713289,-0.175524,18
0.438502,0.00684739,-0.175699,22
0.435975,0.00711897,-0.173787,23
0.437291,0.00697452,-0.17343,22
0.438144,0.00688013,-0.172883,29
0.439052,0.00677971,-0.172355,23
0.435183,0.00719674,-0.169936,25
0.438519,0.00683343,-0.170367,25
0.437084,0.0069868,-0.168919,30
0.437729,0.00691496,-0.168286,28
0.437751,0.00691055,-0.167411,26
0.438554,0.00682155,-0.166837,23
0.437641,0.00691849,-0.165604,29
0.438913,0.00677868,-0.165207,29
0.439825,0.00667786,-0.16467,32
0.439378,0.00672433,-0.163617,28
0.439715,0.00668574,-0.162861,27
0.439269,0.00673208,-0.161812,32
0.438252,0.00684026,-0.160554,31
0.438277,0.00683554,-0.159686,29
0.441073,0.00653064,-0.159834,32
0.441045,0.00653159,-0.158942,25
0.438875,0.00676485,-0.157273,32
0.441097,0.00652198,-0.157199,36
0.4426,0.00635711,-0.156858,33
0.440783,0.00655206,-0.155328,35
0.441861,0.00643316,-0.154832,34
0.440418,0.00658757,-0.153444,35
0.439872,0.00664485,-0.152377,37
0.440632,0.00656047,-0.151768,38
0.441289,0.00648719,-0.151122,39
0.442687,0.00633365,-0.150729,35
0.44182,0.00642564,-0.149554,38
0.441587,0.00644894,-0.1486,33
0.441565,0.0064494,-0.147719,42
0.443546,0.00623256,-0.147513,41
0.443365,0.00625023,-0.146577,40
0.445202,0.00604903,-0.146313,35
0.443903,0.00618784,-0.145006,39
0.444998,0.00606717,-0.144491,39
0.445349,0.00602705,-0.143729,41
0.445702,0.00598683,-0.142968,42
0.446001,0.00595234,-0.142189,46
0.444915,0.00606824,-0.140964,41
0.4473,0.00580743,-0.140851,46
0.446851,0.00585421,-0.139832,45
0.446135,0.00592984,-0.138731,50
0.447241,0.00580788,-0.138203,50
0.448137,0.00570872,-0.137607,55
0.448064,0.00571461,-0.136708,48
0.446597,0.00587184,-0.135383,50
0.447008,0.00582527,-0.134636,50
0.449415,0.00556212,-0.134494,51
0.449235,0.00557964,-0.133564,50
0.448624,0.00564396,-0.132506,50
0.449093,0.00559101,-0.131773,54
0.449673,0.00552617,-0.13107,56
0.449495,0.0055435,-0.130144,50
0.452091,0.00525965,-0.130028,54
0.451693,0.00530088,-0.129035,53
0.450046,0.00547769,-0.127686,60
0.451882,0.00527637,-0.127338,59
0.451268,0.00534105,-0.12629,60
0.450657,0.00540547,-0.125244,60
0.451624,0.00529851,-0.124643,62
0.452048,0.00525048,-0.123889,57
0.453515,0.00508915,-0.12342,56
0.453229,0.0051183,-0.122467,59
0.452505,0.00519492,-0.121397,60
0.454306,0.00499731,-0.121011,61
0.453745,0.00505629,-0.119986,59
0.454395,0.00498366,-0.119286,61
0.454772,0.0049408,-0.118512,64
0.454928,0.00492184,-0.117679,62
0.454037,0.00501663,-0.116574,60
0.456129,0.00478745,-0.116243,62
0.457178,0.00467153,-0.115637,63
0.457449,0.00464011,-0.11483,67
0.456661,0.00472368,-0.113755,69
0.457378,0.00464378,-0.113061,66
0.457818,0.00459397,-0.112296,69
0.458148,0.0045562,-0.111502,68
0.457807,0.00459126,-0.110544,68
0.4573,0.00464436,-0.109547,62
0.457519,0.00461862,-0.108728,74
0.458801,0.00447733,-0.108162,71
0.458797,0.00447574,-0.107287,71
0.45829,0.00452883,-0.106295,70
0.458736,0.00447846,-0.105527,69
0.460815,0.00425043,-0.105135,69
0.46008,0.00432836,-0.104091,79
0.459124,0.00443034,-0.103,79
0.459966,0.0043368,-0.102319,83
0.459741,0.00435927,-0.101396,86
0.459461,0.00438775,-0.100463,87
0.459294,0.00440392,-0.0995562,86
0.458904,0.00444437,-0.098602,92
0.459018,0.00442996,-0.0977586,90
0.458965,0.00443374,-0.0968795,89
0.45841,0.00449213,-0.0958948,89
0.457801,0.00455635,-0.0949015,86
0.456862,0.00465648,-0.0938424,86
0.456924,0.00464788,-0.0929933,90
0.456377,0.00470541,-0.0920205,101
0.455116,0.00484052,-0.0909061,107
0.45474,0.00487953,-0.0899739,100
0.454091,0.00494814,-0.0889897,98
0.453608,0.00499867,-0.088041,91
0.453836,0.00497196,-0.0872328,97
0.453029,0.00505781,-0.086225,89
0.451901,0.00517858,-0.0851595,100
0.450726,0.00530449,-0.0840899,106
0.451384,0.00523094,-0.0833677,114
0.450804,0.0052921,-0.0824146,112
0.450227,0.00535302,-0.0814645,110
0.449491,0.00543116,-0.0804884,110
0.448492,0.00553791,-0.0794685,113
0.448029,0.00558639,-0.0785477,110
0.447145,0.00568075,-0.0775552,116
0.446633,0.00573451,-0.0766312,113
0.446018,0.00579952,-0.0756918,108
0.445458,0.00585856,-0.0747645,107
0.445058,0.00590029,-0.0738664,111
0.444345,0.00597594,-0.0729186,117
0.44374,0.00603995,-0.0719914,124
0.443396,0.00607548,-0.0711093,121
0.442795,0.00613906,-0.0701876,125
0.442299,0.00619116,-0.0692853,123
0.441908,0.00623184,-0.0684016,131
0.440697,0.00636176,-0.0673933,137
0.440157,0.00641868,-0.0664922,137
0.43967,0.00646984,-0.0656014,132
0.439592,0.00647648,-0.0647737,136
0.438803,0.00656053,-0.0638422,133
0.438828,0.00655598,-0.063032,134
0.439057,0.00652925,-0.0622512,135
0.438019,0.00664042,-0.0612911,136
0.437188,0.00672904,-0.0603642,137
0.436913,0.00675712,-0.059517,140
0.437243,0.00671942,-0.0587531,146
0.437422,0.00669808,-0.0579681,139
0.437702,0.00666568,-0.0571962,139
0.437177,0.006721,-0.056319,142
0.437459,0.00668853,-0.0555472,141
0.437439,0.00668889,-0.0547366,141
0.436866,0.00674942,-0.0538579,142
0.437199,0.00671135,-0.0530922,145
0.437684,0.0066567,-0.052344,146
0.437313,0.00669521,-0.0514928,147
0.437598,0.00666239,-0.0507197,145
0.436677,0.00676092,-0.0498075,150
0.436911,0.00673353,-0.0490294,145
0.437398,0.00667868,-0.0482787,154
0.437182,0.00670042,-0.0474497,150
0.43767,0.00664539,-0.0466974,152
0.437153,0.0066999,-0.0458376,153
0.43724,0.0066886,-0.0450425,159
0.437377,0.00667177,-0.0442524,155
0.436663,0.00674785,-0.043377,152
0.436551,0.00675823,-0.0425636,151
0.437342,0.0066702,-0.0418375,158
0.437834,0.00661474,-0.0410806,152
0.437622,0.00663598,-0.040257,157
0.437612,0.00663522,-0.0394528,156
0.437553,0.00663988,-0.0386444,163
0.437343,0.00666091,-0.0378234,157
0.437788,0.00661065,-0.0370589,156
0.43773,0.00661513,-0.0362512,158
0.438075,0.00657566,-0.0354767,159
0.438876,0.0064865,-0.0347372,153
0.438719,0.00650186,-0.0339207,163
0.437906,0.00658859,-0.0330556,156
0.438456,0.00652685,-0.0322939,158
0.438149,0.00655848,-0.0314689,158
0.438297,0.00654057,-0.030677,164
0.439152,0.00644546,-0.0299329,167
0.439403,0.00641631,-0.0291457,174
0.439756,0.006376,-0.0283643,171
0.439754,0.00637434,-0.0275596,174
0.438993,0.00645548,-0.0267091,168
0.439398,0.00640954,-0.02593,170
0.439854,0.00635792,-0.0251525,170
0.44016,0.00632276,-0.0243651,173
0.440263,0.0063097,-0.0235659,171
0.439554,0.0063852,-0.0227249,168
0.439861,0.00634991,-0.0219368,177
0.439965,0.00633668,-0.0211381,177
0.440325,0.00629565,-0.0203507,179
0.44038,0.00628782,-0.0195487,177
0.440639,0.00625771,-0.0187553,177
0.440441,0.00627752,-0.0179426,176
0.440396,0.0062806,-0.0171366,175
0.440199,0.00630026,-0.0163253,182
0.440715,0.00624214,-0.0155395,178
0.440824,0.00622836,-0.0147385,178
0.44165,0.00613647,-0.0139593,176
0.440485,0.00626175,-0.0131195,177
0.442231,0.00606931,-0.0123628,175
0.441729,0.00612231,-0.0115431,180
0.442457,0.00604099,-0.010754,177
0.442571,0.00602672,-0.00994905,186
0.442275,0.00605723,-0.00913569,180
0.442544,0.00602602,-0.00833351,178
0.442198,0.006062,-0.0075206,181
0.442519,0.00602507,-0.00671836,178
0.442687,0.00600486,-0.0059131,177
0.443629,0.00590018,-0.0051152,182
0.443438,0.0059192,-0.00430426,183
0.443403,0.00592125,-0.00349507,183
0.44311,0.00595137,-0.00268481,180
0.444263,0.0058236,-0.00187977,180
0.444281,0.00581981,-0.00106931,183
0.443473,0.00590627,-0.000259506,184
0.443956,0.0058516,0.00055083,176
0.444287,0.00581371,0.00136227,184
0.444203,0.00582097,0.00217229,182
0.444898,0.00574323,0.0029885,183
0.444608,0.00577305,0.00379729,179
0.445046,0.00572343,0.0046138,181
0.444861,0.0057418,0.00542331,178
0.44556,0.00566355,0.00624612,177
0.445688,0.00564769,0.00706151,176
0.445557,0.00566024,0.00787237,179
0.445895,0.00562146,0.00869282,179
0.445816,0.00562818,0.00950492,179
0.445738,0.00563484,0.0103168,182
0.446444,0.00555584,0.0111496,185
0.448047,0.00537882,0.0120109,187
0.447971,0.00538535,0.0128268,184
0.447316,0.00545503,0.0136236,180
0.448083,0.00536941,0.014467,181
0.447955,0.00538149,0.0152809,178
0.447565,0.00542227,0.0160845,181
0.448176,0.00535362,0.0169267,183
0.447313,0.00544605,0.0177096,176
0.447925,0.00537734,0.0185539,180
0.448592,0.00530258,0.0194031,179
0.448838,0.00527384,0.0202349,187
0.448291,0.00533171,0.0210287,185
0.448697,0.00528553,0.0218693,183
0.449051,0.00524499,0.0227088,186
0.449671,0.00517528,0.0235644,187
0.449762,0.00516349,0.0243924,189
0.450546,0.00507591,0.0252616,183
0.450852,0.00504057,0.0261049,188
0.452017,0.00491132,0.027003,192
0.451735,0.00494021,0.0278128,187
0.452206,0.00488682,0.0286715,185
0.451658,0.00494495,0.0294627,188
0.451539,0.00495602,0.0302822,185
0.451314,0.00497873,0.0310937,178
0.451787,0.00492515,0.031956,181
0.452208,0.00487726,0.0328162,185
0.452792,0.00481152,0.0336909,188
0.454028,0.00467442,0.0346196,182
0.453858,0.00469112,0.0354392,173
0.453851,0.00468995,0.0362718,177
0.454171,0.00465311,0.0371324,174
0.454328,0.00463397,0.0379803,179
0.454759,0.00458499,0.0388532,173
0.455136,0.0045418,0.0397231,177
0.454533,0.00460583,0.0405043,176
0.454639,0.00459233,0.0413501,182
0.455401,0.00450713,0.0422596,187
0.455509,0.00449343,0.0431081,184
0.456165,0.00441973,0.0440121,183
0.457981,0.00421902,0.0450368,185
0.457927,0.00422308,0.0458748,186
0.455619,0.00447378,0.0464751,182
0.457654,0.00424911,0.0475333,181
0.45727,0.00428918,0.0483353,178
0.457384,0.00427484,0.0491913,177
0.457719,0.00423625,0.0500731,180
0.456951,0.00431836,0.0508297,175
0.456022,0.00441816,0.051565,179
0.456742,0.00433746,0.0524926,179
0.457741,0.00422616,0.0534569,182
0.456645,0.00434422,0.0541689,183
0.457535,0.0042449,0.0551238,179
0.45793,0.00419968,0.0560201,182
0.458493,0.00413608,0.0569396,183
0.45817,0.00416952,0.0577465,184
0.458347,0.00414824,0.0586184,180
0.458525,0.00412688,0.0594913,182
0.458092,0.00417227,0.0602827,183
0.457994,0.00418114,0.0611186,182
0.457785,0.00420207,0.0619391,179
0.458076,0.00416833,0.0628297,176
0.457979,0.00417699,0.0636664,176
0.458549,0.00411265,0.0645997,178
0.458786,0.00408466,0.0654868,178
0.458191,0.00414792,0.0662512,173
0.457598,0.00421096,0.0670141,184
0.458503,0.0041099,0.0680037,177
0.458855,0.00406941,0.0689117,180
0.458762,0.00407763,0.0697518,182
0.45867,0.00408577,0.0705922,181
0.457579,0.00420335,0.0712725,179
0.457267,0.0042356,0.0720754,182
0.457454,0.00421319,0.0729594,181
0.457753,0.00417853,0.073863,178
0.456558,0.00430755,0.0745175,177
0.456856,0.0042729,0.0754214,177
0.456603,0.0042987,0.0762321,180
0.457845,0.00416065,0.0773018,179
0.458092,0.00413164,0.0782021,185
0.457784,0.00416347,0.0790054,179
0.457865,0.00415261,0.0798777,181
0.457392,0.00420253,0.0806504,182
0.456312,0.00431894,0.0813106,180
0.456229,0.00432611,0.0821516,184
0.457919,0.00413891,0.0833241,186
0.455844,0.00436445,0.0837926,187
0.454883,0.00446789,0.0844662,182
0.454912,0.00446275,0.0853273,183
0.454832,0.00446959,0.0861677,184
0.454204,0.00453646,0.0869008,185
0.452925,0.00467484,0.0875026,182
0.452357,0.00473511,0.0882427,183
0.452769,0.00468802,0.0891791,187
0.451552,0.0048195,0.0897852,182
0.450882,0.00489112,0.0904996,177
0.451563,0.00481447,0.091493,182
0.450461,0.00493334,0.0921155,177
0.450225,0.0049573,0.0929175,176
0.449775,0.00500477,0.0936733,181
0.449058,0.0050815,0.0943704,179
0.4492,0.00506403,0.0952521,182
0.448806,0.00510528,0.0960175,185
0.448413,0.00514641,0.096782,178
0.447489,0.0052459,0.0974268,180
0.448005,0.00518737,0.098393,175
0.446499,0.0053507,0.0989024,180
0.445794,0.00542607,0.0995902,180
0.445461,0.00546067,0.100362,176
0.445816,0.00541985,0.101293,183
0.445484,0.00545435,0.102064,181
0.444942,0.0055119,0.102785,180
0.444822,0.00552308,0.103606,177
0.445125,0.00548791,0.104528,178
0.443221,0.005695,0.104916,177
0.442999,0.00571745,0.105709,180
0.443248,0.00568817,0.106618,173
0.442818,0.00573346,0.10736,169
0.442545,0.00576146,0.10814,168
0.442743,0.0057378,0.109038,169
0.442576,0.00575423,0.109845,168
0.441784,0.00583926,0.110492,164
0.442191,0.00579263,0.111446,161
0.442443,0.00576305,0.112361,162
0.4416,0.00585366,0.112992,162
0.441904,0.00581833,0.113922,162
0.441896,0.00581725,0.114772,159
0.441889,0.00581612,0.115622,162
0.441413,0.00586643,0.116346,156
0.441147,0.00589378,0.117126,162
0.441193,0.0058868,0.117991,158
0.440823,0.00592546,0.118742,165
0.441599,0.00583834,0.11981,162
0.440813,0.00592269,0.120446,162
0.440965,0.00590409,0.121343,163
0.441169,0.0058797,0.122256,167
0.44127,0.00586668,0.123141,161
0.441163,0.00587651,0.123967,162
0.441891,0.00579454,0.125036,158
0.441262,0.00586165,0.125712,161
0.441365,0.00584841,0.126602,159
0.441208,0.00586378,0.127415,156
0.442043,0.00576998,0.128524,153
0.441468,0.00583129,0.129214,156
0.442044,0.00576603,0.13025,148
0.440738,0.00590759,0.130718,152
0.441313,0.00584244,0.131756,148
0.442205,0.00574243,0.132894,154
0.441525,0.00581514,0.133551,147
0.442105,0.00574952,0.134597,155
0.441793,0.00578183,0.135367,149
0.442532,0.00569863,0.136467,154
0.441747,0.00578288,0.137088,155
0.442172,0.00573426,0.138093,155
0.441914,0.00576066,0.138881,154
0.441656,0.00578699,0.139668,153
0.442345,0.00570927,0.140764,153
0.441825,0.00576448,0.141467,163
0.442147,0.00572711,0.142445,149
0.442206,0.00571859,0.143339,150
0.44253,0.00568102,0.144322,150
0.443013,0.00562588,0.145361,151
0.442704,0.00565787,0.146135,145
0.443083,0.0056142,0.147142,149
0.442933,0.00562867,0.147971,145
0.443208,0.0055965,0.148945,151
0.443536,0.00555837,0.14994,133
0.443706,0.00553768,0.150882,134
0.443239,0.00558706,0.151603,138
0.444048,0.00549606,0.152772,138
0.442519,0.0056622,0.153118,133
0.443167,0.0055889,0.154232,136
0.443126,0.00559138,0.155104,131
0.443192,0.00558212,0.156014,129
0.443525,0.00554354,0.157022,130
0.443272,0.0055693,0.157819,123
0.443073,0.00558916,0.158636,122
0.4433,0.00556215,0.15961,126
0.443049,0.00558779,0.160408,118
0.44397,0.00548436,0.161642,116
0.443239,0.00556281,0.162263,115
0.444002,0.00547678,0.163443,113
0.443965,0.00547882,0.164325,113
0.443288,0.00555136,0.164964,115
0.444107,0.00545919,0.166173,120
0.443857,0.00548467,0.166975,111
0.44334,0.00553951,0.167675,113
0.443572,0.00551193,0.168663,126
0.443484,0.00551961,0.169529,120
0.443289,0.00553903,0.170353,123
0.44438,0.00541685,0.171684,120
0.444615,0.0053889,0.172681,122
0.444313,0.00542011,0.173466,112
0.44525,0.0053149,0.174747,119
0.446029,0.00522703,0.175969,104
0.446268,0.0051986,0.176977,106
0.445695,0.00525973,0.177656,107
0.446423,0.00517743,0.178865,109
0.446555,0.00516077,0.179834,98
0.445873,0.00523386,0.180468,101
0.446931,0.00511525,0.181822,104
0.446193,0.00519442,0.182432,107
0.4472,0.00508146,0.183771,107
0.447554,0.00504036,0.184841,105
0.447307,0.00506552,0.185658,107
0.447333,0.00506049,0.186592,102
0.447909,0.004995,0.187761,103
0.447497,0.00503822,0.18851,101
0.448349,0.00494222,0.189803,91
0.448874,0.00488227,0.190959,100
0.447857,0.0049923,0.191445,100
0.447831,0.00499303,0.192363,105
0.447805,0.00499373,0.193282,99
0.448552,0.00490935,0.194543,98
0.448196,0.00494643,0.195318,87
0.447951,0.00497129,0.196142,90
0.447872,0.00497789,0.19704,125
0.448954,0.00485657,0.198462,101
0.447991,0.00496058,0.198964,104
0.447968,0.00496097,0.199891,105
0.439017,0.00342026,-0.207675,10
0.449556,0.00219483,-0.21178,9
0.438398,0.0034879,-0.205535,8
0.932792,-0.0539038,-0.439469,8
0.431254,0.00431304,-0.200334,12
0.211294,0.0298501,-0.0975176,7
0.448364,0.00232251,-0.206509,7
0.439449,0.00335546,-0.201431,12
0.139234,0.038218,-0.0647075,8
0.440265,0.00325656,-0.199972,10
0.433839,0.00400058,-0.196112,8
0.433492,0.0040389,-0.19505,13
0.437397,0.00358333,-0.19592,13
0.431218,0.00429891,-0.192221,14
0.432712,0.00412338,-0.191997,13
0.433855,0.00398856,-0.191611,14
0.431974,0.00420492,-0.189875,18
0.435639,0.0037772,-0.190605,16
0.435809,0.00375541,-0.18978,15
0.432582,0.00412827,-0.187462,15
0.435114,0.00383204,-0.187676,14
0.433586,0.00400757,-0.186114,15
0.432681,0.00411062,-0.18483,17
0.43511,0.00382642,-0.184986,20
0.43585,0.0037384,-0.184408,19
0.437791,0.00351092,-0.18434,16
0.437181,0.00357968,-0.183183,16
0.435797,0.00373845,-0.181702,12
0.437007,0.00359583,-0.181318,22
0.433009,0.00405842,-0.178752,15
0.436835,0.0036118,-0.179459,16
0.435147,0.00380589,-0.177868,13
0.436664,0.00362759,-0.177605,15
0.437254,0.00355704,-0.176956,17
0.434127,0.00391839,-0.17479,22
0.437033,0.00357869,-0.175086,21
0.437468,0.0035261,-0.174373,19
0.434752,0.00383976,-0.172393,18
0.436368,0.00364986,-0.172157,18
0.434436,0.00387253,-0.170504,18
0.437965,0.0034602,-0.17102,20
0.436742,0.0036004,-0.169652,24
0.435681,0.00372175,-0.168353,27
0.437562,0.003501,-0.168206,27
0.435726,0.00371252,-0.166611,29
0.436986,0.00356401,-0.166217,30
0.434952,0.00379857,-0.164557,27
0.439161,0.00330703,-0.165287,29
0.436334,0.00363384,-0.163331,33
0.43739,0.00350902,-0.162852,31
0.436898,0.00356427,-0.161789,27
0.437698,0.00346926,-0.161211,28
0.437051,0.0035425,-0.160093,27
0.438007,0.00342933,-0.159571,28
0.438655,0.00335195,-0.158932,29
0.439148,0.00329253,-0.158235,33
0.43881,0.00332985,-0.157235,36
0.439253,0.0032764,-0.156519,38
0.438863,0.00331969,-0.155503,38
0.438476,0.00336284,-0.15449,43
0.4409,0.00307874,-0.154478,41
0.440143,0.00316483,-0.153334,38
0.439286,0.00326262,-0.152158,39
0.440199,0.00315431,-0.151604,36
0.439603,0.00322174,-0.150524,40
0.440101,0.00316183,-0.149824,38
0.439246,0.00325933,-0.148659,38
0.440734,0.00308416,-0.148297,37
0.440503,0.00310907,-0.147346,38
0.4397,0.00320052,-0.146205,38
0.440721,0.00307975,-0.145679,46
0.442114,0.00291566,-0.145273,36
0.442093,0.00291613,-0.144395,38
0.442966,0.00281247,-0.143811,42
0.442209,0.00289861,-0.142692,48
0.443558,0.00273957,-0.14226,46
0.443644,0.00272762,-0.141416,47
0.443783,0.00270947,-0.14059,50
0.444769,0.00259259,-0.140034,45
0.444167,0.00266072,-0.138971,44
0.445795,0.00246923,-0.138613,48
0.44535,0.00251902,-0.137601,49
0.445651,0.00248198,-0.136824,48
0.44622,0.00241381,-0.136128,47
0.446309,0.00240146,-0.135284,51
0.445865,0.00245114,-0.134278,53
0.446168,0.00241387,-0.1335,56
0.448348,0.00215803,-0.133287,58
0.446669,0.00235153,-0.131912,57
0.44751,0.00225168,-0.131293,56
0.448515,0.00213263,-0.13072,57
0.448661,0.00211362,-0.129891,62
0.448862,0.00208827,-0.129078,61
0.449009,0.00206914,-0.12825,54
0.448779,0.0020939,-0.127314,59
0.449521,0.00200555,-0.126656,55
0.449399,0.00201769,-0.125752,53
0.449873,0.00196057,-0.125016,60
0.450185,0.00192222,-0.124233,57
0.450173,0.00192165,-0.12336,59
0.450432,0.00188948,-0.122563,61
0.451126,0.00180664,-0.121884,62
0.450952,0.00182491,-0.120967,56
0.452139,0.00168465,-0.120419,56
0.451693,0.00173466,-0.119429,65
0.452938,0.00158752,-0.118892,62
0.453202,0.00155474,-0.118091,64
0.454456,0.00140657,-0.117549,66
0.453568,0.00150811,-0.116446,62
0.45356,0.00150707,-0.115573,59
0.453608,0.00149959,-0.114716,60
0.454644,0.00137674,-0.114111,60
0.454472,0.00139481,-0.113197,68
0.454191,0.00142561,-0.112257,70
0.454791,0.00135376,-0.111538,70
0.456554,0.00114615,-0.111104,70
0.45467,0.00136383,-0.109771,72
0.456822,0.00111098,-0.109426,72
0.455103,0.00130946,-0.108141,74
0.455983,0.00120487,-0.107484,74
0.457089,0.00107395,-0.106877,78
0.456697,0.0011176,-0.105916,75
0.457084,0.00107055,-0.105137,82
0.455643,0.00123663,-0.103935,76
0.456139,0.00117677,-0.103183,84
0.456637,0.00111674,-0.102431,84
0.455642,0.0012308,-0.10134,89
0.456915,0.00108038,-0.100761,82
0.456805,0.0010912,-0.0998705,83
0.45653,0.00112132,-0.098945,79
0.456533,0.00111908,-0.0980815,78
0.456149,0.00116191,-0.0971352,88
0.455601,0.00122386,-0.0961559,90
0.454836,0.0013112,-0.0951331,91
0.4555,0.00123175,-0.0944138,89
0.454736,0.00131889,-0.0933955,87
0.454414,0.00135459,-0.0924715,90
0.453329,0.00147928,-0.0913936,94
0.452467,0.00157794,-0.0903654,89
0.452204,0.00160669,-0.0894611,87
0.451132,0.00172984,-0.0883977,94
0.45098,0.00174569,-0.0875196,91
0.450936,0.00174889,-0.0866636,95
0.450301,0.00182101,-0.0856946,98
0.449991,0.00185534,-0.0847901,98
0.449094,0.00195813,-0.0837766,93
0.44932,0.00192986,-0.0829768,96
0.448108,0.00206937,-0.0819107,100
0.447433,0.00214631,-0.0809478,107
0.446813,0.00221677,-0.079998,114
0.446301,0.00227465,-0.0790703,116
0.446001,0.00230779,-0.0781826,121
0.445544,0.00235919,-0.0772691,122
0.444672,0.00245919,-0.0762854,115
0.444011,0.00253442,-0.0753419,112
0.443146,0.00263354,-0.0743667,117
0.443113,0.00263558,-0.0735346,121
0.442201,0.00274014,-0.0725574,122
0.442427,0.0027119,-0.0717706,127
0.44152,0.00281597,-0.0707997,125
0.44113,0.00285968,-0.0699154,118
0.440281,0.00295699,-0.0689603,124
0.439996,0.00298837,-0.0680971,128
0.439509,0.00304343,-0.0672041,130
0.439074,0.00309235,-0.0663213,138
0.438287,0.00318249,-0.0653873,133
0.438007,0.00321329,-0.0645323,140
0.437628,0.00325575,-0.063664,137
0.43725,0.00329807,-0.0627977,137
0.437024,0.00332263,-0.0619549,139
0.437604,0.00325309,-0.061227,142
0.436274,0.00340659,-0.0602313,136
0.436351,0.00339575,-0.0594343,145
0.436479,0.00337899,-0.0586442,143
0.436607,0.00336217,-0.057854,147
0.436385,0.00338627,-0.0570175,146
0.436464,0.00337518,-0.0562212,147
0.436294,0.00339328,-0.055393,150
0.436124,0.00341131,-0.0545658,154
0.436155,0.00340589,-0.0537645,144
0.436236,0.00339457,-0.0529696,154
0.436969,0.00330708,-0.0522531,151
0.43575,0.00344764,-0.0513028,149
0.436783,0.00332511,-0.0506201,150
0.436316,0.00337789,-0.0497615,152
0.437453,0.00324319,-0.0490861,154
0.437387,0.00324907,-0.0482731,157
0.436319,0.00337203,-0.0473513,157
0.436555,0.00334267,-0.0465735,159
0.437142,0.0032722,-0.0458323,156
0.437178,0.00326609,-0.0450321,153
0.436564,0.00333607,-0.0441657,152
0.437253,0.00325368,-0.0434321,149
0.43639,0.00335278,-0.042544,151
0.436779,0.00330549,-0.0417797,149
0.436718,0.00331078,-0.0409718,153
0.43741,0.0032281,-0.0402338,151
0.4374,0.00322741,-0.0394301,153
0.43719,0.00325013,-0.0386088,154
0.437583,0.00320236,-0.0378408,156
0.437525,0.00320736,-0.0370333,153
0.437467,0.00321229,-0.0362262,155
0.438971,0.00303456,-0.0355463,158
0.437705,0.00318085,-0.0346413,163
0.438151,0.00312677,-0.0338739,160
0.437744,0.00317264,-0.0330404,156
0.437588,0.003189,-0.0322272,159
0.438288,0.00310532,-0.0314762,163
0.442197,0.0026461,-0.0309472,170
0.437979,0.00313779,-0.0298505,166
0.438883,0.00303015,-0.0291089,169
0.438579,0.00306399,-0.0282862,168
0.438074,0.00312126,-0.0274524,169
0.438576,0.00306062,-0.0266816,169
0.439435,0.00295836,-0.02593,169
0.439384,0.00296243,-0.0251237,177
0.439739,0.00291903,-0.02434,175
0.439589,0.00293484,-0.0235282,176
0.439996,0.00288534,-0.0227457,181
0.439897,0.00289509,-0.0219368,179
0.439394,0.0029522,-0.0211092,176
0.44031,0.00284314,-0.0203484,180
0.440111,0.0028646,-0.0195354,178
0.440268,0.00284439,-0.0187382,173
0.440375,0.00283005,-0.0179385,181
0.440533,0.00280968,-0.0171405,176
0.44054,0.00280709,-0.0163364,170
0.441056,0.00274484,-0.01555,172
0.441932,0.00264046,-0.0147735,177
0.44097,0.00275126,-0.0139373,174
0.442,0.0026288,-0.0131623,175
0.441345,0.00270368,-0.0123379,179
0.441304,0.00270665,-0.0115315,174
0.441774,0.00264976,-0.0107373,183
0.442502,0.00256264,-0.00994684,180
0.442309,0.00258346,-0.00913569,181
0.442219,0.00259218,-0.00832714,182
0.442539,0.0025528,-0.00752548,182
0.442296,0.00257942,-0.00671477,184
0.442413,0.00256392,-0.00590936,179
0.44253,0.00254835,-0.00510354,184
0.442802,0.00251465,-0.00429862,190
0.443281,0.00245673,-0.00349405,183
0.443762,0.0023986,-0.00268773,184
0.443263,0.00245514,-0.00187682,184
0.443281,0.00245122,-0.00106829,191
0.443505,0.0024231,-0.000259506,184
0.445076,0.00223721,0.000553804,190
0.444577,0.00229382,0.00136346,190
0.443925,0.00236839,0.00217029,183
0.44467,0.00227925,0.00298634,185
0.445003,0.00223843,0.00380099,182
0.444869,0.00225223,0.0046113,183
0.44682,0.00202179,0.00545013,184
0.445851,0.00213347,0.00625023,183
0.445875,0.00212881,0.00706427,181
0.4459,0.00212408,0.00787846,177
0.445664,0.0021498,0.00868725,184
0.445274,0.00219371,0.00949162,180
0.445613,0.00215219,0.0103129,187
0.445692,0.00214107,0.0111285,184
0.445876,0.00211766,0.0119475,181
0.446583,0.00203293,0.0127833,185
0.447976,0.00186775,0.0136442,182
0.448374,0.00181915,0.0144761,181
0.448036,0.00185696,0.0152828,183
0.448436,0.0018082,0.0161166,185
0.448046,0.00185206,0.0169204,189
0.447868,0.0018711,0.0177316,182
0.447953,0.00185921,0.0185539,179
0.448778,0.00176064,0.0194103,195
0.449395,0.00168648,0.02026,189
0.448847,0.00174879,0.0210548,185
0.448936,0.00173655,0.0218801,179
0.44929,0.00169319,0.0227201,186
0.44991,0.00161854,0.0235761,188
0.449417,0.00167451,0.0243713,188
0.449296,0.00168681,0.0251867,184
0.451038,0.00148068,0.0261146,184
0.450917,0.00149293,0.0269329,188
0.451278,0.0014487,0.0277819,185
0.451373,0.00143572,0.0286147,184
0.451629,0.00140381,0.0294591,183
0.451404,0.00142837,0.030271,184
0.451929,0.00136485,0.0311361,178
0.451705,0.00138929,0.0319481,178
0.452178,0.00133182,0.0328122,176
0.45217,0.00133095,0.0336409,179
0.452269,0.00131739,0.0344784,177
0.453178,0.0012089,0.0353821,177
0.452793,0.0012521,0.0361821,181
0.454085,0.00109868,0.0371232,183
0.454079,0.00109741,0.0379567,176
0.453912,0.00111516,0.0387762,175
0.453637,0.00114552,0.0395855,178
0.454501,0.0010422,0.0404992,184
0.454934,0.000989557,0.0413758,183
0.454714,0.00101346,0.0421914,185
0.454821,0.000998964,0.0430386,186
0.455093,0.000965196,0.0439029,184
0.455638,0.000899252,0.0447963,180
0.455693,0.000890875,0.0456412,180
0.455585,0.000901671,0.0464694,178
0.455532,0.000905977,0.0473033,178
0.455534,0.000903793,0.0481434,176
0.456963,0.000734176,0.0491423,177
0.457517,0.000667148,0.0500481,179
0.456312,0.000806782,0.050754,181
0.455933,0.000849337,0.0515522,176
