ply
format ascii 1.0
comment Created by CloudCompare v2.11 alpha (Anoia)
comment Created 2025/12/9 15:23
obj_info Generated by CloudCompare!
element vertex 1461
property float x
property float y
property float z
property float scalar_Scalar_field
end_header
0.369009 -0.354409 0.426795 59 
0.368863 -0.354443 0.427776 60 
0.369541 -0.354297 0.429133 58 
0.370017 -0.354195 0.430401 108 
0.371393 -0.353896 0.432085 54 
0.373827 -0.353366 0.434265 58 
0.373823 -0.353369 0.435326 54 
0.162129 -0.401444 0.0708023 8 
0.361989 -0.358866 -0.0250917 9 
0.369758 -0.357213 -0.0278047 12 
0.365315 -0.358162 -0.0246107 9 
0.374867 -0.35613 -0.0281397 8 
2.0456 -0.000204614 -0.828003 7 
0.376877 -0.355706 -0.0269637 7 
0.366823 -0.35785 -0.0211437 9 
0.373269 -0.35648 -0.0231307 9 
0.00808051 -0.434263 0.1455 7 
0.381233 -0.354788 -0.0247287 9 
0.372122 -0.356731 -0.0194277 9 
0.375315 -0.356054 -0.0198497 10 
0.368463 -0.357516 -0.0156417 11 
0.384426 -0.354118 -0.0219047 11 
0.385357 -0.353922 -0.0212537 10 
0.376393 -0.355834 -0.0161127 13 
0.379781 -0.355115 -0.0165847 10 
0.376375 -0.355843 -0.0139917 10 
0.371361 -0.356913 -0.0106967 15 
0.839338 -0.257255 -0.218507 7 
0.0404735 -0.427375 0.135637 8 
0.381375 -0.354788 -0.0119847 13 
0.379726 -0.355141 -0.0102007 10 
0.383586 -0.354322 -0.0108287 13 
0.381853 -0.354693 -0.00901269 12 
0.378714 -0.355364 -0.00659669 10 
0.37064 -0.357086 -0.00207368 9 
0.374151 -0.35634 -0.00254268 10 
0.380686 -0.354952 -0.00428569 12 
0.379757 -0.355152 -0.00283969 13 
0.380179 -0.355064 -0.00196869 13 
0.387383 -0.353533 -0.00394169 12 
0.388771 -0.35324 -0.00345769 11 
0.380314 -0.355043 0.00112131 11 
0.383312 -0.354407 0.000928305 10 
0.394776 -0.351969 -0.00273468 9 
0.384968 -0.354059 0.00235532 16 
0.390815 -0.352817 0.00102831 16 
0.385543 -0.353942 0.00422832 14 
0.392889 -0.35238 0.00232131 12 
0.384317 -0.354208 0.00682431 16 
0.38941 -0.353126 0.0058433 20 
0.394005 -0.35215 0.00507731 12 
0.386201 -0.353814 0.00922432 16 
0.394154 -0.352123 0.00715231 15 
0.393408 -0.352285 0.00850832 17 
0.390225 -0.352965 0.0108083 14 
0.386721 -0.353713 0.0132163 16 
0.388474 -0.353342 0.0135913 18 
0.39009 -0.353001 0.0140233 23 
0.405699 -0.349681 0.00914031 18 
0.39537 -0.351882 0.0141303 17 
0.391948 -0.352612 0.0164783 24 
0.395606 -0.351837 0.0161643 25 
0.391225 -0.352771 0.0188533 18 
0.393453 -0.3523 0.0190793 20 
0.394354 -0.35211 0.0198013 22 
0.402777 -0.350321 0.0177753 20 
0.399112 -0.351103 0.0201803 26 
0.397153 -0.351522 0.0219513 20 
0.39913 -0.351104 0.0222983 20 
0.401273 -0.35065 0.0225933 24 
0.396433 -0.351683 0.0253783 22 
0.399312 -0.351072 0.0254143 25 
0.404692 -0.34993 0.0245823 28 
0.398881 -0.351169 0.0276813 30 
0.399122 -0.35112 0.0286543 21 
0.398454 -0.351265 0.0299403 29 
0.404895 -0.349897 0.0287823 24 
0.401448 -0.350633 0.0310253 30 
0.401923 -0.350534 0.0319223 26 
0.409549 -0.348915 0.0304093 24 
0.400353 -0.350873 0.0345633 25 
0.40098 -0.350742 0.0354083 27 
0.402834 -0.35035 0.0358483 31 
0.406639 -0.349543 0.0356523 32 
0.405648 -0.349757 0.0370403 38 
0.403967 -0.350116 0.0386473 37 
0.405842 -0.34972 0.0390973 32 
0.404702 -0.349965 0.0405223 34 
0.410263 -0.348785 0.0398053 33 
0.406218 -0.349648 0.0421543 33 
0.408736 -0.349115 0.0424193 35 
0.408446 -0.349179 0.0435713 33 
0.413446 -0.348118 0.0430773 33 
0.415712 -0.347639 0.0434473 33 
0.415416 -0.347704 0.0446113 30 
0.4144 -0.347922 0.0459933 35 
0.413868 -0.348038 0.0472243 38 
0.415576 -0.347677 0.0477773 38 
0.416005 -0.347588 0.0487193 36 
0.416758 -0.347431 0.0495653 36 
0.416869 -0.34741 0.0506043 36 
0.419084 -0.346941 0.0510253 38 
0.419196 -0.34692 0.0520663 37 
0.422006 -0.346325 0.0523283 44 
0.421466 -0.346443 0.0535623 42 
0.420191 -0.346716 0.0550013 44 
0.420633 -0.346624 0.0559493 39 
0.420343 -0.346689 0.0571043 43 
0.422507 -0.346231 0.0575723 41 
0.427352 -0.345203 0.0573053 40 
0.424396 -0.345834 0.0592033 42 
0.42701 -0.345281 0.0595663 43 
0.423977 -0.345928 0.0614713 42 
0.424928 -0.345729 0.0622903 42 
0.424887 -0.34574 0.0633783 45 
0.426924 -0.34531 0.0639143 49 
0.428053 -0.345072 0.0646953 47 
0.426345 -0.345438 0.0662223 51 
0.429318 -0.344808 0.0665283 52 
0.432407 -0.344154 0.0668153 50 
0.429915 -0.344686 0.0685383 50 
0.429205 -0.34484 0.0697993 51 
0.433573 -0.343914 0.0697813 55 
0.430566 -0.344555 0.0716183 51 
0.430703 -0.344529 0.0726653 57 
0.431684 -0.344323 0.0735043 58 
0.430553 -0.344566 0.0748603 55 
0.430439 -0.344593 0.0759673 65 
0.432693 -0.344116 0.0765043 59 
0.434455 -0.343744 0.0771673 62 
0.432127 -0.344241 0.0788003 64 
0.431677 -0.344339 0.0799843 66 
0.433093 -0.344041 0.0807333 59 
0.434601 -0.343723 0.0814663 71 
0.433299 -0.344002 0.0828443 74 
0.433446 -0.343974 0.0838903 73 
0.433849 -0.34389 0.0848783 73 
0.433232 -0.344024 0.0860933 84 
0.433892 -0.343886 0.0870243 85 
0.430992 -0.344505 0.0887333 89 
0.43047 -0.344618 0.0899163 90 
0.425043 -0.345773 0.0921463 84 
0.425193 -0.345744 0.0931723 91 
0.425016 -0.345784 0.0942673 96 
0.42451 -0.345894 0.0954293 100 
0.42557 -0.345671 0.0962663 107 
0.423916 -0.346025 0.0976603 104 
0.421947 -0.346446 0.0991113 100 
0.422184 -0.346398 0.100111 92 
0.420391 -0.346781 0.101515 84 
0.42063 -0.346732 0.102512 86 
0.419577 -0.346959 0.103761 92 
0.417247 -0.347456 0.105251 91 
0.417966 -0.347306 0.10615 98 
0.417646 -0.347376 0.107248 104 
0.418929 -0.347106 0.108045 98 
0.418369 -0.347227 0.109186 96 
0.416853 -0.347551 0.1105 100 
0.417814 -0.34735 0.111359 96 
0.419021 -0.347096 0.112177 93 
0.418226 -0.347267 0.113354 90 
0.417593 -0.347404 0.114499 103 
0.417601 -0.347404 0.11553 106 
0.418649 -0.347184 0.116383 104 
0.41866 -0.347184 0.117415 108 
0.418351 -0.347252 0.118499 109 
0.419406 -0.347031 0.119357 114 
0.419258 -0.347065 0.120414 116 
0.422747 -0.346326 0.120884 119 
0.421384 -0.346618 0.122141 126 
0.42433 -0.345995 0.122712 129 
0.422796 -0.346323 0.123992 130 
0.425102 -0.345836 0.124675 126 
0.425614 -0.34573 0.12564 133 
0.42588 -0.345675 0.126642 132 
0.425985 -0.345656 0.127669 130 
0.428155 -0.345198 0.128394 131 
0.42793 -0.345248 0.129472 128 
0.429615 -0.344892 0.130278 131 
0.431987 -0.344391 0.130993 133 
0.434124 -0.34394 0.13175 134 
0.434491 -0.343865 0.132755 135 
0.435965 -0.343554 0.133613 133 
0.437108 -0.343314 0.13452 135 
0.438083 -0.34311 0.135453 140 
0.439581 -0.342794 0.136322 135 
0.441261 -0.34244 0.137173 130 
0.442603 -0.342158 0.138072 131 
0.443953 -0.341874 0.138975 132 
0.449306 -0.34074 0.139399 133 
0.447474 -0.341132 0.140698 133 
0.449118 -0.340785 0.141583 135 
0.449428 -0.340722 0.142628 120 
0.447776 -0.341075 0.143895 123 
0.451131 -0.340365 0.144598 118 
0.452349 -0.34011 0.145548 119 
0.456034 -0.33933 0.146236 115 
0.451813 -0.340228 0.147774 115 
0.452223 -0.340144 0.148815 114 
0.452546 -0.340078 0.149866 111 
0.450347 -0.340547 0.15117 107 
0.450221 -0.340576 0.152262 111 
0.448488 -0.340946 0.153508 114 
0.447654 -0.341125 0.154662 115 
0.44647 -0.341379 0.155845 112 
0.445733 -0.341538 0.156982 110 
0.445616 -0.341565 0.158062 102 
0.443308 -0.342057 0.159331 103 
0.44407 -0.341898 0.16033 109 
0.441863 -0.342369 0.161579 113 
0.44184 -0.342376 0.162641 112 
0.439999 -0.342769 0.163847 120 
0.438945 -0.342995 0.164985 117 
0.438753 -0.343038 0.166054 115 
0.438564 -0.343081 0.167122 120 
0.438549 -0.343087 0.168177 117 
0.437505 -0.34331 0.169303 120 
0.43715 -0.343388 0.170378 121 
0.43671 -0.343484 0.171457 119 
0.435338 -0.343777 0.172593 124 
0.435754 -0.343691 0.173614 123 
0.434305 -0.344001 0.174747 125 
0.432361 -0.344416 0.175904 125 
0.432186 -0.344455 0.176954 130 
0.433358 -0.344209 0.17793 137 
0.430423 -0.344834 0.179125 138 
0.430839 -0.344748 0.18014 132 
0.430422 -0.344839 0.181197 133 
0.428348 -0.345281 0.182329 128 
0.427936 -0.345371 0.183379 133 
0.428353 -0.345285 0.184392 138 
0.427119 -0.345548 0.185474 141 
0.426796 -0.345619 0.186515 134 
0.42812 -0.345341 0.187494 128 
0.425991 -0.345795 0.1886 133 
0.425345 -0.345934 0.189648 130 
0.424538 -0.346107 0.190698 127 
0.421875 -0.346674 0.1918 126 
0.422777 -0.346486 0.192793 123 
0.423276 -0.346382 0.1938 132 
0.421192 -0.346827 0.194871 128 
0.420726 -0.346928 0.195898 133 
0.420341 -0.347011 0.196921 123 
0.417885 -0.347534 0.197981 130 
0.417587 -0.3476 0.198996 133 
0.416578 -0.347816 0.20002 134 
0.4166 -0.347814 0.201027 128 
0.41599 -0.347945 0.202042 133 
0.416013 -0.347943 0.203048 133 
0.415173 -0.348123 0.20406 139 
0.415513 -0.348053 0.205064 139 
0.414048 -0.348366 0.206073 138 
0.412593 -0.348677 0.207078 143 
0.412077 -0.348789 0.208077 138 
0.411332 -0.348949 0.209074 142 
0.411363 -0.348945 0.210072 142 
0.410003 -0.349235 0.211061 143 
0.408347 -0.349588 0.212042 138 
0.407768 -0.349713 0.213029 133 
0.407345 -0.349805 0.214014 134 
0.407229 -0.349832 0.215003 129 
0.406428 -0.350004 0.21598 135 
0.405555 -0.350191 0.216953 130 
0.404234 -0.350474 0.217914 136 
0.404575 -0.350404 0.218906 140 
0.404013 -0.350525 0.219878 142 
0.402701 -0.350805 0.220829 143 
0.401175 -0.351131 0.221769 144 
0.40107 -0.351155 0.222745 143 
0.401115 -0.351148 0.223726 137 
0.400342 -0.351314 0.224679 139 
0.39935 -0.351526 0.225622 142 
0.398216 -0.351769 0.226556 138 
0.39819 -0.351776 0.227529 134 
0.397725 -0.351877 0.228485 142 
0.3966 -0.352118 0.22941 142 
0.39614 -0.352218 0.230361 144 
0.395461 -0.352364 0.2313 142 
0.394858 -0.352494 0.23224 146 
0.394041 -0.352669 0.233167 143 
0.393444 -0.352798 0.234103 143 
0.392776 -0.352941 0.235033 143 
0.392256 -0.353054 0.235969 149 
0.391881 -0.353135 0.236912 146 
0.391077 -0.353308 0.237827 147 
0.390777 -0.353374 0.238771 149 
0.390408 -0.353454 0.239709 141 
0.38897 -0.353761 0.240577 145 
0.388961 -0.353765 0.241535 145 
0.388099 -0.353949 0.242434 141 
0.388517 -0.353863 0.243421 149 
0.386883 -0.354212 0.24426 147 
0.386454 -0.354305 0.245184 147 
0.385886 -0.354427 0.246095 150 
0.385249 -0.354564 0.246999 142 
0.384337 -0.354759 0.247879 147 
0.383916 -0.354851 0.248796 146 
0.384053 -0.354824 0.249758 145 
0.384679 -0.354693 0.250764 143 
0.384331 -0.35477 0.251687 144 
0.384052 -0.354831 0.252614 142 
0.382385 -0.355186 0.253413 143 
0.382389 -0.355187 0.254363 140 
0.382739 -0.355115 0.255346 142 
0.381497 -0.355381 0.256175 138 
0.381848 -0.355308 0.257159 143 
0.380612 -0.355572 0.257983 143 
0.380756 -0.355544 0.258945 137 
0.379939 -0.355719 0.259807 133 
0.378716 -0.35598 0.260622 133 
0.380094 -0.35569 0.261718 133 
0.378462 -0.356038 0.262484 130 
0.37861 -0.356009 0.263446 131 
0.379991 -0.355719 0.26455 133 
0.378839 -0.355965 0.265364 130 
0.37947 -0.355834 0.266385 128 
0.377981 -0.356151 0.267154 127 
0.378337 -0.356078 0.268143 129 
0.379311 -0.355874 0.269211 127 
0.379396 -0.355858 0.270171 131 
0.377843 -0.356189 0.270921 129 
0.378545 -0.356043 0.271959 129 
0.378222 -0.356113 0.272865 128 
0.379133 -0.355923 0.273935 129 
0.37936 -0.355877 0.274917 131 
0.379658 -0.355816 0.275909 135 
0.379887 -0.355769 0.276893 130 
0.379844 -0.355781 0.27784 135 
0.381732 -0.355383 0.279065 134 
0.379552 -0.355847 0.279705 126 
0.379373 -0.355887 0.280632 129 
0.380571 -0.355636 0.281765 131 
0.380462 -0.355661 0.282705 136 
0.3807 -0.355613 0.283698 136 
0.380455 -0.355667 0.284617 133 
0.380487 -0.355662 0.285579 134 
0.38045 -0.355672 0.286532 129 
0.381452 -0.355463 0.287651 129 
0.381209 -0.355516 0.288573 127 
0.380899 -0.355584 0.289482 126 
0.381629 -0.355432 0.290564 127 
0.38118 -0.355529 0.291451 129 
0.381703 -0.35542 0.292503 128 
0.3823 -0.355297 0.293569 127 
0.382062 -0.355349 0.294493 124 
0.382172 -0.355328 0.295477 131 
0.381866 -0.355395 0.296389 124 
0.382118 -0.355344 0.2974 125 
0.38237 -0.355293 0.298413 127 
0.382834 -0.355197 0.299466 129 
0.383579 -0.355042 0.300574 126 
0.382228 -0.35533 0.301291 128 
0.382693 -0.355233 0.302348 131 
0.384354 -0.354885 0.303638 131 
0.384192 -0.354921 0.304581 135 
0.383611 -0.355046 0.305441 134 
0.384082 -0.354949 0.306509 136 
0.385192 -0.354716 0.307706 134 
0.383696 -0.355035 0.308381 136 
0.385795 -0.354593 0.309785 138 
0.384367 -0.354897 0.310471 130 
0.385269 -0.354709 0.311637 130 
0.385608 -0.354639 0.312689 132 
0.38489 -0.354794 0.313518 130 
0.385868 -0.354589 0.314708 129 
0.38522 -0.354729 0.315552 132 
0.38677 -0.354403 0.316872 127 
0.387116 -0.354332 0.317934 131 
0.387821 -0.354185 0.319078 131 
0.387957 -0.354159 0.320098 129 
0.386879 -0.354389 0.320845 126 
0.387801 -0.354196 0.322044 123 
0.389159 -0.353912 0.323347 131 
0.388723 -0.354006 0.324241 126 
0.38829 -0.3541 0.325134 129 
0.389222 -0.353905 0.326348 127 
0.390447 -0.353648 0.327636 129 
0.390229 -0.353697 0.328583 128 
0.390158 -0.353714 0.329566 129 
0.390593 -0.353625 0.330673 125 
0.391248 -0.353488 0.331835 135 
0.392198 -0.35329 0.333074 133 
0.391401 -0.353461 0.333882 127 
0.391333 -0.353477 0.334871 135 
0.390903 -0.353571 0.335768 136 
0.392366 -0.353264 0.337147 129 
0.392154 -0.353311 0.338103 134 
0.392381 -0.353265 0.339172 132 
0.392609 -0.353219 0.340242 126 
0.392108 -0.353328 0.341123 121 
0.392484 -0.35325 0.342234 131 
0.392642 -0.353219 0.34329 126 
0.391486 -0.353466 0.343993 129 
0.391426 -0.353481 0.34499 142 
0.390857 -0.353604 0.345848 138 
0.390579 -0.353665 0.346785 139 
0.390303 -0.353725 0.347722 146 
0.390465 -0.353693 0.34878 143 
0.390409 -0.353708 0.349779 145 
0.389555 -0.35389 0.350552 142 
0.388488 -0.354118 0.351262 143 
0.388218 -0.354178 0.352197 146 
0.389176 -0.353978 0.353487 145 
0.3884 -0.354144 0.354277 142 
0.388204 -0.354188 0.355235 140 
0.388514 -0.354124 0.356341 140 
0.386807 -0.354487 0.356851 139 
0.386256 -0.354606 0.3577 141 
0.386349 -0.354589 0.358742 138 
0.386517 -0.354556 0.359807 142 
0.385538 -0.354765 0.360524 141 
0.384847 -0.354913 0.361327 143 
0.385444 -0.354789 0.362525 145 
0.384827 -0.354922 0.363349 139 
0.383146 -0.355279 0.363839 137 
0.383386 -0.355231 0.364927 132 
0.382351 -0.355452 0.365613 132 
0.382096 -0.355508 0.366544 132 
0.382053 -0.355519 0.367544 134 
0.380954 -0.355754 0.368202 132 
0.38028 -0.355899 0.368996 139 
0.379959 -0.355969 0.369903 136 
0.381185 -0.355712 0.371319 142 
0.380161 -0.355931 0.371995 132 
0.380614 -0.355838 0.37316 127 
0.378404 -0.356306 0.373435 127 
0.378435 -0.356302 0.374458 127 
0.377284 -0.356547 0.37508 127 
0.379131 -0.35616 0.376723 120 
0.377699 -0.356465 0.377247 119 
0.376761 -0.356665 0.377937 120 
0.376864 -0.356645 0.378986 114 
0.376207 -0.356787 0.37977 110 
0.376034 -0.356825 0.380724 114 
0.375656 -0.356908 0.381604 118 
0.375278 -0.35699 0.382484 117 
0.374831 -0.357086 0.383339 119 
0.374456 -0.357168 0.384218 115 
0.375183 -0.357017 0.385496 107 
0.374602 -0.357142 0.386301 102 
0.372717 -0.357542 0.386627 97 
0.373854 -0.357305 0.38806 95 
0.373276 -0.357429 0.388863 99 
0.372905 -0.35751 0.389741 104 
0.371578 -0.357792 0.390261 104 
0.371141 -0.357886 0.391111 97 
0.371183 -0.35788 0.392142 90 
0.37034 -0.35806 0.392837 83 
0.369365 -0.358268 0.393479 88 
0.369541 -0.358233 0.394561 82 
0.371354 -0.357853 0.396277 78 
0.368275 -0.358505 0.3961 78 
0.36805 -0.358555 0.397026 86 
0.370465 -0.358048 0.39899 82 
0.366926 -0.358797 0.398613 85 
0.366837 -0.358818 0.399591 78 
0.367285 -0.358726 0.400785 78 
0.36733 -0.358719 0.401821 76 
0.367377 -0.358711 0.402857 73 
0.367153 -0.358761 0.403786 71 
0.366731 -0.358852 0.404633 68 
0.367317 -0.358731 0.405892 69 
0.366423 -0.358922 0.406546 69 
0.366606 -0.358886 0.407643 63 
0.368275 -0.358536 0.409359 68 
0.36543 -0.359139 0.409196 64 
0.366688 -0.358876 0.410747 64 
0.366334 -0.358952 0.411623 67 
0.368141 -0.358574 0.413415 64 
0.366168 -0.358992 0.413604 71 
0.368246 -0.358556 0.415522 67 
0.366071 -0.359017 0.415617 66 
0.36788 -0.358638 0.41743 64 
0.368818 -0.358443 0.418872 61 
0.368398 -0.358534 0.419725 62 
0.368181 -0.358582 0.420667 63 
0.366747 -0.358887 0.421071 60 
0.369523 -0.358304 0.423338 62 
0.368286 -0.358567 0.423828 59 
0.369436 -0.358327 0.425384 53 
0.368129 -0.358605 0.425841 58 
0.368257 -0.35858 0.426941 58 
0.370165 -0.358181 0.428852 55 
0.368515 -0.358531 0.429148 112 
0.370977 -0.358014 0.431324 56 
0.368024 -0.358639 0.431016 60 
0.369453 -0.35834 0.432725 62 
0.174917 -0.401126 0.0650823 7 
0.323948 -0.370599 -0.00608469 9 
0.488726 -0.336847 -0.0847027 7 
0.359008 -0.363422 -0.0209987 7 
0.393263 -0.356408 -0.0363537 7 
0.379046 -0.359322 -0.0284797 10 
0.367166 -0.361758 -0.0217777 10 
0.375906 -0.35997 -0.0248567 10 
0.366469 -0.361906 -0.0193627 9 
0.37877 -0.359389 -0.0240727 9 
0.374747 -0.360215 -0.0211337 9 
0.369355 -0.361322 -0.0175797 9 
0.372019 -0.360779 -0.0177647 9 
0.374155 -0.360344 -0.0176957 11 
0.573032 -0.319618 -0.107681 8 
0.379046 -0.359347 -0.0178177 12 
0.378328 -0.359496 -0.0164317 11 
0.437844 -0.347311 -0.0422067 8 
0.104318 -0.415607 0.107472 10 
0.373341 -0.360525 -0.0110357 11 
0.376254 -0.359931 -0.0112847 10 
0.373535 -0.36049 -0.00903369 13 
0.373184 -0.360564 -0.00783669 9 
0.383034 -0.35855 -0.0111087 12 
0.371936 -0.360824 -0.00521269 12 
0.376083 -0.359978 -0.00597469 10 
0.383658 -0.358429 -0.00819869 10 
0.379304 -0.359323 -0.00526968 9 
0.383501 -0.358466 -0.00601468 12 
0.376069 -0.35999 -0.00179768 13 
0.379928 -0.359203 -0.00238969 12 
0.384782 -0.358211 -0.00338668 9 
0.387168 -0.357725 -0.00332969 12 
0.382192 -0.358746 -0.000194691 13 
0.384411 -0.358295 -6.56915e-05 13 
0.388032 -0.357556 -0.00050769 11 
0.389345 -0.35729 1.23161e-05 14 
0.382188 -0.358757 0.00399832 14 
0.385486 -0.358084 0.00370332 11 
0.385558 -0.358072 0.00472532 11 
0.385341 -0.358119 0.00586232 11 
0.38715 -0.357751 0.00618731 17 
0.392951 -0.356566 0.00493031 15 
0.392727 -0.356614 0.00608131 14 
0.388317 -0.357519 0.00888031 20 
0.386578 -0.357878 0.0106143 16 
0.395187 -0.356118 0.00830431 23 
0.391919 -0.35679 0.0106363 18 
0.393179 -0.356534 0.0112063 18 
0.386739 -0.357854 0.0147343 17 
0.391192 -0.356946 0.0140793 18 
0.391493 -0.356887 0.0150173 19 
0.395429 -0.356083 0.0145833 20 
0.397839 -0.355593 0.0147373 22 
0.390409 -0.357115 0.0185743 14 
0.389906 -0.357221 0.0198083 18 
0.395231 -0.356134 0.0188863 22 
0.394939 -0.356196 0.0200483 23 
0.392428 -0.356712 0.0220193 21 
0.397954 -0.355584 0.0210593 24 
0.394594 -0.356274 0.0233303 24 
0.397445 -0.355693 0.0233573 25 
0.395436 -0.356107 0.0251293 22 
0.398974 -0.355385 0.0249233 22 
0.397555 -0.355678 0.0264813 20 
0.396892 -0.355816 0.0277663 23 
0.39698 -0.3558 0.0287863 21 
0.398421 -0.355508 0.0293363 26 
0.398511 -0.355492 0.0303573 23 
0.403009 -0.354575 0.0298663 33 
0.399749 -0.355244 0.0320363 29 
0.406121 -0.353943 0.0309303 26 
0.399554 -0.355288 0.0342053 31 
0.401848 -0.354822 0.0344873 28 
0.404548 -0.354272 0.0346433 29 
0.40196 -0.354803 0.0365563 23 
0.403816 -0.354427 0.0369993 28 
0.40638 -0.353905 0.0372173 29 
0.402784 -0.354643 0.0394443 28 
0.405647 -0.35406 0.0395723 33 
0.405977 -0.353994 0.0405223 34 
0.404688 -0.35426 0.0419893 25 
0.408117 -0.353562 0.0419573 32 
0.409155 -0.353352 0.0426893 29 
0.410196 -0.353141 0.0434243 32 
0.412983 -0.352574 0.0436213 31 
0.414679 -0.35223 0.0441643 35 
0.412795 -0.352617 0.0458103 39 
0.412427 -0.352695 0.0469873 39 
0.414279 -0.352319 0.0474893 34 
0.414705 -0.352234 0.0484273 43 
0.412194 -0.35275 0.0502423 38 
0.413966 -0.35239 0.0507763 37 
0.417195 -0.351733 0.0508883 33 
0.416103 -0.351958 0.0522763 39 
0.417338 -0.351708 0.0529833 43 
0.415686 -0.352048 0.0545263 38 
0.416601 -0.351864 0.0553283 40 
0.418002 -0.35158 0.0559933 46 
0.419491 -0.351278 0.0566393 41 
0.419203 -0.35134 0.0577883 43 
0.422823 -0.350602 0.0578473 38 
0.421225 -0.350931 0.0593623 39 
0.422734 -0.350625 0.0600173 38 
0.423184 -0.350536 0.0609673 42 
0.422978 -0.35058 0.0620943 45 
0.426732 -0.349815 0.0621563 47 
0.426275 -0.349911 0.0633563 43 
0.424911 -0.350193 0.0647933 45 
0.425451 -0.350085 0.0657243 45 
0.425743 -0.350028 0.0667203 48 
0.427449 -0.349682 0.0673523 43 
0.428829 -0.349402 0.0680723 46 
0.430977 -0.348966 0.0686033 50 
0.430856 -0.348993 0.0697143 54 
0.43082 -0.349003 0.0708033 49 
0.432474 -0.348667 0.0714703 58 
0.431342 -0.348901 0.0728323 55 
0.431056 -0.348962 0.0739803 59 
0.433223 -0.348521 0.0745313 55 
0.434043 -0.348357 0.0754153 60 
0.433163 -0.348539 0.0767073 56 
0.43475 -0.348217 0.0774113 65 
0.431836 -0.348815 0.0791783 64 
0.435292 -0.348111 0.0794483 60 
0.434327 -0.348311 0.0807533 64 
0.433366 -0.34851 0.0820523 64 
0.434533 -0.348274 0.0828643 67 
0.434765 -0.348229 0.0838903 66 
0.435938 -0.347992 0.0847063 70 
0.435916 -0.347999 0.0857903 73 
0.43564 -0.348058 0.0869303 72 
0.437851 -0.347609 0.0875273 71 
0.436202 -0.347948 0.0889643 69 
0.437128 -0.347761 0.0898453 83 
0.437196 -0.34775 0.0909093 90 
0.436067 -0.347983 0.0922243 104 
0.43571 -0.348058 0.0933743 101 
0.436126 -0.347976 0.0943633 104 
0.43509 -0.34819 0.0956493 104 
0.43372 -0.348472 0.0969973 102 
0.433541 -0.348511 0.0981013 104 
0.432097 -0.348808 0.0994553 95 
0.42966 -0.349308 0.100997 91 
0.428822 -0.349482 0.102219 88 
0.428734 -0.349502 0.103293 88 
0.4284 -0.349573 0.104413 92 
0.428149 -0.349627 0.105515 97 
0.428979 -0.34946 0.106414 101 
0.427652 -0.349733 0.107714 100 
0.428151 -0.349634 0.108675 104 
0.42807 -0.349653 0.109742 106 
0.429403 -0.349383 0.110556 103 
0.427831 -0.349706 0.111887 98 
0.429164 -0.349437 0.112705 108 
0.428174 -0.349641 0.113928 106 
0.4281 -0.349659 0.11499 112 
0.427117 -0.349862 0.116205 113 
0.426715 -0.349946 0.117319 104 
0.426727 -0.349946 0.118363 104 
0.426328 -0.35003 0.119473 108 
0.425112 -0.350281 0.120713 106 
0.4257 -0.350163 0.12166 101 
0.430514 -0.349183 0.121945 105 
0.431868 -0.348909 0.122785 116 
0.433401 -0.348599 0.123603 123 
0.434601 -0.348356 0.124476 129 
0.433776 -0.348527 0.125656 123 
0.434897 -0.3483 0.126546 129 
0.437047 -0.347864 0.127289 135 
0.43784 -0.347705 0.128235 137 
0.438206 -0.347632 0.129245 134 
0.442207 -0.346819 0.129747 136 
0.440584 -0.347152 0.13104 131 
0.442434 -0.346777 0.131853 137 
0.445792 -0.346094 0.132471 132 
0.446882 -0.345874 0.133402 136 
0.446737 -0.345906 0.134497 138 
0.44492 -0.34628 0.135806 137 
0.446451 -0.34597 0.136684 127 
0.446397 -0.345983 0.137765 129 
0.44856 -0.345544 0.138574 115 
0.448332 -0.345593 0.139679 118 
0.449796 -0.345297 0.140582 115 
0.450821 -0.345091 0.141541 117 
0.453384 -0.34457 0.142327 117 
0.450369 -0.345188 0.143754 118 
0.450951 -0.345072 0.144768 121 
0.452524 -0.344753 0.145676 120 
0.449701 -0.345331 0.147063 112 
0.452169 -0.34483 0.147879 106 
0.447842 -0.345716 0.149409 102 
0.445598 -0.346176 0.15071 103 
0.44521 -0.346257 0.151817 105 
0.444211 -0.346464 0.152982 106 
0.445316 -0.346241 0.153941 104 
0.442837 -0.346749 0.155241 109 
0.442894 -0.34674 0.156298 105 
0.44269 -0.346784 0.157378 115 
0.441361 -0.347057 0.158556 111 
0.440731 -0.347188 0.159669 110 
0.439929 -0.347354 0.160793 111 
0.438447 -0.347659 0.161971 114 
0.439969 -0.347351 0.1629 110 
0.438574 -0.347638 0.164064 118 
0.437615 -0.347836 0.16519 114 
0.436405 -0.348085 0.16633 114 
0.436132 -0.348143 0.167397 119 
0.435862 -0.3482 0.168463 121 
0.43534 -0.348309 0.169544 122 
0.434482 -0.348487 0.170647 125 
0.433375 -0.348714 0.171762 124 
0.433954 -0.348599 0.172765 124 
0.432769 -0.348843 0.173879 123 
0.432343 -0.348932 0.174944 127 
0.430835 -0.349242 0.176069 120 
0.431162 -0.349178 0.177085 123 
0.429994 -0.349418 0.178183 131 
0.428255 -0.349775 0.179307 129 
0.427925 -0.349845 0.180353 135 
0.427266 -0.349981 0.181413 133 
0.426203 -0.350201 0.18249 134 
0.426696 -0.350103 0.183493 134 
0.424985 -0.350454 0.184592 128 
0.424908 -0.350472 0.185617 131 
0.424344 -0.350589 0.186661 129 
0.42346 -0.350771 0.187715 125 
0.423145 -0.350838 0.188745 126 
0.422347 -0.351003 0.18979 131 
0.422116 -0.351053 0.190815 130 
0.421162 -0.351249 0.191859 128 
0.420534 -0.351379 0.192891 129 
0.419989 -0.351493 0.193918 126 
0.418571 -0.351784 0.194964 133 
0.418586 -0.351783 0.195973 130 
0.416941 -0.352121 0.197015 131 
0.41767 -0.351975 0.198008 135 
0.416269 -0.352263 0.199038 132 
0.416054 -0.352309 0.200046 134 
0.413493 -0.352833 0.201082 134 
0.413282 -0.352878 0.202083 132 
0.41214 -0.353113 0.203092 129 
0.412086 -0.353126 0.204089 133 
0.410798 -0.353391 0.205092 135 
0.410056 -0.353545 0.206089 138 
0.40993 -0.353573 0.207082 142 
0.409728 -0.353616 0.208074 132 
0.408915 -0.353784 0.209064 134 
0.408257 -0.35392 0.210052 134 
0.407299 -0.354118 0.211035 133 
0.407408 -0.354098 0.212024 134 
0.405546 -0.354479 0.212992 137 
0.407552 -0.354073 0.214001 136 
0.404261 -0.354746 0.214943 135 
0.402873 -0.355031 0.215903 143 
0.403059 -0.354995 0.216886 133 
0.401605 -0.355293 0.217837 141 
0.401273 -0.355363 0.218807 140 
0.40072 -0.355478 0.21977 145 
0.399947 -0.355638 0.220726 144 
0.400878 -0.355451 0.221726 146 
0.398557 -0.355925 0.222634 145 
0.398161 -0.356008 0.223594 149 
0.397399 -0.356166 0.22454 140 
0.397519 -0.356144 0.225514 137 
0.396541 -0.356345 0.226448 139 
0.396298 -0.356397 0.227407 139 
0.395837 -0.356493 0.228357 142 
0.395231 -0.356618 0.229298 146 
0.394341 -0.356802 0.230225 144 
0.394826 -0.356705 0.231212 145 
0.392641 -0.357153 0.232073 146 
0.392479 -0.357188 0.233026 151 
0.391313 -0.357427 0.233927 151 
0.391367 -0.357418 0.23489 147 
0.390924 -0.357511 0.235825 148 
0.389769 -0.357748 0.236717 148 
0.39011 -0.357681 0.237695 151 
0.388254 -0.358061 0.238539 155 
0.388382 -0.358037 0.239502 153 
0.387244 -0.358271 0.240382 146 
0.386882 -0.358347 0.241311 148 
0.387154 -0.358294 0.242283 149 
0.386582 -0.358412 0.243195 148 
0.385664 -0.358602 0.244081 146 
0.38489 -0.358761 0.244974 143 
0.385373 -0.358665 0.245961 148 
0.383974 -0.358952 0.246802 149 
0.383694 -0.359012 0.247727 144 
0.384385 -0.358873 0.248733 141 
0.382374 -0.359285 0.249513 143 
0.381959 -0.359371 0.250423 136 
0.381958 -0.359374 0.251368 139 
0.382234 -0.35932 0.252339 137 
0.381409 -0.35949 0.25321 136 
0.380451 -0.359687 0.254065 137 
0.381002 -0.359577 0.255062 140 
0.380184 -0.359746 0.255927 140 
0.379641 -0.359858 0.256816 140 
0.378761 -0.36004 0.25767 140 
0.378902 -0.360013 0.258626 134 
0.379252 -0.359944 0.259605 136 
0.378307 -0.360138 0.260447 131 
0.377636 -0.360277 0.261316 132 
0.377172 -0.360373 0.262205 130 
0.378677 -0.36007 0.263315 125 
0.377194 -0.360373 0.264088 128 
0.377681 -0.360276 0.265085 131 
0.377017 -0.360414 0.265949 131 
0.376897 -0.36044 0.266875 131 
0.377454 -0.360329 0.267885 131 
0.377333 -0.360356 0.268812 136 
0.37708 -0.36041 0.269723 128 
0.377232 -0.360381 0.270685 131 
0.37732 -0.360365 0.27164 131 
0.376527 -0.360529 0.272479 128 
0.37797 -0.360237 0.273615 130 
0.377856 -0.360263 0.274545 133 
0.377335 -0.360371 0.275419 129 
0.379264 -0.359981 0.276634 124 
0.378128 -0.360214 0.277423 131 
0.378767 -0.360086 0.278462 129 
0.378044 -0.360235 0.279306 125 
0.378682 -0.360107 0.280349 130 
0.378642 -0.360118 0.281293 129 
0.378262 -0.360198 0.282186 126 
0.379589 -0.35993 0.283339 132 
0.380031 -0.359842 0.28436 124 
0.378693 -0.360116 0.285105 131 
0.37934 -0.359987 0.28616 132 
0.37951 -0.359955 0.287141 130 
0.379613 -0.359936 0.288112 131 
0.38061 -0.359735 0.289232 129 
0.379753 -0.359912 0.290046 133 
0.379995 -0.359865 0.291043 130 
0.380101 -0.359846 0.292019 129 
0.380002 -0.359868 0.29296 135 
0.380248 -0.35982 0.293961 133 
0.380563 -0.359758 0.294976 132 
0.380673 -0.359738 0.295956 128 
0.37982 -0.359914 0.296763 130 
0.381241 -0.359627 0.297982 124 
0.381701 -0.359536 0.29903 128 
0.380984 -0.359684 0.299861 129 
0.381236 -0.359634 0.300873 131 
0.381561 -0.359571 0.301899 131 
0.381815 -0.359521 0.302914 133 
0.381241 -0.35964 0.303769 129 
0.381497 -0.35959 0.304785 135 
0.382659 -0.359357 0.305983 132 
0.381876 -0.359518 0.306796 130 
0.382414 -0.359411 0.307874 135 
0.382536 -0.359388 0.308869 133 
0.383707 -0.359153 0.310082 135 
0.383622 -0.359172 0.311038 134 
0.383887 -0.35912 0.312069 130 
0.383734 -0.359154 0.313012 133 
0.384142 -0.359073 0.314076 131 
0.384762 -0.358949 0.315187 132 
0.385314 -0.358839 0.316286 130 
0.385305 -0.358843 0.317265 132 
0.38579 -0.358747 0.318354 133 
0.385994 -0.358708 0.319383 127 
0.387619 -0.35838 0.320733 135 
0.385557 -0.358801 0.321252 124 
0.385622 -0.35879 0.322252 121 
0.386537 -0.358607 0.323449 122 
0.387814 -0.358349 0.324734 124 
0.387455 -0.358425 0.325641 119 
0.387738 -0.358369 0.326699 124 
0.388236 -0.35827 0.32781 120 
0.389311 -0.358054 0.329062 124 
0.38996 -0.357925 0.330216 122 
0.390105 -0.357898 0.33125 128 
0.39018 -0.357885 0.332268 129 
0.389535 -0.358018 0.333108 124 
0.390476 -0.357829 0.334343 129 
0.391205 -0.357683 0.33553 123 
0.392883 -0.357345 0.336961 126 
0.390494 -0.357833 0.337356 128 
0.390936 -0.357745 0.338475 123 
0.391524 -0.357628 0.339634 118 
0.391026 -0.357731 0.34051 127 
0.391035 -0.357732 0.34152 121 
0.390467 -0.35785 0.342377 109 
0.389973 -0.357952 0.343252 121 
0.389623 -0.358026 0.344165 130 
0.389924 -0.357967 0.345254 139 
0.390083 -0.357937 0.346306 134 
0.389953 -0.357966 0.34728 138 
0.390402 -0.357877 0.348416 140 
0.388902 -0.358184 0.349006 145 
0.388701 -0.358227 0.34996 143 
0.39009 -0.357947 0.351365 147 
0.388378 -0.358297 0.351887 146 
0.389767 -0.358017 0.353299 142 
0.388488 -0.35828 0.353942 136 
0.387931 -0.358395 0.354792 135 
0.388673 -0.358247 0.356022 136 
0.387687 -0.358449 0.356744 133 
0.387063 -0.358578 0.357571 134 
0.386299 -0.358736 0.358354 143 
0.387037 -0.358588 0.35959 143 
0.385774 -0.358847 0.360219 145 
0.385655 -0.358873 0.361196 137 
0.38568 -0.35887 0.362217 141 
0.385065 -0.358998 0.363039 138 
0.384806 -0.359053 0.363972 126 
0.383839 -0.359251 0.364681 130 
0.383512 -0.35932 0.36559 131 
0.383043 -0.359417 0.366454 131 
0.382296 -0.359572 0.367227 132 
0.380778 -0.359882 0.367749 139 
0.380596 -0.359921 0.3687 140 
0.380625 -0.359918 0.369719 132 
0.382132 -0.359614 0.371226 133 
0.379845 -0.360081 0.371484 133 
0.379039 -0.360247 0.372227 133 
0.379349 -0.360186 0.373341 135 
0.378197 -0.360422 0.373965 138 
0.377675 -0.360531 0.374798 132 
0.37868 -0.360329 0.376151 137 
0.378366 -0.360395 0.377056 131 
0.377982 -0.360475 0.377937 135 
0.376977 -0.360681 0.378601 127 
0.378401 -0.360395 0.38011 128 
0.375872 -0.36091 0.380238 124 
0.375769 -0.360933 0.381213 127 
0.374979 -0.361096 0.381945 125 
0.375499 -0.360993 0.383142 120 
0.373408 -0.36142 0.383404 115 
0.373514 -0.361401 0.384452 109 
0.373415 -0.361423 0.385427 106 
0.37277 -0.361556 0.386202 104 
0.37315 -0.361481 0.387353 101 
0.372302 -0.361656 0.388053 110 
0.372001 -0.361719 0.388953 107 
0.371293 -0.361865 0.389701 99 
0.371128 -0.361901 0.390651 92 
0.371034 -0.361922 0.391627 90 
0.368509 -0.362437 0.391681 85 
0.369088 -0.362322 0.392911 91 
0.368657 -0.362411 0.393757 83 
0.369981 -0.362145 0.395279 86 
0.367534 -0.362644 0.395343 83 
0.368786 -0.362392 0.396842 90 
0.366415 -0.362875 0.396925 90 
0.366592 -0.362842 0.398005 89 
0.366635 -0.362836 0.399033 85 
0.365346 -0.363099 0.399531 90 
0.366123 -0.362944 0.400853 76 
0.365434 -0.363086 0.401589 79 
0.366013 -0.362971 0.402835 86 
0.367734 -0.362624 0.404551 77 
0.366507 -0.362876 0.405068 67 
0.364953 -0.363193 0.405446 66 
0.365133 -0.363159 0.406536 69 
0.363984 -0.363394 0.407075 73 
0.364963 -0.363198 0.408499 76 
0.366951 -0.362797 0.410351 72 
0.367472 -0.362694 0.411594 68 
0.36571 -0.363053 0.411874 69 
0.365963 -0.363005 0.413003 66 
0.365746 -0.363051 0.413935 64 
0.369101 -0.362373 0.416403 59 
0.36679 -0.362844 0.416437 67 
0.366172 -0.362972 0.417197 65 
0.36791 -0.362622 0.418984 62 
0.36871 -0.362462 0.420369 54 
0.366267 -0.36296 0.420328 55 
0.367063 -0.362801 0.421712 56 
0.36611 -0.362996 0.422323 60 
0.370986 -0.36201 0.425538 64 
0.367234 -0.362773 0.424896 62 
0.367698 -0.362681 0.426144 61 
0.368163 -0.362589 0.427395 63 
0.367545 -0.362717 0.428155 116 
0.367132 -0.362803 0.429008 57 
0.369025 -0.362422 0.430921 63 
0.369496 -0.362329 0.432187 60 
0.0339585 -0.431242 0.131871 10 
0.377623 -0.363656 -0.0315047 8 
0.36983 -0.365192 -0.0266797 9 
1.8194 -0.0800946 -0.724435 9 
0.550972 -0.329571 -0.111229 8 
0.370609 -0.365045 -0.0238977 7 
0.367265 -0.365705 -0.0212657 10 
0.501217 -0.339366 -0.0834087 7 
0.389623 -0.361314 -0.0296677 9 
0.367032 -0.365758 -0.0180337 8 
0.370962 -0.364988 -0.0188207 9 
0.0521485 -0.427675 0.127645 8 
0.369781 -0.365225 -0.0161867 7 
0.365658 -0.366038 -0.0132557 10 
0.0247795 -0.433057 0.140458 8 
0.367121 -0.365755 -0.0118577 8 
0.379669 -0.363291 -0.0164957 10 
0.383222 -0.362595 -0.0170357 11 
0.574502 -0.324991 -0.101771 8 
0.877421 -0.265441 -0.235844 8 
0.373904 -0.364434 -0.00971269 10 
0.370403 -0.365124 -0.00712568 12 
0.371421 -0.364927 -0.00653969 12 
0.373199 -0.36458 -0.00628168 12 
0.373675 -0.364488 -0.00545169 12 
0.379456 -0.363354 -0.0069157 9 
0.374083 -0.364413 -0.00355268 9 
0.37804 -0.363637 -0.00421368 12 
0.378808 -0.363489 -0.00349668 8 
0.382769 -0.362713 -0.00413469 10 
0.374418 -0.364356 0.000444316 13 
0.376911 -0.363869 0.000430309 10 
0.386494 -0.361988 -0.00253969 11 
0.37712 -0.363833 0.00241732 15 
0.385837 -0.362122 -0.000155695 16 
0.381545 -0.362968 0.00266632 14 
0.384538 -0.362382 0.00248232 13 
0.385687 -0.362159 0.00306232 14 
0.385182 -0.36226 0.00431731 10 
0.388873 -0.361537 0.00387531 10 
0.388508 -0.361611 0.00507631 14 
0.387493 -0.361814 0.00653531 15 
0.384398 -0.362424 0.00881531 11 
0.387134 -0.361889 0.00877731 18 
0.387715 -0.361777 0.00959531 14 
0.386849 -0.361949 0.0109823 19 
0.386133 -0.362093 0.0123063 14 
0.38954 -0.361426 0.0120293 21 
0.385855 -0.362152 0.0144973 20 
0.388894 -0.361557 0.0143733 19 
0.390503 -0.361244 0.0148063 19 
0.390363 -0.361274 0.0159073 19 
0.386888 -0.361959 0.0182643 18 
0.390085 -0.361333 0.0181053 19 
0.391408 -0.361076 0.0186563 22 
0.396972 -0.359985 0.0176393 19 
0.39304 -0.36076 0.0201453 26 
0.392754 -0.360818 0.0212983 24 
0.391297 -0.361107 0.0228763 24 
0.394844 -0.360413 0.0226333 22 
0.39478 -0.360428 0.0237053 21 
0.394123 -0.360559 0.0249883 21 
0.397559 -0.359887 0.0248093 19 
0.39238 -0.360906 0.0276973 23 
0.396015 -0.360195 0.0274573 28 
0.39782 -0.359843 0.0278713 27 
0.396636 -0.360078 0.0293333 26 
0.395536 -0.360296 0.0307613 28 
0.398462 -0.359724 0.0307973 32 
0.402792 -0.358876 0.0303643 25 
0.399621 -0.359501 0.0324993 25 
0.400316 -0.359367 0.0333133 23 
0.398977 -0.359633 0.0348133 30 
0.40217 -0.359008 0.0347923 24 
0.400899 -0.35926 0.0362673 32 
0.402511 -0.358946 0.0367833 29 
0.402074 -0.359034 0.0379773 27 
0.406152 -0.358236 0.0376973 28 
0.40471 -0.358521 0.0392203 31 
0.404424 -0.35858 0.0403653 36 
0.404907 -0.358488 0.0412623 31 
0.40424 -0.358621 0.0425263 29 
0.403957 -0.358679 0.0436653 30 
0.408063 -0.357875 0.0434243 35 
0.406539 -0.358177 0.0449553 34 
0.409513 -0.357596 0.0450853 34 
0.411417 -0.357224 0.0455553 34 
0.409877 -0.357529 0.0470863 34 
0.411313 -0.35725 0.0477063 35 
0.410792 -0.357354 0.0489213 32 
0.412313 -0.357058 0.0495213 40 
0.412578 -0.357009 0.0505013 37 
0.412529 -0.357021 0.0515733 40 
0.416209 -0.356301 0.0515493 36 
0.415601 -0.356423 0.0527903 37 
0.416431 -0.356262 0.0536113 34 
0.416543 -0.356243 0.0546423 36 
0.417378 -0.356081 0.0554653 39 
0.416212 -0.356312 0.0568593 44 
0.419298 -0.35571 0.0570503 42 
0.418689 -0.355832 0.0582863 40 
0.418724 -0.355827 0.0593393 41 
0.420377 -0.355505 0.0599463 41 
0.420901 -0.355405 0.0608673 45 
0.42086 -0.355415 0.0619443 42 
0.42441 -0.354721 0.0620503 38 
0.421184 -0.355356 0.0639863 46 
0.421876 -0.355223 0.0648663 43 
0.422571 -0.355089 0.0657473 45 
0.422207 -0.355163 0.0669083 41 
0.426023 -0.354417 0.0669793 43 
0.424751 -0.354669 0.0683783 46 
0.425454 -0.354534 0.0692653 51 
0.427236 -0.354186 0.0698803 42 
0.427783 -0.354082 0.0708133 49 
0.428164 -0.354009 0.0717893 48 
0.428213 -0.354002 0.0728483 50 
0.429599 -0.353733 0.0735773 51 
0.429567 -0.353742 0.0746583 52 
0.430037 -0.353652 0.0756163 49 
0.43295 -0.353083 0.0759873 56 
0.432667 -0.353141 0.0771323 59 
0.432471 -0.353182 0.0782553 60 
0.433796 -0.352925 0.0790193 61 
0.436751 -0.352348 0.0794083 56 
0.433996 -0.35289 0.0811263 60 
0.43465 -0.352764 0.0820523 61 
0.434712 -0.352755 0.0831153 60 
0.437422 -0.352226 0.0835823 65 
0.440852 -0.351556 0.0838973 60 
0.440221 -0.351682 0.0851243 59 
0.440113 -0.351706 0.0862323 58 
0.438196 -0.352084 0.0877333 62 
0.438177 -0.35209 0.0888173 65 
0.436701 -0.352382 0.0902103 63 
0.436173 -0.352488 0.0913983 66 
0.436244 -0.352477 0.0924573 70 
0.438285 -0.352079 0.0931073 72 
0.438443 -0.35205 0.0941513 70 
0.436377 -0.352458 0.0956493 74 
0.437048 -0.352329 0.0965853 76 
0.43525 -0.352684 0.0980173 79 
0.436859 -0.352371 0.0987673 82 
0.436 -0.352542 0.100007 89 
0.437788 -0.352194 0.100729 95 
0.440104 -0.351742 0.101357 95 
0.439842 -0.351796 0.102482 95 
0.440876 -0.351596 0.103363 99 
0.44018 -0.351735 0.104568 106 
0.438543 -0.352058 0.105944 110 
0.440265 -0.351723 0.106701 112 
0.439318 -0.351911 0.107945 110 
0.439665 -0.351846 0.108954 107 
0.440273 -0.351729 0.109918 103 
0.439415 -0.3519 0.111139 108 
0.443233 -0.351154 0.11155 109 
0.439943 -0.351801 0.113188 107 
0.438147 -0.352155 0.11456 110 
0.441083 -0.351582 0.115137 110 
0.440489 -0.351701 0.116305 105 
0.440328 -0.351735 0.117401 108 
0.439393 -0.351921 0.11862 106 
0.440526 -0.351701 0.119505 104 
0.4408 -0.35165 0.12053 117 
0.442115 -0.351395 0.121394 128 
0.444311 -0.350967 0.122127 128 
0.444504 -0.350932 0.123172 129 
0.444786 -0.350879 0.124203 131 
0.444108 -0.351015 0.125377 127 
0.444041 -0.35103 0.126459 117 
0.442932 -0.35125 0.12769 111 
0.444614 -0.350923 0.12852 106 
0.445252 -0.3508 0.129502 106 
0.446069 -0.350643 0.130462 101 
0.44645 -0.350571 0.131484 99 
0.447272 -0.350412 0.132447 102 
0.447479 -0.350374 0.133495 106 
0.447423 -0.350387 0.134578 106 
0.447986 -0.35028 0.13558 108 
0.44864 -0.350154 0.136572 112 
0.45001 -0.349888 0.137478 109 
0.449333 -0.350023 0.138639 111 
0.451245 -0.349651 0.139485 111 
0.44808 -0.350273 0.140941 103 
0.449274 -0.350042 0.141875 104 
0.446662 -0.350556 0.143251 103 
0.446968 -0.350499 0.144286 94 
0.447984 -0.350302 0.145244 98 
0.445563 -0.350779 0.14658 97 
0.445698 -0.350755 0.147632 97 
0.443736 -0.351141 0.148906 103 
0.443785 -0.351134 0.149964 100 
0.441494 -0.351585 0.151259 97 
0.440856 -0.351713 0.152381 102 
0.442463 -0.3514 0.15328 107 
0.441306 -0.351629 0.15445 105 
0.439555 -0.351975 0.155671 105 
0.439954 -0.351899 0.156688 113 
0.440269 -0.35184 0.157713 105 
0.439384 -0.352015 0.158845 100 
0.438673 -0.352157 0.159958 105 
0.436692 -0.352547 0.161176 102 
0.438029 -0.352288 0.162112 110 
0.4358 -0.352727 0.16334 112 
0.435274 -0.352832 0.164426 110 
0.436437 -0.352607 0.165379 117 
0.43431 -0.353025 0.166584 122 
0.433958 -0.353097 0.16765 118 
0.433105 -0.353266 0.16875 117 
0.432673 -0.353353 0.169818 118 
0.433496 -0.353194 0.1708 122 
0.431898 -0.35351 0.171942 125 
0.430062 -0.353871 0.173094 118 
0.430135 -0.353859 0.174121 121 
0.429798 -0.353928 0.175172 129 
0.429048 -0.354077 0.176246 126 
0.428056 -0.354273 0.17733 131 
0.428052 -0.354276 0.178357 129 
0.426332 -0.354615 0.179474 125 
0.42682 -0.354522 0.180472 130 
0.425192 -0.354843 0.181575 134 
0.42568 -0.35475 0.182573 130 
0.424303 -0.355022 0.183656 127 
0.423257 -0.355229 0.18472 130 
0.422455 -0.355388 0.185769 130 
0.42214 -0.355452 0.186796 126 
0.422228 -0.355437 0.187808 132 
0.421593 -0.355564 0.188844 134 
0.420246 -0.35583 0.189902 131 
0.418826 -0.35611 0.190957 126 
0.419075 -0.356063 0.191957 131 
0.418216 -0.356234 0.192989 129 
0.416811 -0.356511 0.194032 133 
0.415883 -0.356695 0.195057 132 
0.415116 -0.356847 0.196076 129 
0.414276 -0.357014 0.197093 133 
0.413983 -0.357073 0.198097 133 
0.412915 -0.357285 0.199112 132 
0.412548 -0.357359 0.200114 137 
0.411335 -0.357598 0.201124 141 
0.411202 -0.357626 0.202118 141 
0.410227 -0.357819 0.203119 139 
0.410251 -0.357817 0.20411 139 
0.40913 -0.358039 0.205106 139 
0.408621 -0.35814 0.206096 141 
0.407888 -0.358286 0.207085 138 
0.406931 -0.358475 0.208071 137 
0.406506 -0.358561 0.209054 142 
0.405858 -0.35869 0.210035 141 
0.405285 -0.358804 0.211014 142 
0.404943 -0.358873 0.211992 141 
0.403926 -0.359074 0.212963 138 
0.402394 -0.359376 0.213923 135 
0.403472 -0.359168 0.214914 137 
0.401352 -0.359584 0.215859 137 
0.401908 -0.359478 0.216843 142 
0.400097 -0.359834 0.217782 146 
0.400504 -0.359757 0.218763 140 
0.398265 -0.360197 0.219684 141 
0.398672 -0.36012 0.220663 141 
0.398934 -0.360071 0.221639 149 
0.397659 -0.360322 0.222572 151 
0.396828 -0.360487 0.223514 147 
0.396362 -0.36058 0.224465 141 
0.395755 -0.360701 0.22541 144 
0.395294 -0.360793 0.226357 145 
0.393682 -0.36111 0.227258 143 
0.393659 -0.361117 0.228218 143 
0.393995 -0.361054 0.229194 146 
0.392108 -0.361425 0.230072 143 
0.392159 -0.361417 0.231032 146 
0.390146 -0.361813 0.231894 145 
0.390267 -0.361791 0.232855 148 
0.389612 -0.361922 0.233776 149 
0.390375 -0.361775 0.234771 153 
0.388873 -0.362071 0.235643 152 
0.388786 -0.36209 0.236591 153 
0.387576 -0.362328 0.237472 153 
0.387352 -0.362374 0.238409 152 
0.385942 -0.362652 0.23927 154 
0.385164 -0.362806 0.240168 154 
0.385154 -0.36281 0.241114 152 
0.384658 -0.36291 0.242027 153 
0.384163 -0.363008 0.242938 159 
0.383532 -0.363134 0.243838 152 
0.383249 -0.363191 0.244761 149 
0.382762 -0.363289 0.245668 148 
0.382069 -0.363426 0.246557 150 
0.382201 -0.363402 0.247511 143 
0.381786 -0.363486 0.248419 144 
0.381373 -0.363569 0.249327 139 
0.380414 -0.363758 0.250186 137 
0.380072 -0.363827 0.251097 136 
0.379528 -0.363936 0.251988 136 
0.378375 -0.364163 0.252821 133 
0.379326 -0.363979 0.253847 136 
0.378853 -0.364074 0.254741 143 
0.378587 -0.364128 0.255654 140 
0.377105 -0.36442 0.256445 139 
0.376841 -0.364474 0.257354 140 
0.377116 -0.364422 0.258318 142 
0.377459 -0.364357 0.259291 136 
0.376862 -0.364476 0.260164 134 
0.376399 -0.364568 0.261051 130 
0.376072 -0.364634 0.26195 136 
0.377497 -0.364358 0.263047 132 
0.376631 -0.364529 0.263887 134 
0.375838 -0.364687 0.264731 129 
0.375516 -0.364752 0.265629 135 
0.375596 -0.364738 0.266575 133 
0.375744 -0.364711 0.26753 129 
0.375895 -0.364684 0.268485 132 
0.375643 -0.364735 0.269391 129 
0.375861 -0.364695 0.270357 130 
0.375208 -0.364824 0.271211 132 
0.375362 -0.364797 0.272168 126 
0.375717 -0.36473 0.273154 127 
0.377219 -0.364438 0.274297 133 
0.376566 -0.364568 0.275149 134 
0.37605 -0.364671 0.276019 132 
0.376612 -0.364563 0.27704 128 
0.375695 -0.364745 0.27785 126 
0.376864 -0.364519 0.278962 129 
0.377228 -0.36445 0.279959 125 
0.378 -0.364301 0.281019 132 
0.378231 -0.364258 0.282001 132 
0.377513 -0.3644 0.282838 131 
0.377746 -0.364357 0.283821 133 
0.377236 -0.364459 0.284689 128 
0.378215 -0.36427 0.285791 130 
0.378929 -0.364133 0.286855 133 
0.378282 -0.364261 0.287701 127 
0.37696 -0.364522 0.288434 124 
0.377874 -0.364345 0.289535 124 
0.377369 -0.364446 0.2904 125 
0.37754 -0.364415 0.291379 124 
0.378121 -0.364304 0.29243 128 
0.378022 -0.364325 0.293365 128 
0.378266 -0.36428 0.29436 128 
0.378783 -0.364181 0.295406 122 
0.377871 -0.364361 0.296197 123 
0.379001 -0.364143 0.297357 126 
0.379661 -0.364017 0.298434 131 
0.379636 -0.364024 0.299388 125 
0.379065 -0.364137 0.30024 119 
0.379521 -0.36405 0.301284 124 
0.380114 -0.363937 0.302358 127 
0.380163 -0.36393 0.303328 122 
0.379456 -0.36407 0.304152 130 
0.379984 -0.363969 0.305218 129 
0.380722 -0.363827 0.306327 134 
0.380567 -0.36386 0.30726 130 
0.38048 -0.363879 0.308208 130 
0.381292 -0.363723 0.309339 133 
0.382244 -0.363539 0.310504 131 
0.38223 -0.363544 0.311471 133 
0.381801 -0.36363 0.31235 134 
0.383665 -0.363269 0.313718 134 
0.383095 -0.363382 0.314569 135 
0.384411 -0.363128 0.315829 139 
0.383981 -0.363214 0.316711 138 
0.38397 -0.363218 0.317686 134 
0.383613 -0.36329 0.318584 133 
0.383954 -0.363225 0.319638 131 
0.384717 -0.363079 0.320789 133 
0.385415 -0.362945 0.321929 134 
0.385339 -0.362962 0.322894 130 
0.387598 -0.362524 0.324403 124 
0.385896 -0.362858 0.324991 127 
0.386458 -0.362751 0.32611 123 
0.386386 -0.362767 0.32708 121 
0.387803 -0.362493 0.328408 122 
0.38695 -0.362661 0.329193 126 
0.387449 -0.362567 0.330305 128 
0.388876 -0.36229 0.331648 124 
0.388023 -0.362459 0.332431 124 
0.388312 -0.362405 0.333498 127 
0.389103 -0.362253 0.334693 126 
0.388965 -0.362283 0.335655 126 
0.389688 -0.362144 0.336839 125 
0.389479 -0.362187 0.337785 119 
0.389343 -0.362216 0.33875 120 
0.39007 -0.362076 0.339942 116 
0.389361 -0.362217 0.340757 120 
0.389371 -0.362217 0.341762 120 
0.390101 -0.362077 0.342961 118 
0.390041 -0.362091 0.34395 122 
0.389766 -0.362147 0.344881 125 
0.390283 -0.362048 0.346029 134 
0.388572 -0.362384 0.346564 131 
0.389232 -0.362258 0.347753 130 
0.389176 -0.362271 0.348744 136 
0.38948 -0.362214 0.349838 135 
0.388777 -0.362354 0.350647 133 
0.388508 -0.362408 0.351579 141 
0.38867 -0.362379 0.352634 142 
0.3879 -0.362532 0.353421 138 
0.388063 -0.362502 0.354477 143 
0.387653 -0.362584 0.355367 133 
0.386959 -0.362722 0.356171 132 
0.386196 -0.362873 0.356953 134 
0.386006 -0.362912 0.357905 138 
0.386313 -0.362855 0.359007 131 
0.385909 -0.362936 0.359894 136 
0.385933 -0.362933 0.360912 143 
0.38546 -0.363028 0.361777 142 
0.384845 -0.36315 0.362598 145 
0.384022 -0.363313 0.363352 137 
0.383835 -0.363351 0.364303 129 
0.383934 -0.363335 0.365344 136 
0.382692 -0.363579 0.36596 140 
0.382087 -0.363699 0.366776 140 
0.382325 -0.363655 0.367862 136 
0.381512 -0.363816 0.368609 136 
0.381261 -0.363867 0.369536 140 
0.381361 -0.36385 0.370579 136 
0.381111 -0.363901 0.371507 142 
0.379954 -0.364129 0.372134 136 
0.379636 -0.364193 0.373038 140 
0.379528 -0.364216 0.374012 140 
0.378588 -0.364402 0.374704 137 
0.377167 -0.364681 0.37523 133 
0.378307 -0.364461 0.376627 126 
0.377302 -0.364659 0.377292 127 
0.376992 -0.364722 0.378193 117 
0.375718 -0.364972 0.378759 123 
0.374382 -0.365235 0.379299 119 
0.374485 -0.365217 0.380341 122 
0.374931 -0.365132 0.381506 122 
0.374077 -0.365301 0.382211 118 
0.372412 -0.365628 0.382621 120 
0.372992 -0.365517 0.383836 116 
0.37337 -0.365446 0.38498 108 
0.372048 -0.365706 0.385507 113 
0.373172 -0.365489 0.386927 108 
0.371242 -0.365867 0.387226 104 
0.370605 -0.365993 0.387997 97 
0.37051 -0.366014 0.388968 105 
0.370616 -0.365996 0.390016 98 
0.36817 -0.366474 0.390102 93 
0.36821 -0.366469 0.391121 83 
0.369458 -0.366228 0.392603 85 
0.368625 -0.366393 0.393293 83 
0.36773 -0.366569 0.393956 90 
0.367571 -0.366603 0.394901 87 
0.366746 -0.366766 0.395588 87 
0.366123 -0.366889 0.396351 91 
0.365766 -0.366961 0.397218 95 
0.366408 -0.366838 0.398478 90 
0.365057 -0.367104 0.39895 87 
0.364902 -0.367136 0.399895 81 
0.364285 -0.367259 0.400655 75 
0.365719 -0.366982 0.402243 83 
0.365633 -0.367001 0.403219 81 
0.364419 -0.36724 0.403735 69 
0.364862 -0.367156 0.404928 70 
0.364776 -0.367175 0.405905 71 
0.366419 -0.366857 0.4076 69 
0.364539 -0.367225 0.407834 64 
0.363463 -0.367437 0.408398 69 
0.365965 -0.366953 0.410465 66 
0.364617 -0.367217 0.410915 67 
0.3666 -0.366834 0.412776 69 
0.366183 -0.366917 0.41362 68 
0.3661 -0.366936 0.414608 70 
0.366286 -0.366902 0.415712 64 
0.366338 -0.366894 0.416761 57 
0.366727 -0.366821 0.417956 58 
0.368125 -0.366551 0.419598 63 
0.368924 -0.366398 0.420982 63 
0.366019 -0.366966 0.420731 60 
0.366812 -0.366814 0.422113 57 
0.368757 -0.366438 0.424015 55 
0.36652 -0.366875 0.424049 67 
0.367386 -0.366709 0.425473 64 
0.367714 -0.366648 0.426659 65 
0.368178 -0.36656 0.427909 116 
0.369052 -0.366392 0.429349 56 
0.367149 -0.366765 0.429519 62 
0.369173 -0.366373 0.431494 55 
0.366132 -0.369857 -0.0264327 10 
0.0163425 -0.4358 0.140381 7 
0.521143 -0.340636 -0.0990307 7 
0.374207 -0.368342 -0.0271717 9 
0.931308 -0.263316 -0.292688 7 
0.261968 -0.389505 0.0281063 7 
0.372909 -0.368596 -0.0223357 12 
0.376083 -0.368 -0.0227717 8 
0.373367 -0.368515 -0.0204487 7 
0.36946 -0.369253 -0.0175867 7 
0.363295 -0.370418 -0.0137007 8 
1.31024 -0.191932 -0.449866 7 
0.372775 -0.368636 -0.0159867 13 
0.520081 -0.340875 -0.0821337 7 
