0.45378,0.0345828,0.0836472,151
0.453974,0.0345725,0.0845395,148
0.453838,0.0345764,0.0853696,152
0.4542,0.0345589,0.086296,151
0.453954,0.0345676,0.0871056,151
0.454262,0.0345524,0.088024,155
0.454682,0.0345324,0.0889664,153
0.455214,0.0345076,0.0899336,153
0.455805,0.0344803,0.0909151,155
0.456062,0.0344672,0.091831,153
0.457218,0.0344156,0.0929343,158
0.456245,0.0344555,0.093598,151
0.456057,0.0344616,0.094424,150
0.457721,0.0343881,0.0956437,149
0.457815,0.0343821,0.0965334,147
0.458079,0.0343688,0.0974607,148
0.458175,0.0343627,0.0983528,146
0.458271,0.0343566,0.099246,142
0.458481,0.0343456,0.100165,146
0.458579,0.0343394,0.101061,143
0.460611,0.03425,0.102395,145
0.4594,0.0343001,0.102998,144
0.459614,0.0342889,0.103924,146
0.459886,0.0342753,0.104865,148
0.460444,0.0342492,0.105875,144
0.460718,0.0342355,0.10682,148
0.461337,0.0342068,0.10785,145
0.461901,0.0341805,0.108869,145
0.462122,0.034169,0.109807,148
0.461998,0.0341724,0.110664,151
0.462508,0.0341484,0.111676,148
0.462269,0.0341567,0.112505,145
0.462839,0.0341301,0.113536,145
0.463528,0.0340984,0.114599,141
0.462595,0.0341366,0.115255,139
0.46207,0.0341572,0.116012,135
0.462642,0.0341306,0.11705,132
0.462927,0.0341163,0.118017,133
0.463561,0.0340869,0.119076,134
0.463384,0.0340925,0.119925,134
0.463439,0.0340881,0.120835,137
0.46303,0.0341037,0.121623,140
0.462913,0.0341068,0.122487,140
0.463609,0.0340747,0.123573,145
0.463376,0.0340828,0.124408,147
0.463027,0.0340958,0.125211,153
0.46326,0.0340837,0.126175,151
0.46268,0.0341067,0.126914,154
0.462682,0.0341046,0.127814,152
0.462974,0.0340899,0.128797,150
0.462977,0.0340878,0.129699,142
0.462399,0.0341106,0.130436,141
0.463042,0.0340809,0.131524,151
0.462291,0.0341112,0.132209,150
0.462469,0.0341015,0.133165,150
0.462416,0.0341017,0.134053,147
0.462945,0.0340769,0.135115,150
0.46179,0.0341247,0.135677,147
0.462087,0.0341098,0.136671,151
0.461225,0.034145,0.137317,149
0.461637,0.0341252,0.138348,146
0.461182,0.0341428,0.139115,147
0.460613,0.0341653,0.139846,150
0.46091,0.0341504,0.140845,148
0.460284,0.0341754,0.141557,150
0.460409,0.034168,0.142503,150
0.460131,0.034178,0.143323,149
0.460603,0.0341555,0.144382,147
0.459749,0.0341904,0.145018,150
0.459473,0.0342003,0.145838,152
0.459945,0.0341778,0.146901,141
0.460015,0.0341727,0.147834,150
0.459049,0.0342124,0.148429,149
0.459005,0.0342123,0.149325,150
0.458731,0.0342221,0.150146,154
0.458515,0.0342294,0.150985,152
0.458242,0.0342391,0.151805,144
0.457799,0.0342562,0.152568,149
0.457871,0.034251,0.153504,143
0.457143,0.0342805,0.154168,134
0.455905,0.034332,0.154655,137
0.455637,0.0343416,0.155472,141
0.456848,0.0342871,0.156804,134
0.455669,0.0343361,0.157306,141
0.456711,0.0342889,0.158585,136
0.455136,0.034355,0.158943,133
0.454757,0.0343694,0.159721,126
0.454378,0.0343837,0.160498,128
0.453493,0.03442,0.161093,128
0.453174,0.0344318,0.161889,131
0.453417,0.0344192,0.16289,130
0.452424,0.0344602,0.16344,126
0.452275,0.0344646,0.164297,124
0.452519,0.0344519,0.1653,123
0.452202,0.0344636,0.166096,119
0.452054,0.034468,0.166955,121
0.45157,0.0344869,0.167688,113
0.451422,0.0344912,0.168547,124
0.449993,0.0345512,0.168919,122
0.449069,0.0345891,0.169479,122
0.449312,0.0345765,0.170484,130
0.449389,0.0345711,0.171428,128
0.448303,0.0346162,0.17192,123
0.447883,0.0346324,0.172669,122
0.447574,0.0346437,0.173461,121
0.448259,0.0346119,0.174644,120
0.448614,0.0345944,0.175701,109
0.448139,0.034613,0.176429,108
0.447389,0.0346435,0.177045,98
0.447248,0.0346476,0.177904,101
0.448322,0.0345988,0.179256,91
0.448126,0.0346053,0.180096,91
0.446714,0.0346645,0.18044,91
0.447512,0.0346278,0.181686,92
0.447151,0.0346414,0.182458,91
0.446956,0.0346478,0.183298,91
0.448534,0.0345771,0.184878,95
0.448061,0.0345956,0.185605,94
0.448311,0.0345826,0.186636,93
0.449118,0.0345454,0.187905,88
0.448757,0.034559,0.188681,80
0.448229,0.0345799,0.189385,87
0.449374,0.034528,0.190807,83
0.450245,0.034488,0.192116,82
0.449434,0.0345212,0.1927,84
0.450251,0.0344835,0.193991,85
0.449441,0.0345167,0.194573,85
0.450427,0.0344716,0.195944,86
0.450572,0.0344632,0.196949,81
0.44993,0.034489,0.197604,82
0.450244,0.0344732,0.198685,123
0.450729,0.03445,0.199845,85
0.450143,0.0344734,0.200525,86
0.451534,0.0344107,0.202099,94
0.452655,0.0317617,-0.214743,13
0.449432,0.0319184,-0.212258,11
0.452547,0.0317627,-0.212783,12
0.452892,0.0317435,-0.211993,12
0.453467,0.031713,-0.211309,9
0.455076,0.0316315,-0.211107,10
0.454792,0.0316433,-0.21002,11
0.456179,0.0315727,-0.209707,9
0.459031,0.0314298,-0.210064,11
0.458801,0.031439,-0.208998,14
0.458572,0.0314482,-0.207934,16
0.459511,0.0313996,-0.207403,13
0.45448,0.0316458,-0.204172,12
0.458762,0.0314323,-0.20515,9
0.460641,0.0313374,-0.205035,13
0.196797,0.0443662,-0.087965,11
0.459013,0.0314134,-0.202398,12
0.462308,0.0312485,-0.202899,8
0.461783,0.0312723,-0.20171,13
0.461319,0.0312931,-0.20055,12
0.464108,0.0311531,-0.200808,13
0.465968,0.0310591,-0.200654,16
0.467721,0.0309703,-0.200447,9
0.463773,0.0311632,-0.197788,14
0.466589,0.0310218,-0.198033,8
0.467259,0.0309866,-0.197357,12
0.465347,0.0310789,-0.195587,11
0.468847,0.0309037,-0.196102,10
0.468431,0.0309221,-0.194964,17
0.467052,0.0309881,-0.193429,14
0.468933,0.0308929,-0.19325,11
0.462195,0.031224,-0.189511,9
0.465287,0.031069,-0.189833,11
0.465955,0.0310338,-0.189155,10
0.469458,0.0308583,-0.189626,14
0.467958,0.0309304,-0.188061,10
0.470697,0.0307927,-0.188208,13
0.469857,0.0308321,-0.186913,16
0.470173,0.0308143,-0.186082,15
0.466388,0.0309994,-0.183627,17
0.46718,0.0309581,-0.182991,18
0.46582,0.0310233,-0.18151,17
0.468954,0.030866,-0.181786,20
0.470665,0.0307792,-0.1815,14
0.470193,0.0308003,-0.180365,18
0.470816,0.0307674,-0.179652,17
0.470649,0.0307735,-0.178637,16
0.469634,0.0308216,-0.177301,19
0.469168,0.0308426,-0.176177,22
0.471306,0.0307345,-0.176035,23
0.470412,0.0307767,-0.174751,23
0.472132,0.0306893,-0.174444,17
0.469963,0.0307946,-0.172693,21
0.470163,0.0307826,-0.171822,20
0.468555,0.0308601,-0.17029,19
0.467019,0.0309341,-0.168792,24
0.466266,0.0309694,-0.167584,22
0.468376,0.0308626,-0.167409,21
0.468217,0.0308684,-0.166415,25
0.468119,0.0308711,-0.165444,22
0.467902,0.0308798,-0.164433,26
0.46121,0.0312095,-0.161147,27
0.462749,0.0311311,-0.160765,27
0.460564,0.0312374,-0.159084,23
0.459839,0.0312713,-0.157917,29
0.461137,0.0312049,-0.157448,31
0.45857,0.0313301,-0.155656,26
0.457683,0.0313721,-0.154444,26
0.458338,0.0313375,-0.153757,29
0.455018,0.0315003,-0.151735,27
0.455611,0.0314688,-0.151032,32
0.458081,0.0313441,-0.150949,31
0.457085,0.0313915,-0.149715,28
0.455869,0.0314499,-0.148414,34
0.457373,0.0313732,-0.148003,34
0.454242,0.0315265,-0.146089,29
0.454442,0.0315146,-0.145258,29
0.453746,0.0315471,-0.14414,30
0.452497,0.0316072,-0.142851,35
0.452419,0.031609,-0.141937,37
0.453734,0.0315417,-0.14146,39
0.452487,0.0316016,-0.140181,36
0.450862,0.0316804,-0.13879,42
0.449579,0.0317421,-0.137512,38
0.452592,0.0315904,-0.137552,42
0.450254,0.0317046,-0.135957,44
0.450895,0.0316708,-0.13527,41
0.449451,0.0317406,-0.133956,48
0.450694,0.0316768,-0.133449,46
0.450238,0.0316975,-0.132434,45
0.451541,0.0316307,-0.131939,46
0.45026,0.0316924,-0.130686,46
0.450683,0.0316694,-0.129932,50
0.450832,0.03166,-0.129099,46
0.453136,0.0315434,-0.128881,44
0.449872,0.0317038,-0.127074,53
0.449803,0.0317052,-0.126182,51
0.450009,0.031693,-0.125367,50
0.450598,0.0316617,-0.124659,56
0.451519,0.0316139,-0.12404,55
0.450191,0.0316781,-0.122802,60
0.450617,0.0316549,-0.122048,57
0.450278,0.0316698,-0.121085,62
0.450924,0.0316357,-0.12039,61
0.450312,0.0316642,-0.119356,58
0.45085,0.0316354,-0.11863,58
0.451115,0.0316203,-0.117831,62
0.451545,0.0315969,-0.117075,57
0.451153,0.0316145,-0.116104,63
0.451529,0.0315938,-0.115333,62
0.451522,0.0315922,-0.114464,67
0.450912,0.0316206,-0.113443,62
0.45118,0.0316053,-0.112645,66
0.451613,0.0315817,-0.111887,71
0.452102,0.0315554,-0.111142,71
0.450454,0.0316356,-0.109873,76
0.452753,0.0315191,-0.10957,77
0.452309,0.0315392,-0.108597,74
0.451428,0.0315812,-0.107521,72
0.452743,0.0315137,-0.106971,69
0.452081,0.0315448,-0.105951,78
0.451367,0.0315784,-0.104922,71
0.451311,0.0315792,-0.104048,78
0.452517,0.0315172,-0.103466,77
0.452077,0.0315371,-0.102504,85
0.452627,0.0315078,-0.101768,90
0.452298,0.0315222,-0.100833,92
0.452959,0.0314873,-0.100121,88
0.452961,0.0314853,-0.0992608,93
0.453349,0.031464,-0.0984857,88
0.453022,0.0314784,-0.0975548,93
0.453355,0.0314598,-0.0967675,90
0.452809,0.0314851,-0.0957924,95
0.453529,0.0314472,-0.0950866,88
0.454142,0.0314147,-0.0943561,93
0.45332,0.0314538,-0.0933272,90
0.456207,0.0313078,-0.0930618,94
0.454436,0.0313942,-0.0918405,90
0.453946,0.0314167,-0.0908839,89
0.454672,0.0313785,-0.0901719,93
0.454459,0.0313872,-0.0892723,93
0.455077,0.0313544,-0.0885363,94
0.454865,0.0313631,-0.0876379,99
0.45482,0.0313634,-0.0867727,97
0.455884,0.0313083,-0.0861187,94
0.455284,0.0313363,-0.0851486,96
0.456352,0.0312811,-0.0844911,95
0.455419,0.0313257,-0.0834621,105
0.456544,0.0312676,-0.0828116,104
0.456223,0.0312817,-0.0818968,106
0.455903,0.0312958,-0.0809839,118
0.456864,0.0312458,-0.0802986,108
0.457549,0.0312096,-0.0795619,112
0.457341,0.0312181,-0.0786689,111
0.457357,0.0312153,-0.0778154,107
0.457486,0.031207,-0.0769812,105
0.458455,0.0311566,-0.0762874,111
0.457969,0.031179,-0.0753499,113
0.457652,0.0311929,-0.0744423,121
0.459411,0.031103,-0.0738713,117
0.458418,0.0311507,-0.0728554,119
0.459113,0.031114,-0.0721093,117
0.459303,0.0311026,-0.0712825,119
0.45893,0.0311192,-0.0703689,112
0.45929,0.0310993,-0.0695682,117
0.459482,0.0310878,-0.0687414,116
0.459393,0.0310903,-0.0678726,113
0.460093,0.0310533,-0.0671201,116
0.46057,0.0310275,-0.0663329,110
0.459692,0.0310696,-0.0653513,110
0.460282,0.0310381,-0.0645798,122
0.461327,0.0309838,-0.0638696,121
0.460957,0.0310004,-0.0629621,115
0.461723,0.0309601,-0.0622096,121
0.462833,0.0309026,-0.0615005,122
0.461667,0.0309591,-0.0604887,125
0.461696,0.0309556,-0.0596364,125
0.461784,0.0309493,-0.0587916,126
0.463068,0.0308831,-0.0580972,132
0.462643,0.0309024,-0.0571868,132
0.462675,0.0308989,-0.0563341,128
0.463165,0.0308724,-0.0555364,128
0.464,0.0308286,-0.0547779,132
0.464034,0.0308249,-0.0539236,131
0.463268,0.0308614,-0.0529778,132
0.463361,0.0308548,-0.0521319,128
0.464371,0.0308022,-0.0513874,134
0.464465,0.0307956,-0.0505398,132
0.464159,0.030809,-0.0496492,131
0.464484,0.0307908,-0.0488264,128
0.464007,0.0308127,-0.0479199,130
0.464448,0.0307887,-0.0471085,134
0.464604,0.030779,-0.0462673,137
0.46499,0.0307577,-0.0454482,130
0.464629,0.0307738,-0.0445565,131
0.464442,0.0307812,-0.0436827,127
0.464543,0.0307743,-0.0428362,126
0.464529,0.030773,-0.0419793,129
0.464918,0.0307516,-0.0411583,131
0.463645,0.0308135,-0.0401924,128
0.463863,0.0308007,-0.0393575,127
0.464367,0.0307734,-0.0385457,125
0.465104,0.0307345,-0.037751,138
0.465727,0.0307013,-0.0369448,137
0.463653,0.0308035,-0.0359285,137
0.463645,0.030802,-0.0350756,136
0.46358,0.0308033,-0.0342188,145
0.463517,0.0308046,-0.0333625,142
0.464082,0.0307742,-0.0325504,146
0.463734,0.0307898,-0.0316744,146
0.463444,0.0308024,-0.0308038,144
0.462473,0.0308493,-0.0298907,142
0.463038,0.030819,-0.029077,147
0.46224,0.0308572,-0.0281791,147
0.461955,0.0308696,-0.0273143,141
0.460598,0.0309358,-0.02639,140
0.461614,0.0308829,-0.0256009,149
0.460036,0.0309603,-0.0246709,149
0.460769,0.0309215,-0.0238648,149
0.459871,0.0309648,-0.0229759,150
0.459257,0.0309938,-0.0221039,154
0.459036,0.0310029,-0.0212522,151
0.458593,0.0310233,-0.0203918,150
0.458152,0.0310436,-0.0195331,149
0.45749,0.031075,-0.0186674,148
0.457052,0.0310951,-0.0178128,148
0.457613,0.031065,-0.016996,151
0.456844,0.0311018,-0.0161316,149
0.455968,0.031144,-0.0152666,159
0.455977,0.0311417,-0.0144321,161
0.4556,0.0311587,-0.0135865,162
0.455335,0.0311702,-0.0127454,155
0.455126,0.0311789,-0.0119068,153
0.454917,0.0311875,-0.011069,160
0.454655,0.0311988,-0.0102308,163
0.454393,0.0312101,-0.00939374,160
0.45326,0.0312653,-0.00854225,159
0.453819,0.0312352,-0.00772177,163
0.452526,0.0312984,-0.00687342,166
0.451891,0.0313286,-0.00603783,164
0.451852,0.0313286,-0.00521074,166
0.45176,0.0313314,-0.00438337,171
0.451237,0.0313559,-0.00355353,166
0.450715,0.0313803,-0.00272565,161
0.450572,0.0313857,-0.00190078,156
0.450752,0.0313747,-0.00107676,164
0.450287,0.0313963,-0.000252637,162
0.450146,0.0314016,0.000570656,156
0.449309,0.0314419,0.00139025,159
0.447943,0.0315089,0.00220337,164
0.447539,0.0315273,0.00301942,162
0.447455,0.0315297,0.00383724,154
0.446631,0.0315694,0.0046459,154
0.446443,0.0315771,0.00546034,150
0.445939,0.0316006,0.00626919,150
0.445437,0.0316241,0.00707624,150
0.445252,0.0316316,0.00788762,158
0.445225,0.0316311,0.00870174,155
0.444203,0.0316808,0.00949283,155
0.444387,0.0316697,0.0103103,159
0.444466,0.0316639,0.0111257,159
0.44418,0.0316764,0.011931,163
0.443634,0.0317021,0.0127274,159
0.443246,0.0317199,0.0135269,157
0.443484,0.0317061,0.0143466,160
0.442008,0.0317787,0.0151053,161
0.442557,0.0317492,0.0159355,160
0.443004,0.0317248,0.0167638,157
0.441894,0.031779,0.017529,163
0.441461,0.031799,0.0183197,160
0.441908,0.0317746,0.0191487,158
0.441063,0.0318155,0.0199186,160
0.442545,0.0317388,0.0207996,158
0.44201,0.031764,0.0215835,159
0.442097,0.0317578,0.0223985,169
0.442651,0.0317279,0.0232394,162
0.442169,0.0317504,0.0240239,161
0.442673,0.0317231,0.0248644,162
0.442503,0.0317299,0.0256663,162
0.441971,0.031755,0.0264452,161
0.441493,0.0317773,0.0272258,164
0.442776,0.0317106,0.0281207,163
0.442089,0.0317435,0.0288872,164
0.441871,0.0317527,0.0296839,161
0.442742,0.0317068,0.0305577,164
0.442369,0.0317239,0.0313439,161
0.442723,0.0317041,0.0321834,165
0.442454,0.0317159,0.0329766,164
0.442706,0.0317013,0.0338099,165
0.442802,0.0316946,0.0346318,162
0.442899,0.0316878,0.0354544,162
0.442425,0.03171,0.0362294,160
0.442523,0.0317032,0.0370521,161
0.443194,0.0316674,0.037926,164
0.442617,0.0316948,0.0386902,162
0.442977,0.0316747,0.0395386,163
0.442973,0.031673,0.0403545,165
0.442918,0.031674,0.0411658,165
0.442916,0.0316722,0.0419822,164
0.443175,0.0316573,0.0428247,164
0.442913,0.0316687,0.0436159,162
0.444219,0.0316007,0.0445678,163
0.443591,0.0316307,0.045322,162
0.443069,0.0316552,0.0460855,154
0.44375,0.0316189,0.0469779,164
0.443647,0.0316223,0.0477866,162
0.443283,0.0316389,0.0485658,158
0.445703,0.0315145,0.049662,158
0.443447,0.0316269,0.0502246,158
0.444132,0.0315903,0.051126,160
0.443612,0.0316148,0.051886,159
0.445194,0.0315328,0.0529,159
0.445464,0.0315173,0.0537582,165
0.446264,0.0314749,0.0546843,163
0.445056,0.0315342,0.0553578,162
0.44612,0.0314784,0.056321,164
0.445177,0.0315243,0.0570252,160
0.446562,0.0314522,0.0580358,162
0.44583,0.0314875,0.0587664,162
0.446742,0.0314394,0.0597194,164
0.446806,0.0314342,0.0605587,161
0.447031,0.031421,0.0614211,165
0.446937,0.0314239,0.0622394,165
0.447109,0.0314132,0.0630961,164
0.447389,0.0313972,0.0639695,163
0.44842,0.031343,0.0649555,165
0.447152,0.0314055,0.0656011,161
0.44722,0.0314001,0.0664452,164
0.448359,0.0313404,0.0674545,160
0.447947,0.0313594,0.0682272,168
0.449576,0.0312749,0.0693202,158
0.448894,0.0313076,0.0700514,158
0.450316,0.0312336,0.0711196,162
0.448771,0.0313101,0.0717096,161
0.450572,0.0312168,0.0728465,165
0.450539,0.0312166,0.0736843,160
0.450235,0.0312301,0.0744768,165
0.450528,0.0312133,0.0753704,162
0.450279,0.031224,0.0761721,160
0.450465,0.0312127,0.077049,156
0.451467,0.0311599,0.0780712,157
0.450947,0.0311844,0.0788262,157
0.451898,0.0311341,0.0798449,159
0.452362,0.0311087,0.0807787,151
0.452881,0.0310803,0.0817251,153
0.453844,0.0310295,0.0827563,152
0.454313,0.0310037,0.0836991,152
0.45346,0.0310452,0.084393,153
0.452445,0.0310948,0.0850532,156
0.453244,0.0310523,0.0860611,152
0.453659,0.0310292,0.0869977,154
0.45358,0.0310313,0.0878386,149
0.454219,0.0309969,0.0888229,155
0.45475,0.030968,0.0897883,153
0.455282,0.030939,0.0907567,153
0.454595,0.030972,0.0914774,147
0.455518,0.0309231,0.0925293,153
0.455497,0.0309222,0.0933882,154
0.455756,0.0309071,0.0943064,148
0.456015,0.0308919,0.0952263,150
0.457565,0.0308112,0.0964246,156
0.457603,0.0308073,0.0973021,155
0.457361,0.0308176,0.0981191,146
0.457513,0.0308079,0.0990224,144
0.458003,0.030781,0.100002,143
0.458213,0.0307683,0.100922,144
0.459727,0.0306893,0.102137,139
0.458749,0.0307371,0.102791,139
0.459188,0.0307128,0.103767,147
0.459458,0.030697,0.104707,146
0.460242,0.0306551,0.105768,153
0.459434,0.0306943,0.106457,152
0.459877,0.0306697,0.107442,154
0.460038,0.0306596,0.108361,153
0.460484,0.0306349,0.10935,150
0.460989,0.0306072,0.110356,149
0.46098,0.0306056,0.111238,144
0.461488,0.0305778,0.112249,146
0.46171,0.0305644,0.113191,139
0.462509,0.0305217,0.114279,138
0.461351,0.0305787,0.114876,143
0.461748,0.0305565,0.115865,144
0.462376,0.0305225,0.116917,136
0.462141,0.0305324,0.117747,143
0.462829,0.0304953,0.118819,139
0.462826,0.0304935,0.119711,141
0.463055,0.0304798,0.120666,143
0.462358,0.0305133,0.121375,141
0.462356,0.0305114,0.12227,140
0.46172,0.0305418,0.122993,150
0.461489,0.0305515,0.123824,150
0.462296,0.0305084,0.124941,152
0.461488,0.0305475,0.125615,147
0.461546,0.0305425,0.126527,150
0.461029,0.0305669,0.127279,157
0.462474,0.0304912,0.128584,147
0.461321,0.030548,0.129156,147
0.462132,0.0305045,0.130287,156
0.462598,0.0304787,0.131323,149
0.461215,0.0305473,0.131823,149
0.461796,0.0305156,0.132894,153
0.461455,0.030531,0.133696,151
0.460998,0.0305522,0.134463,146
0.460658,0.0305675,0.135264,147
0.45986,0.0306063,0.135926,145
0.460383,0.0305775,0.136986,144
0.460736,0.0305575,0.137996,146
0.46011,0.0305874,0.138709,149
0.462197,0.0304787,0.140256,141
0.46053,0.0305619,0.140648,151
0.459676,0.0306034,0.141288,147
0.459685,0.0306009,0.142196,149
0.459465,0.0306101,0.143033,147
0.459705,0.0305958,0.144015,150
0.459027,0.0306284,0.144706,147
0.458866,0.0306346,0.145561,146
0.459394,0.0306055,0.14664,145
0.458717,0.0306381,0.147328,146
0.457929,0.0306763,0.147978,150
0.457884,0.0306765,0.148872,151
0.457726,0.0306826,0.149728,146
0.45734,0.0307003,0.150508,149
0.457696,0.03068,0.151536,147
0.457482,0.0306889,0.152374,151
0.45744,0.030689,0.153271,140
0.455296,0.0307966,0.153449,145
0.455707,0.0307735,0.154498,146
0.455156,0.0307997,0.155217,148
0.454946,0.0308084,0.156053,146
0.454905,0.0308084,0.156949,146
0.454132,0.0308459,0.157587,145
0.454148,0.030843,0.158502,142
0.453715,0.0308632,0.159258,137
0.453507,0.0308717,0.160094,141
0.45285,0.0309033,0.160769,136
0.45242,0.0309233,0.161523,136
0.452046,0.0309404,0.162297,133
0.452569,0.0309116,0.163399,134
0.451804,0.0309487,0.164029,124
0.451991,0.030937,0.16501,123
0.450838,0.030994,0.165493,121
0.450134,0.031028,0.166141,122
0.450599,0.0310021,0.167226,116
0.449231,0.0310702,0.167621,118
0.449418,0.0310586,0.168602,111
0.449327,0.0310611,0.169479,120
0.448961,0.0310778,0.17025,118
0.448043,0.0311228,0.170808,127
0.447349,0.0311564,0.171449,127
0.446383,0.0312038,0.171982,128
0.446459,0.0311979,0.172922,125
0.447304,0.0311525,0.174166,122
0.447381,0.0311464,0.175109,113
0.448563,0.0310838,0.176495,106
0.446493,0.0311879,0.176582,100
0.446077,0.0312071,0.177329,106
0.44753,0.0311305,0.178831,100
0.446673,0.0311724,0.1794,100
0.447359,0.0311352,0.180598,95
0.448656,0.0310665,0.18205,94
0.446473,0.0311765,0.182071,97
0.447049,0.0311448,0.183229,100
0.448403,0.0310733,0.184715,97
0.448596,0.0310612,0.185722,98
0.447184,0.0311317,0.186053,87
0.44843,0.0310656,0.187505,87
0.448402,0.0310649,0.188421,85
0.450161,0.0309725,0.190101,84
0.448571,0.031052,0.190351,81
0.450109,0.030971,0.191946,85
0.448798,0.0310362,0.192312,89
0.449163,0.0310153,0.193404,92
0.449306,0.0310059,0.194402,87
0.449114,0.0310136,0.195253,90
0.450098,0.0309609,0.196625,92
0.451144,0.0309051,0.19803,85
0.449995,0.030962,0.198459,126
0.450873,0.0309147,0.199794,85
0.44995,0.03096,0.200322,87
0.45066,0.0309214,0.201587,85
0.455067,0.0280811,-0.215781,10
0.454552,0.0281084,-0.214577,11
0.452725,0.0282107,-0.212756,15
0.455765,0.0280347,-0.213234,7
0.453702,0.0281505,-0.211309,11
0.452737,0.0282036,-0.209907,11
0.453939,0.0281327,-0.209515,10
0.455606,0.0280351,-0.209334,13
0.457981,0.0278971,-0.209474,14
0.455903,0.0280138,-0.207564,16
0.462983,0.0276065,-0.20984,11
0.45846,0.0278632,-0.20682,12
0.45771,0.027904,-0.205525,11
0.454779,0.0280696,-0.203254,11
0.461166,0.0277018,-0.205167,9
0.462233,0.0276385,-0.204683,11
0.459713,0.0277807,-0.202605,14
0.461301,0.0276875,-0.202353,12
0.464207,0.027519,-0.202673,13
0.461609,0.0276656,-0.200576,13
0.469029,0.0272384,-0.20285,18
0.465359,0.0274465,-0.200291,13
0.18297,0.043625,-0.0792557,7
0.462582,0.0276012,-0.197178,12
0.462119,0.0276256,-0.196027,13
0.464733,0.0274737,-0.196186,11
0.465278,0.0274403,-0.19546,14
0.467866,0.0272898,-0.195593,16
0.464107,0.0275031,-0.193058,18
0.462875,0.0275715,-0.191593,10
0.466391,0.0273678,-0.192102,15
0.463606,0.0275254,-0.189998,14
0.466532,0.0273555,-0.19025,14
0.463511,0.0275265,-0.188063,16
0.464766,0.0274524,-0.187626,10
0.466148,0.027371,-0.187237,13
0.464732,0.0274501,-0.185717,14
0.467489,0.0272898,-0.185874,12
0.472905,0.026977,-0.187079,12
0.47096,0.0270864,-0.185347,15
0.470973,0.0270835,-0.184396,15
0.464743,0.0274388,-0.180997,10
0.46888,0.0271993,-0.181669,19
0.464714,0.0274362,-0.179103,16
0.471028,0.0270717,-0.180599,17
0.467484,0.0272729,-0.178286,21
0.466247,0.0273418,-0.176869,18
0.469017,0.0271807,-0.17698,19
0.466936,0.027298,-0.175248,21
0.46612,0.0273427,-0.174,16
0.468048,0.0272299,-0.173782,19
0.463852,0.0274687,-0.171281,19
0.466295,0.0273263,-0.171252,20
0.466493,0.0273128,-0.170389,22
0.464147,0.0274454,-0.168595,22
0.463463,0.0274826,-0.167416,18
0.463016,0.0275062,-0.166326,14
0.461,0.0276199,-0.164674,25
0.46236,0.0275397,-0.164239,24
0.461626,0.0275798,-0.163054,25
0.461708,0.027573,-0.162161,28
0.45965,0.0276892,-0.160517,26
0.458698,0.0277418,-0.159269,22
0.458266,0.0277646,-0.158205,32
0.458979,0.0277216,-0.15754,26
0.45889,0.0277246,-0.156597,24
0.457831,0.0277834,-0.155324,28
0.456154,0.0278778,-0.153846,27
0.452091,0.0281094,-0.151571,31
0.454464,0.0279709,-0.151471,28
0.452149,0.028102,-0.1498,32
0.453459,0.0280246,-0.14934,26
0.456637,0.0278398,-0.149491,26
0.453352,0.0280267,-0.147513,27
0.45144,0.0281347,-0.145996,29
0.449709,0.0282322,-0.144547,26
0.45189,0.0281047,-0.144362,33
0.449774,0.0282245,-0.142796,32
0.451347,0.028132,-0.142411,40
0.450444,0.0281819,-0.14124,38
0.450643,0.0281685,-0.140417,39
0.449088,0.028256,-0.139049,35
0.449287,0.0282425,-0.13823,38
0.449049,0.0282542,-0.137277,39
0.449194,0.0282439,-0.136442,44
0.448849,0.0282618,-0.135459,42
0.448722,0.0282671,-0.134543,41
0.450672,0.0281529,-0.134251,44
0.44809,0.0282996,-0.132603,46
0.450035,0.0281856,-0.132305,40
0.448275,0.028285,-0.130911,46
0.448477,0.0282714,-0.130097,50
0.448787,0.0282515,-0.129314,54
0.449099,0.0282316,-0.128532,53
0.449248,0.028221,-0.127702,52
0.449561,0.028201,-0.126919,53
0.449221,0.0282186,-0.125951,54
0.449807,0.0281829,-0.125244,53
0.450067,0.0281659,-0.124446,54
0.448858,0.0282337,-0.12324,57
0.449662,0.0281854,-0.122593,61
0.450087,0.0281589,-0.12184,57
0.450076,0.0281576,-0.120967,59
0.450502,0.028131,-0.120213,56
0.448751,0.02823,-0.118878,59
0.450538,0.0281251,-0.118486,53
0.449657,0.0281739,-0.117386,61
0.449431,0.028185,-0.116462,57
0.450785,0.0281049,-0.115948,60
0.450396,0.0281254,-0.114982,61
0.450171,0.0281364,-0.11406,65
0.449892,0.0281505,-0.113125,59
0.450431,0.0281175,-0.112398,63
0.449773,0.0281535,-0.11137,61
0.450366,0.0281173,-0.110656,65
0.450525,0.0281062,-0.109833,65
0.45063,0.0280982,-0.108996,71
0.450409,0.028109,-0.108082,74
0.45057,0.0280978,-0.10726,79
0.450949,0.028074,-0.106489,80
0.450947,0.0280721,-0.105629,80
0.451218,0.0280545,-0.104832,81
0.451873,0.0280148,-0.104124,80
0.451435,0.0280381,-0.103163,81
0.451054,0.0280582,-0.102217,88
0.451109,0.0280531,-0.101372,84
0.452148,0.0279911,-0.100747,86
0.451876,0.0280049,-0.0998281,88
0.452097,0.0279902,-0.099019,82
0.453197,0.0279247,-0.0984015,83
0.451447,0.0280239,-0.0971635,91
0.452052,0.027987,-0.0964378,94
0.452494,0.0279595,-0.0956758,96
0.452663,0.0279478,-0.094855,94
0.453107,0.0279202,-0.0940915,99
0.452346,0.0279623,-0.0930774,94
0.453394,0.0278997,-0.0924377,98
0.453071,0.0279165,-0.091516,95
0.45264,0.0279395,-0.0905743,100
0.453361,0.0278958,-0.0898643,97
0.45326,0.0278998,-0.0889897,98
0.454094,0.0278496,-0.0882987,94
0.454048,0.0278503,-0.0874349,97
0.45461,0.0278159,-0.086688,100
0.45462,0.0278134,-0.0858349,98
0.454356,0.0278267,-0.0849305,101
0.455141,0.0277794,-0.0842228,104
0.455042,0.0277832,-0.08335,103
0.455332,0.0277645,-0.0825486,105
0.456121,0.0277169,-0.0818367,105
0.455525,0.0277495,-0.0808751,103
0.456372,0.0276985,-0.0801709,108
0.456776,0.0276732,-0.0793866,109
0.456959,0.0276607,-0.078563,107
0.456919,0.0276611,-0.0777011,114
0.456602,0.0276775,-0.0767929,115
0.456898,0.0276584,-0.0759887,112
0.456749,0.0276651,-0.0751103,114
0.456545,0.027675,-0.074224,119
0.458125,0.0275816,-0.0736267,114
0.458145,0.0275785,-0.072775,116
0.45744,0.0276174,-0.0718093,113
0.458522,0.0275528,-0.0711251,119
0.458376,0.0275594,-0.0702481,115
0.459014,0.0275204,-0.0694914,118
0.458925,0.0275237,-0.0686233,116
0.458948,0.0275204,-0.0677727,115
0.459141,0.0275073,-0.0669471,114
0.460347,0.0274355,-0.0662677,115
0.458574,0.0275363,-0.0651593,118
0.459498,0.0274809,-0.0644372,120
0.45958,0.0274741,-0.0635953,120
0.459776,0.0274609,-0.062769,118
0.460254,0.0274312,-0.0619804,120
0.460565,0.0274113,-0.061168,124
0.460481,0.0274142,-0.060303,117
0.460398,0.0274171,-0.0594387,131
0.460597,0.0274036,-0.0586112,127
0.462612,0.0272849,-0.0580112,124
0.461791,0.0273305,-0.0570531,121
0.462676,0.0272773,-0.0563063,119
0.461743,0.0273295,-0.0553383,121
0.461437,0.0273453,-0.0544481,126
0.461528,0.0273381,-0.0536056,121
0.462243,0.0272947,-0.0528344,127
0.463304,0.0272312,-0.0520997,124
0.462827,0.0272569,-0.0511912,127
0.464865,0.0271368,-0.0505585,130
0.463129,0.0272355,-0.0495147,133
0.463168,0.0272314,-0.0486642,127
0.462751,0.0272536,-0.0477668,127
0.463189,0.0272263,-0.0469578,129
0.463344,0.0272154,-0.0461193,125
0.462872,0.0272408,-0.0452193,128
0.463655,0.0271935,-0.0444414,129
0.463298,0.0272123,-0.0435538,129
0.462999,0.0272277,-0.0426732,130
0.46327,0.02721,-0.0418453,131
0.463429,0.0271989,-0.0410067,130
0.462506,0.0272505,-0.0400743,123
0.462212,0.0272657,-0.0391986,125
0.462144,0.0272677,-0.038343,124
0.461965,0.0272762,-0.0374789,134
0.461616,0.0272945,-0.0366022,132
0.461438,0.0273029,-0.0357402,132
0.461318,0.027308,-0.0348834,139
0.461254,0.0273098,-0.0340314,139
0.461474,0.0272951,-0.0332001,142
0.460285,0.0273623,-0.03227,143
0.460112,0.0273704,-0.0314134,139
0.459435,0.0274079,-0.0305244,142
0.459823,0.0273834,-0.0297063,144
0.460045,0.0273686,-0.0288766,142
0.45937,0.0274059,-0.0279921,142
0.459145,0.0274171,-0.0271366,144
0.459256,0.0274087,-0.0263011,136
0.458921,0.0274263,-0.0254408,143
0.458141,0.0274697,-0.0245584,147
0.457365,0.027513,-0.0236793,147
0.457146,0.0275238,-0.0228305,149
0.456595,0.0275539,-0.021967,151
0.456598,0.0275519,-0.0211309,153
0.456106,0.0275786,-0.0202732,158
0.45556,0.0276085,-0.0194152,154
0.45584,0.0275903,-0.0185924,152
0.455187,0.0276264,-0.017733,151
0.455358,0.0276146,-0.016906,153
0.454762,0.0276474,-0.0160522,149
0.454223,0.0276769,-0.0152024,152
0.453196,0.0277348,-0.0143398,149
0.452988,0.027745,-0.0135047,147
0.452346,0.0277804,-0.0126587,147
0.452303,0.0277811,-0.0118302,150
0.451989,0.0277975,-0.0109956,148
0.451839,0.0278044,-0.0101657,151
0.451797,0.027805,-0.00933854,151
0.451108,0.0278432,-0.00850016,151
0.450961,0.0278499,-0.00767291,157
0.451082,0.027841,-0.00685002,160
0.450613,0.0278664,-0.00601955,164
0.449824,0.0279105,-0.00518757,166
0.449145,0.0279482,-0.00435945,169
0.448948,0.0279578,-0.00353703,170
0.448433,0.027986,-0.00271385,169
0.448078,0.0280048,-0.00189304,174
0.447672,0.0280266,-0.0010735,174
0.448063,0.028002,-0.000254771,171
0.447181,0.0280515,0.000561953,171
0.445988,0.0281192,0.001374,167
0.445273,0.028159,0.00218471,162
0.447085,0.0280516,0.00301372,165
0.446684,0.0280731,0.00382705,161
0.444135,0.0282198,0.00461317,157
0.444628,0.0281892,0.00543199,157
0.443764,0.0282377,0.00623138,152
0.44306,0.0282769,0.00703042,153
0.442722,0.0282949,0.00783398,155
0.442281,0.0283187,0.00863417,158
0.441893,0.0283395,0.00943402,163
0.442384,0.028309,0.0102544,166
0.442774,0.0282845,0.011074,165
0.441354,0.0283655,0.0118432,162
0.441691,0.028344,0.0126609,159
0.442444,0.0282983,0.0134933,158
0.441491,0.028352,0.0142703,162
0.441006,0.0283785,0.0150607,159
0.441139,0.0283689,0.0158728,159
0.440861,0.0283833,0.0166692,163
0.441098,0.0283676,0.0174861,161
0.441336,0.0283519,0.018304,160
0.440957,0.0283722,0.0190949,159
0.440939,0.0283714,0.0199016,160
0.440767,0.0283797,0.0207008,164
0.440544,0.0283908,0.0214969,164
0.441196,0.0283509,0.0223385,168
0.442368,0.0282807,0.023211,166
0.440753,0.0283731,0.0239306,160
0.440687,0.0283752,0.0247347,163
0.442169,0.0282868,0.025632,166
0.441226,0.0283401,0.0263843,165
0.441161,0.028342,0.0271895,165
0.440428,0.028383,0.0279507,165
0.441085,0.0283428,0.0288033,167
0.441074,0.0283416,0.0296121,164
0.441063,0.0283404,0.0304211,162
0.441311,0.0283241,0.0312491,160
0.440632,0.028362,0.0320087,159
0.44052,0.0283667,0.0328096,161
0.44046,0.0283683,0.0336144,161
0.441019,0.0283339,0.034469,165
0.441993,0.0282751,0.0353602,168
0.442504,0.0282434,0.0362162,157
0.442084,0.0282661,0.0369939,163
0.442701,0.0282282,0.0378618,161
0.443008,0.0282084,0.0387042,160
0.441552,0.0282917,0.0393861,163
0.442014,0.0282628,0.0402426,161
0.442841,0.0282126,0.0411359,167
0.442423,0.0282352,0.0419112,159
0.442681,0.0282183,0.0427524,163
0.4432,0.0281861,0.0436211,168
0.442212,0.028242,0.0443368,160
0.443147,0.0281855,0.0452508,163
0.442472,0.0282232,0.0459966,160
0.442577,0.0282152,0.0468249,163
0.443047,0.0281858,0.0476943,159
0.443153,0.0281777,0.0485248,163
0.443521,0.0281543,0.0493859,160
0.443107,0.0281767,0.0501579,160
0.443581,0.0281471,0.0510333,161
0.443533,0.0281481,0.0518484,164
0.443382,0.0281551,0.0526509,162
0.443701,0.0281345,0.0535113,163
0.443708,0.0281323,0.054334,161
0.443924,0.0281178,0.0551838,163
0.446566,0.0279612,0.0563484,162
0.444149,0.0281009,0.0568596,160
0.445526,0.0280184,0.0578668,156
0.446699,0.0279478,0.0588522,165
0.445862,0.0279949,0.0595672,162
0.444871,0.0280511,0.0602579,167
0.445621,0.0280054,0.0611901,164
0.446267,0.0279656,0.0621108,168
0.447396,0.0278976,0.0631038,163
0.446824,0.0279292,0.0638528,168
0.446785,0.0279296,0.0646789,167
0.447598,0.0278801,0.0656331,164
0.447027,0.0279117,0.0663805,160
0.447576,0.0278776,0.0672983,168
0.447166,0.0278998,0.0680693,163
0.447342,0.0278875,0.0689316,167
0.448643,0.0278094,0.0699743,160
0.447538,0.0278723,0.070634,168
0.450296,0.0277087,0.0719207,159
0.44983,0.0277341,0.0726858,158
0.448077,0.027835,0.0732345,158
0.448902,0.0277847,0.0742126,165
0.449947,0.0277215,0.0752317,160
0.450132,0.0277088,0.0761066,151
0.450317,0.027696,0.0769828,160
0.450395,0.0276896,0.0778412,162
0.451015,0.0276513,0.0787971,161
0.450986,0.0276511,0.0796387,161
0.451011,0.0276477,0.0804906,157
0.451255,0.0276315,0.0813832,156
0.452099,0.02758,0.0823889,153
0.453496,0.0274961,0.0835023,157
0.4521,0.0275761,0.0840911,154
0.451746,0.0275949,0.084875,152
0.452924,0.0275238,0.0859547,156
0.453009,0.0275169,0.0868256,155
0.45359,0.0274809,0.0877951,156
0.452962,0.0275159,0.0885264,154
0.454647,0.027415,0.0897215,156
0.454459,0.0274241,0.0905427,153
0.454326,0.0274299,0.0913753,155
0.45508,0.0273837,0.0923913,150
0.455281,0.0273699,0.0932953,149
0.455984,0.0273267,0.0943064,150
0.455742,0.0273389,0.0951196,147
0.456225,0.0273086,0.096088,151
0.456263,0.0273045,0.0969624,151
0.456357,0.027297,0.0978498,148
0.457628,0.0272203,0.0989977,151
0.457107,0.027249,0.0997522,151
0.457708,0.0272117,0.100757,148
0.458708,0.027151,0.101855,145
0.458524,0.0271598,0.102688,148
0.458905,0.0271354,0.10365,148
0.459062,0.0271242,0.104562,147
0.459163,0.0271163,0.105462,150
0.46097,0.027008,0.106767,151
0.459706,0.0270804,0.107347,150
0.461177,0.0269919,0.10858,150
0.460482,0.0270308,0.109295,145
0.460872,0.0270058,0.110272,154
0.460977,0.0269976,0.111182,147
0.461083,0.0269894,0.112093,143
0.460961,0.0269946,0.112948,142
0.460725,0.0270065,0.113774,143
0.461463,0.0269611,0.114847,143
0.460827,0.0269965,0.115572,139
0.461509,0.0269544,0.116635,137
0.461045,0.0269796,0.117404,139
0.461786,0.026934,0.118487,140
0.461208,0.026966,0.119226,144
0.460976,0.0269777,0.120055,145
0.460973,0.0269758,0.120945,145
0.461487,0.0269435,0.121975,143
0.460568,0.0269956,0.122619,149
0.460624,0.0269903,0.123526,148
0.460508,0.0269951,0.124388,153
0.460165,0.0270133,0.125186,147
0.460623,0.0269843,0.126207,148
0.459823,0.0270294,0.126877,147
0.460052,0.0270139,0.127836,150
0.46057,0.0269814,0.128878,148
0.460515,0.0269826,0.129759,142
0.460231,0.0269973,0.130574,150
0.459891,0.0270153,0.131373,149
0.460353,0.0269861,0.132405,145
0.460128,0.0269973,0.133238,143
0.460304,0.0269848,0.13419,146
0.460195,0.0269892,0.135058,150
0.459399,0.0270341,0.13572,146
0.459462,0.0270284,0.136639,149
0.458955,0.0270562,0.137385,145
0.459019,0.0270504,0.138305,144
0.459141,0.0270412,0.139244,142
0.459836,0.0269982,0.140362,150
0.458871,0.027053,0.140966,150
0.458481,0.027074,0.141746,147
0.458205,0.0270882,0.142562,143
0.458043,0.0270957,0.143414,145
0.457769,0.0271099,0.14423,143
0.457552,0.0271206,0.145065,144
0.457847,0.0271011,0.146065,141
0.457403,0.0271253,0.146826,148
0.45696,0.0271494,0.147586,150
0.456405,0.0271801,0.148308,147
0.456474,0.027174,0.149236,149
0.455582,0.0272246,0.149844,148
0.456104,0.0271917,0.150925,148
0.455665,0.0272156,0.151683,148
0.455114,0.0272461,0.152402,142
0.454171,0.0272997,0.152986,138
0.455199,0.0272369,0.154245,141
0.454989,0.0272473,0.155081,146
0.454215,0.0272909,0.15572,148
0.453277,0.0273443,0.156299,151
0.45391,0.0273049,0.157428,143
0.453252,0.0273416,0.158104,143
0.453774,0.0273087,0.159198,134
0.452279,0.027395,0.159573,135
0.452128,0.0274019,0.160426,140
0.451867,0.0274153,0.16124,134
0.451606,0.0274286,0.162053,133
0.450956,0.027465,0.162724,136
0.449975,0.0275209,0.163271,132
0.450049,0.0275145,0.164206,126
0.44968,0.0275342,0.164977,121
0.449367,0.0275506,0.165768,119
0.449885,0.027518,0.166871,119
0.44902,0.0275671,0.167454,124
0.447828,0.0276355,0.16791,118
0.447573,0.0276485,0.16872,126
0.446225,0.0277262,0.16911,127
0.446573,0.0277036,0.17015,130
0.447635,0.0276387,0.17147,119
0.446341,0.0277132,0.171876,122
0.44669,0.0276905,0.172922,116
0.446766,0.0276839,0.173862,115
0.447447,0.0276416,0.175044,107
0.448241,0.0275925,0.176274,107
0.447218,0.027651,0.17678,105
0.448123,0.0275954,0.17806,98
0.44699,0.0276603,0.178519,97
0.447014,0.0276568,0.179445,104
0.446874,0.0276631,0.180305,95
0.44624,0.0276985,0.180962,98
0.447364,0.0276299,0.182344,94
0.4475,0.0276197,0.183321,100
0.4483,0.0275703,0.184577,97
0.447112,0.0276386,0.185002,98
0.447856,0.0275924,0.186239,90
0.448493,0.0275526,0.187434,92
0.4483,0.027562,0.188279,90
0.448439,0.0275516,0.189266,89
0.448468,0.0275478,0.190208,89
0.450114,0.0274482,0.191849,92
0.449865,0.0274608,0.192676,94
0.448836,0.0275197,0.193161,92
0.449257,0.0274926,0.194279,91
0.4494,0.0274821,0.195278,90
0.449655,0.0274648,0.196328,80
0.450529,0.0274109,0.197654,86
0.450562,0.0274068,0.19861,124
0.450146,0.0274294,0.199365,86
0.450911,0.0273819,0.200652,93
0.450045,0.0274311,0.201205,90
0.451395,0.0247585,-0.213931,8
0.451851,0.0247267,-0.213196,11
0.453389,0.0246245,-0.212972,6
0.455395,0.0244918,-0.212963,10
0.45899,0.0242556,-0.213692,10
0.450234,0.0248234,-0.208642,11
0.459813,0.0241977,-0.212148,15
0.454036,0.0245716,-0.208513,12
0.463894,0.0239277,-0.212102,9
0.453705,0.0245889,-0.206462,9
0.457441,0.0243435,-0.207219,13
0.462182,0.0240326,-0.208418,13
0.456701,0.0243873,-0.204977,9
0.459724,0.0241883,-0.205386,11
0.460138,0.0241592,-0.204615,10
0.46727,0.0236924,-0.206839,10
0.456153,0.0244144,-0.200936,9
0.456218,0.0244081,-0.200018,12
0.456054,0.0244166,-0.199001,17
0.466386,0.0237413,-0.202577,9
0.457972,0.0242874,-0.197949,13
0.460304,0.0241333,-0.198013,10
0.471129,0.0234257,-0.201732,12
0.460905,0.0240898,-0.196372,17
0.460447,0.0241175,-0.195226,13
0.466008,0.0237529,-0.196642,14
0.459361,0.024184,-0.192872,13
0.463648,0.0239024,-0.193733,15
0.461364,0.0240492,-0.191825,18
0.467662,0.0236364,-0.193504,13
0.460802,0.0240815,-0.1897,15
0.462923,0.0239411,-0.189633,12
0.466612,0.0236983,-0.190201,20
0.463831,0.0238776,-0.188111,13
0.463489,0.0238978,-0.187025,18
0.465514,0.0237635,-0.186899,16
0.466898,0.0236711,-0.186508,19
0.464,0.023858,-0.184397,16
0.464427,0.023828,-0.183623,12
0.46646,0.0236933,-0.183485,16
0.464574,0.0238142,-0.181795,14
0.464412,0.0238226,-0.180789,17
0.46319,0.0239002,-0.179371,20
0.464502,0.0238125,-0.178942,17
0.468447,0.0235528,-0.179526,22
0.462244,0.0239556,-0.176197,21
0.466447,0.0236791,-0.176869,21
0.463979,0.0238381,-0.17499,19
0.464115,0.0238271,-0.174106,26
0.462901,0.0239043,-0.172715,22
0.464918,0.0237705,-0.172537,23
0.466536,0.0236627,-0.172204,20
0.462784,0.0239056,-0.169879,25
0.459498,0.0241181,-0.167742,23
0.462067,0.0239483,-0.16776,21
0.46006,0.0240773,-0.166104,22
0.462284,0.0239299,-0.165988,24
0.458782,0.0241566,-0.163803,23
0.457719,0.024224,-0.162506,25
0.458314,0.024183,-0.161804,28
0.456516,0.0242984,-0.160254,27
0.456088,0.0243244,-0.159193,30
0.456566,0.024291,-0.158452,28
0.45733,0.0242391,-0.157809,33
0.45515,0.0243795,-0.156146,27
0.452769,0.0245331,-0.154424,26
0.452519,0.0245474,-0.153439,29
0.454109,0.0244414,-0.153082,28
0.450969,0.0246447,-0.151122,30
0.45144,0.0246119,-0.150387,26
0.451525,0.0246043,-0.149522,32
0.450177,0.0246904,-0.148183,27
0.45164,0.0245927,-0.147776,33
0.451726,0.0245851,-0.146913,32
0.449065,0.0247571,-0.145155,34
0.44937,0.0247352,-0.144369,34
0.449129,0.0247489,-0.143407,34
0.448236,0.0248054,-0.142238,33
0.450015,0.024687,-0.141922,34
0.447543,0.0248467,-0.140258,37
0.447848,0.0248248,-0.139475,34
0.450171,0.0246708,-0.139322,34
0.448351,0.0247879,-0.137876,36
0.448767,0.0247587,-0.137126,42
0.447988,0.0248077,-0.13601,40
0.448785,0.0247536,-0.135376,43
0.448387,0.0247776,-0.134379,40
0.450003,0.0246698,-0.133989,41
0.447541,0.0248291,-0.132377,38
0.447255,0.0248458,-0.13142,47
0.450335,0.0246421,-0.131455,48
0.448902,0.024734,-0.13016,46
0.448128,0.0247827,-0.129063,46
0.448384,0.024764,-0.128266,58
0.447883,0.0247948,-0.127252,55
0.448682,0.0247405,-0.12661,51
0.448994,0.0247181,-0.125828,50
0.44871,0.0247348,-0.124879,54
0.449077,0.0247087,-0.124112,56
0.447929,0.024782,-0.122926,51
0.448621,0.0247347,-0.12225,55
0.447853,0.024783,-0.121174,59
0.448708,0.0247251,-0.120541,59
0.448644,0.0247273,-0.119658,60
0.449068,0.0246976,-0.118907,56
0.450254,0.0246179,-0.118356,57
0.449375,0.0246735,-0.117258,64
0.449747,0.0246472,-0.116491,58
0.450011,0.0246279,-0.115694,63
0.448811,0.0247046,-0.114522,65
0.450814,0.0245714,-0.114171,63
0.449015,0.0246874,-0.112851,62
0.449334,0.0246645,-0.11207,68
0.449329,0.0246629,-0.111208,70
0.44965,0.0246399,-0.110427,72
0.450406,0.0245884,-0.109752,77
0.448939,0.0246827,-0.108534,75
0.449747,0.0246277,-0.107872,76
0.450613,0.0245689,-0.10722,74
0.450774,0.0245564,-0.106399,72
0.45012,0.0245974,-0.105385,83
0.450989,0.0245385,-0.10473,81
0.451042,0.024533,-0.103884,80
0.450607,0.0245596,-0.102925,90
0.451097,0.0245256,-0.10218,88
0.451861,0.0244735,-0.101495,88
0.450446,0.0245644,-0.10032,87
0.451809,0.024473,-0.0997674,87
0.450939,0.0245281,-0.0987185,95
0.451432,0.0244938,-0.0979711,96
0.451599,0.024481,-0.0971517,102
0.452148,0.0244429,-0.0964143,95
0.451662,0.024473,-0.0954549,99
0.451721,0.0244671,-0.094613,101
0.452327,0.0244254,-0.0938856,96
0.452333,0.0244231,-0.0930321,92
0.452558,0.0244064,-0.0922241,99
0.452674,0.0243968,-0.0913936,100
0.452463,0.0244088,-0.0904972,93
0.454502,0.0242729,-0.0900508,99
0.453575,0.0243318,-0.0890113,96
0.453639,0.0243257,-0.0881697,94
0.453374,0.0243412,-0.0872646,94
0.454208,0.0242844,-0.0865718,91
0.45356,0.0243251,-0.0855947,102
0.453461,0.0243297,-0.0847239,100
0.454242,0.0242764,-0.0840176,104
0.454364,0.0242665,-0.0831875,104
0.455038,0.0242202,-0.082458,117
0.454997,0.024221,-0.0815972,115
0.455342,0.0241964,-0.080806,117
0.45497,0.0242189,-0.0798874,112
0.454985,0.024216,-0.0790383,116
0.456107,0.0241403,-0.0783806,107
0.456234,0.02413,-0.0775492,109
0.456084,0.0241379,-0.076671,105
0.456047,0.0241385,-0.0758124,114
0.456342,0.0241172,-0.0750094,117
0.456971,0.0240739,-0.0742603,119
0.45699,0.0240707,-0.0734107,117
0.456843,0.0240784,-0.0725349,116
0.457531,0.0240312,-0.0717917,113
0.45633,0.0241083,-0.070752,117
0.456906,0.0240685,-0.0699908,110
0.457095,0.0240541,-0.0691689,108
0.457285,0.0240397,-0.0683467,107
0.457753,0.0240069,-0.0675656,113
0.460298,0.0238375,-0.0670871,113
0.458639,0.0239448,-0.0659918,120
0.45872,0.0239375,-0.0651513,118
0.459194,0.0239044,-0.0643661,127
0.458997,0.0239155,-0.0634863,121
0.458968,0.0239155,-0.0626306,117
0.4595,0.0238785,-0.0618512,116
0.459865,0.0238525,-0.061048,120
0.460288,0.0238228,-0.0602512,124
0.459251,0.0238891,-0.0592641,123
0.46046,0.0238075,-0.058568,125
0.460041,0.0238332,-0.0576629,122
0.460185,0.0238218,-0.0568294,121
0.460781,0.0237807,-0.0560507,123
0.461265,0.0237468,-0.0552568,123
0.46034,0.0238058,-0.0542947,123
0.460374,0.0238017,-0.053448,127
0.461255,0.0237417,-0.0526983,128
0.461912,0.0236965,-0.0519206,128
0.461722,0.0237071,-0.0510467,130
0.460855,0.0237623,-0.0501003,135
0.461062,0.0237467,-0.0492721,137
0.462117,0.0236752,-0.0485328,129
0.461139,0.0237378,-0.0475796,126
0.461066,0.0237407,-0.0467222,125
0.461727,0.0236952,-0.0459385,128
0.460414,0.0237798,-0.0449598,129
0.46147,0.0237083,-0.044213,135
0.461681,0.0236924,-0.0433833,128
0.460822,0.0237472,-0.0424544,132
0.461372,0.023709,-0.0416561,132
0.459954,0.0238006,-0.0406822,132
0.460448,0.0237661,-0.039879,133
0.460718,0.0237464,-0.0390553,132
0.459809,0.0238044,-0.0381333,128
0.459856,0.0237994,-0.0372921,135
0.459232,0.0238387,-0.036398,136
0.459391,0.0238262,-0.0355669,141
0.459049,0.0238469,-0.0346975,142
0.457873,0.0239226,-0.0337685,137
0.457147,0.0239686,-0.0328761,138
0.456865,0.0239853,-0.0320177,143
0.456971,0.0239764,-0.0311867,143
0.456967,0.0239748,-0.0303483,144
0.456687,0.0239914,-0.0294924,142
0.457237,0.0239532,-0.0286893,146
0.455801,0.0240461,-0.0277644,137
0.456075,0.0240261,-0.0269451,135
0.455415,0.0240678,-0.026072,139
0.45536,0.0240695,-0.0252346,145
0.454922,0.0240965,-0.0243773,143
0.455472,0.0240584,-0.0235722,141
0.45427,0.0241359,-0.022679,137
0.453782,0.0241662,-0.0218241,137
0.453622,0.0241749,-0.0209862,144
0.453571,0.0241763,-0.0201537,147
0.453358,0.0241885,-0.0193147,148
0.454235,0.0241287,-0.0185201,149
0.453098,0.024202,-0.0176457,150
0.452292,0.0242534,-0.0167876,149
0.452083,0.0242653,-0.0159531,143
0.452037,0.0242665,-0.0151247,147
0.451505,0.0242997,-0.0142817,151
0.450654,0.0243541,-0.0134316,151
0.450771,0.0243445,-0.0126108,148
0.45062,0.0243526,-0.0117828,151
0.449935,0.024396,-0.0109431,149
0.449893,0.024397,-0.0101197,154
0.449157,0.0244437,-0.009283,158
0.448478,0.0244867,-0.00845005,156
0.44812,0.0245086,-0.00762474,158
0.447975,0.0245163,-0.00680377,157
0.447354,0.0245555,-0.0059776,159
0.446736,0.0245946,-0.00515379,169
0.447756,0.0245253,-0.00434605,167
0.446084,0.024634,-0.00351693,171
0.446048,0.0246345,-0.00270169,169
0.445803,0.0246489,-0.001886,171
0.445506,0.0246666,-0.00107116,170
0.445054,0.0246947,-0.000257563,173
0.445335,0.0246743,0.000556365,169
0.444362,0.0247368,0.00136561,170
0.443601,0.0247853,0.00217263,164
0.442896,0.0248302,0.00297731,167
0.443488,0.0247891,0.00379255,164
0.443406,0.0247927,0.00460194,162
0.442083,0.0248785,0.00539388,164
0.441539,0.0249126,0.00619318,160
0.441511,0.0249126,0.00699957,159
0.440662,0.024967,0.00778997,165
0.439919,0.0250144,0.00857954,160
0.440303,0.0249872,0.00939243,165
0.440482,0.0249735,0.0102017,163
0.440457,0.0249733,0.0110063,165
0.439922,0.0250069,0.0117962,167
0.44041,0.0249728,0.0126154,163
0.440541,0.0249623,0.0134249,165
0.440109,0.0249891,0.0142158,163
0.440497,0.0249616,0.0150347,163
0.439453,0.0250289,0.0158009,162
0.440147,0.0249811,0.0166324,162
0.438903,0.0250617,0.0173859,161
0.439648,0.0250105,0.0182214,162
0.440396,0.0249591,0.01906,160
0.440378,0.0249585,0.0198652,167
0.439644,0.0250053,0.0206354,167
0.43871,0.0250654,0.0213928,165
0.438745,0.0250613,0.022198,168
0.440413,0.0249489,0.0230928,169
0.440809,0.0249208,0.0239219,167
0.44023,0.0249574,0.0246958,167
0.44042,0.0249429,0.0255141,168
0.440561,0.0249318,0.0263301,170
0.440548,0.0249308,0.0271369,168
0.440279,0.0249468,0.0279271,169
0.440421,0.0249356,0.0287442,165
0.440307,0.0249413,0.0295442,168
0.440758,0.0249096,0.0303844,167
0.440851,0.0249016,0.0312001,167
0.440584,0.0249174,0.0319894,172
0.439909,0.0249604,0.0327464,161
0.439798,0.0249659,0.0335457,163
0.440251,0.024934,0.0343902,165
0.440706,0.024902,0.0352367,165
0.440854,0.0248904,0.0360592,164
0.440231,0.0249299,0.0368161,167
0.440534,0.024908,0.0376523,160
0.44094,0.0248792,0.0384993,160
0.441193,0.0248606,0.039334,162
0.44088,0.0248795,0.0401167,164
0.441186,0.0248573,0.0409577,170
0.441493,0.0248351,0.0418002,171
0.443461,0.0247027,0.0428092,168
0.441645,0.0248214,0.0434426,167
0.441954,0.024799,0.0442887,164
0.442057,0.0247903,0.0451146,166
0.442058,0.0247885,0.0459301,165
0.442785,0.0247383,0.0468249,161
0.443358,0.0246984,0.0477058,163
0.442321,0.0247654,0.0484079,161
0.443103,0.0247116,0.0493144,161
0.443159,0.0247061,0.0501397,161
0.442591,0.024742,0.0508919,167
0.443063,0.0247087,0.051767,168
0.443329,0.0246892,0.0526191,168
0.443439,0.0246801,0.0534532,163
0.443497,0.0246743,0.0542816,161
0.443348,0.0246824,0.0550839,163
0.442782,0.0247181,0.0558323,162
0.44399,0.024636,0.0568115,163
0.443685,0.0246544,0.0575943,166
0.443799,0.024645,0.0584328,165
0.444227,0.0246147,0.0593151,164
0.445499,0.0245283,0.0603164,162
0.444616,0.0245851,0.0610198,161
0.444575,0.0245859,0.0618402,163
0.444745,0.0245728,0.0626913,165
0.444968,0.0245561,0.0635512,163
0.445403,0.0245253,0.0644436,164
0.445839,0.0244944,0.0653384,165
0.447073,0.0244105,0.0663562,165
0.446293,0.0244605,0.0670693,163
0.445833,0.0244892,0.0678297,165
0.447175,0.0243981,0.0688729,168
0.447405,0.0243809,0.0697441,163
0.447423,0.0243778,0.0705824,159
0.448243,0.0243214,0.071552,161
0.448316,0.0243146,0.0724018,163
0.447854,0.0243434,0.073163,161
0.44841,0.0243046,0.0740947,163
0.44972,0.0242155,0.075158,162
0.449527,0.0242265,0.0759668,160
0.450845,0.0241368,0.0770395,163
0.450274,0.024173,0.0777839,165
0.450676,0.0241442,0.0787003,163
0.450755,0.0241371,0.0795604,160
0.451052,0.0241154,0.0804609,163
0.451078,0.0241118,0.0813131,161
0.451104,0.0241081,0.082166,160
0.451403,0.0240863,0.0830707,157
0.451485,0.0240789,0.0839358,158
0.451731,0.0240606,0.0848332,158
0.452415,0.0240131,0.0858168,156
0.4525,0.0240056,0.0866863,158
0.452366,0.0240125,0.0875134,156
0.453274,0.0239502,0.0885483,156
0.452319,0.0240118,0.0892121,155
0.452735,0.0239822,0.0901512,153
0.454362,0.0238719,0.0913413,155
0.454341,0.0238713,0.0921965,156
0.455316,0.0238044,0.0932605,158
0.455185,0.0238112,0.0940954,155
0.455554,0.0237847,0.0950367,154
0.455702,0.0237729,0.0959325,151
0.455739,0.0237684,0.0968054,150
0.456836,0.0236933,0.0979108,150
0.457211,0.0236664,0.0988616,148
0.456691,0.0236991,0.0996153,148
0.456508,0.0237093,0.100443,145
0.457724,0.0236263,0.101588,147
0.458103,0.0235991,0.102546,147
0.458258,0.0235868,0.103455,148
0.45847,0.0235706,0.104379,147
0.458796,0.0235469,0.10533,150
0.458727,0.0235495,0.10619,148
0.459225,0.0235144,0.107185,150
0.459667,0.0234829,0.10817,146
0.459373,0.0235005,0.108979,148
0.46107,0.0233854,0.110272,149
0.460661,0.0234106,0.111056,147
0.45997,0.0234547,0.111768,148
0.461273,0.0233658,0.112976,152
0.460239,0.0234328,0.113602,153
0.459663,0.0234692,0.114341,145
0.460055,0.0234411,0.115325,146
0.459707,0.0234623,0.116121,137
0.459077,0.0235023,0.116843,138
0.459072,0.0235006,0.117726,138
0.460891,0.0233773,0.119091,139
0.459348,0.0234782,0.119571,134
0.458891,0.0235067,0.120336,140
0.459001,0.0234974,0.121253,134
