ply
format ascii 1.0
comment Created by CloudCompare v2.11 alpha (Anoia)
comment Created 2025/12/9 15:23
obj_info Generated by CloudCompare!
element vertex 1429
property float x
property float y
property float z
property float scalar_Scalar_field
end_header
0.475516 0.0299527 0.0760771 176 
0.475663 0.0299432 0.0769917 180 
0.476479 0.0298998 0.078019 181 
0.475961 0.0299241 0.0788243 180 
0.474479 0.0299973 0.0794632 179 
0.475232 0.029957 0.0804835 182 
0.476111 0.0299104 0.0815289 186 
0.476081 0.0299099 0.0824177 190 
0.475688 0.0299278 0.083242 187 
0.474692 0.0299764 0.0839564 185 
0.474664 0.0299758 0.0848441 184 
0.474577 0.0299782 0.0857212 189 
0.475276 0.0299407 0.0867448 186 
0.473862 0.0300105 0.0873741 190 
0.473476 0.0300281 0.0881939 191 
0.473271 0.0300365 0.0890475 186 
0.473307 0.0300326 0.0899476 191 
0.473104 0.0300409 0.0908014 197 
0.473142 0.030037 0.0917025 189 
0.47288 0.0300483 0.0925445 195 
0.472798 0.0300504 0.0934225 192 
0.470985 0.0301406 0.0939483 194 
0.470251 0.0301759 0.0946895 193 
0.47035 0.0301688 0.0956009 195 
0.470332 0.0301678 0.0964886 197 
0.470016 0.0301818 0.0973142 195 
0.469643 0.0301988 0.0981267 196 
0.469271 0.0302157 0.0989385 196 
0.469195 0.0302175 0.0998138 194 
0.468058 0.0302734 0.100457 193 
0.466985 0.030326 0.101111 191 
0.467087 0.0303187 0.102023 193 
0.466428 0.0303503 0.102765 187 
0.465422 0.0303995 0.103426 186 
0.465292 0.0304041 0.104284 182 
0.465513 0.0303908 0.105223 181 
0.464685 0.0304309 0.10592 188 
0.464035 0.030462 0.106656 185 
0.464663 0.0304281 0.107691 184 
0.463203 0.0305004 0.108233 189 
0.462789 0.0305195 0.109021 189 
0.461858 0.0305649 0.109682 189 
0.462079 0.0305516 0.110622 187 
0.462301 0.0305383 0.111563 186 
0.46189 0.0305573 0.112348 180 
0.461652 0.0305674 0.113177 180 
0.461243 0.0305862 0.113961 180 
0.460664 0.0306137 0.114702 175 
0.459402 0.030676 0.115267 172 
0.458998 0.0306946 0.116048 166 
0.459676 0.0306581 0.117108 169 
0.458931 0.030694 0.117801 164 
0.458586 0.0307096 0.118596 162 
0.458923 0.0306904 0.119571 162 
0.457445 0.0307638 0.120064 161 
0.457386 0.0307648 0.120933 168 
0.457553 0.0307543 0.121864 166 
0.457212 0.0307697 0.122657 168 
0.457097 0.0307735 0.123512 167 
0.456588 0.0307975 0.124259 170 
0.456193 0.0308156 0.125035 167 
0.456757 0.0307849 0.12608 162 
0.455799 0.0308317 0.126698 171 
0.455913 0.0308239 0.127617 166 
0.455914 0.0308219 0.128506 167 
0.455466 0.0308427 0.129265 167 
0.455243 0.0308521 0.130089 163 
0.454741 0.0308757 0.130831 163 
0.453793 0.030922 0.13144 162 
0.453518 0.0309341 0.132246 159 
0.453298 0.0309433 0.133068 160 
0.453414 0.0309354 0.13399 155 
0.453251 0.0309417 0.13483 154 
0.4532 0.0309423 0.135703 153 
0.453205 0.03094 0.136595 150 
0.452266 0.030986 0.137196 158 
0.452605 0.0309667 0.13819 150 
0.452667 0.0309615 0.1391 150 
0.451952 0.030996 0.139767 153 
0.451959 0.0309936 0.14066 149 
0.451856 0.0309969 0.141519 148 
0.451753 0.0310001 0.142378 142 
0.451429 0.0310147 0.143166 138 
0.451937 0.0309867 0.144223 143 
0.451226 0.031021 0.144886 145 
0.450848 0.0310383 0.145656 144 
0.450692 0.0310443 0.146498 142 
0.45015 0.03107 0.147212 148 
0.449996 0.0310759 0.148055 151 
0.450117 0.0310676 0.14899 135 
0.450294 0.0310565 0.149945 137 
0.449589 0.0310906 0.150602 140 
0.449271 0.0311048 0.151389 141 
0.449174 0.0311078 0.152251 139 
0.448637 0.0311332 0.152962 140 
0.44898 0.0311136 0.153977 137 
0.448884 0.0311165 0.154841 135 
0.448898 0.0311138 0.155745 133 
0.448748 0.0311195 0.15659 127 
0.448928 0.0311082 0.157554 127 
0.448503 0.0311279 0.158303 125 
0.448354 0.0311335 0.15915 125 
0.44826 0.0311363 0.160017 126 
0.448441 0.031125 0.160985 123 
0.447799 0.0311558 0.161652 122 
0.448365 0.0311248 0.162763 115 
0.448659 0.0311077 0.163776 110 
0.449893 0.0310424 0.165141 116 
0.449635 0.0310536 0.165954 118 
0.449488 0.031059 0.166808 117 
0.449564 0.0310531 0.167747 113 
0.449528 0.0310529 0.168644 115 
0.449161 0.0310696 0.169415 121 
0.449071 0.0310722 0.170293 120 
0.449259 0.0310605 0.171278 123 
0.448837 0.03108 0.172027 108 
0.449081 0.0310655 0.173036 113 
0.450159 0.0310082 0.174374 113 
0.450182 0.0310049 0.175302 106 
0.451435 0.0309385 0.176718 106 
0.451124 0.0309524 0.177516 102 
0.451485 0.0309318 0.178583 104 
0.451398 0.0309342 0.179473 106 
0.452719 0.0308644 0.180932 104 
0.451563 0.0309216 0.18139 107 
0.452039 0.030895 0.182512 102 
0.451954 0.0308973 0.183406 110 
0.452038 0.0308909 0.18437 108 
0.451616 0.0309105 0.185126 112 
0.453169 0.0308286 0.186705 111 
0.452802 0.0308454 0.187486 109 
0.453058 0.0308301 0.188529 103 
0.453941 0.0307827 0.189839 104 
0.452835 0.0308373 0.190307 96 
0.453775 0.0307869 0.191647 99 
0.452954 0.030827 0.192235 96 
0.453668 0.0307882 0.193483 99 
0.453929 0.0307727 0.194539 101 
0.454762 0.0307277 0.195846 104 
0.453767 0.0307767 0.196356 100 
0.454258 0.0307494 0.197518 97 
0.455152 0.0307013 0.198861 97 
0.454785 0.030718 0.199648 104 
0.454419 0.0307346 0.200435 123 
0.454398 0.0307336 0.201376 104 
0.454033 0.0307502 0.202163 108 
0.455563 0.0306694 0.203808 106 
0.454743 0.0352184 -0.215864 7 
0.194984 0.045984 -0.0931033 6 
0.221943 0.0448648 -0.104993 8 
0.448056 0.035489 -0.209843 8 
0.451495 0.0353443 -0.21051 9 
0.451047 0.0353608 -0.209351 12 
0.450318 0.0353889 -0.208066 11 
0.447245 0.0355142 -0.205702 10 
0.450724 0.0353677 -0.206365 12 
0.450731 0.0353653 -0.205424 11 
0.455354 0.0351714 -0.206587 7 
0.455072 0.035181 -0.205508 15 
0.448453 0.0354535 -0.20157 11 
0.451777 0.0353134 -0.202129 9 
0.460792 0.0349371 -0.205219 9 
0.453497 0.0352378 -0.201013 15 
0.449831 0.0353878 -0.198446 10 
0.453343 0.0352399 -0.19906 13 
0.454321 0.0351972 -0.198548 11 
0.459124 0.0349956 -0.199705 10 
0.452463 0.0352701 -0.195857 13 
0.451851 0.0352934 -0.194657 13 
0.462498 0.034849 -0.198307 15 
0.451986 0.0352836 -0.192847 15 
0.453982 0.0351985 -0.192766 11 
0.458015 0.0350288 -0.193542 14 
0.455261 0.0351412 -0.191435 11 
0.454359 0.0351765 -0.190119 14 
0.457008 0.0350643 -0.190293 16 
0.462208 0.034846 -0.191519 13 
0.455539 0.0351212 -0.187809 14 
0.457448 0.0350396 -0.187662 14 
0.455966 0.0350992 -0.186117 17 
0.454666 0.0351511 -0.184654 19 
0.456166 0.0350866 -0.184333 16 
0.455952 0.0350935 -0.183315 22 
0.459311 0.0349516 -0.183735 17 
0.457648 0.0350187 -0.182133 16 
0.453325 0.0351965 -0.179482 17 
0.457794 0.0350084 -0.180328 22 
0.455288 0.0351106 -0.17841 21 
0.456849 0.0350435 -0.178097 24 
0.456579 0.0350526 -0.177065 24 
0.455227 0.0351069 -0.175615 16 
0.454904 0.0351182 -0.174568 23 
0.456233 0.0350608 -0.174157 23 
0.456595 0.0350437 -0.173372 21 
0.455473 0.0350883 -0.172024 27 
0.455265 0.0350949 -0.171026 28 
0.457397 0.035004 -0.170908 23 
0.455704 0.0350725 -0.169354 24 
0.455213 0.0350908 -0.168254 22 
0.457001 0.0350143 -0.167999 29 
0.458399 0.0349539 -0.167594 25 
0.455449 0.0350748 -0.165595 20 
0.454565 0.0351096 -0.16436 21 
0.452842 0.0351794 -0.162827 24 
0.453991 0.0351294 -0.162332 32 
0.451772 0.0352199 -0.160631 32 
0.452971 0.0351678 -0.160153 35 
0.45266 0.0351788 -0.159139 35 
0.453808 0.0351289 -0.158638 34 
0.454509 0.0350975 -0.157978 35 
0.45431 0.0351038 -0.157003 29 
0.451871 0.0352035 -0.155256 31 
0.450344 0.0352652 -0.153833 33 
0.450483 0.0352574 -0.152985 37 
0.448254 0.0353484 -0.151334 34 
0.449546 0.0352925 -0.15088 36 
0.449851 0.0352778 -0.150091 32 
0.447578 0.0353707 -0.148442 30 
0.449691 0.0352804 -0.148256 37 
0.450162 0.0352587 -0.147521 33 
0.449038 0.0353037 -0.146264 37 
0.44792 0.0353484 -0.145013 41 
0.44828 0.0353314 -0.144246 39 
0.447222 0.0353736 -0.143022 45 
0.446495 0.035402 -0.141909 41 
0.447016 0.0353782 -0.141195 44 
0.4464 0.035402 -0.140121 41 
0.446922 0.0353782 -0.139407 44 
0.446036 0.0354132 -0.138254 49 
0.444457 0.0354772 -0.13689 49 
0.4446 0.0354693 -0.136063 51 
0.444583 0.0354681 -0.135186 51 
0.444941 0.0354511 -0.134424 46 
0.443374 0.0355147 -0.133081 51 
0.442614 0.0355445 -0.131987 50 
0.44409 0.0354808 -0.131561 55 
0.443115 0.0355196 -0.130407 53 
0.44257 0.0355405 -0.129382 59 
0.442821 0.035528 -0.128593 55 
0.443233 0.0355089 -0.12785 58 
0.443273 0.0355052 -0.126999 56 
0.442783 0.0355238 -0.125997 55 
0.444047 0.035469 -0.125495 56 
0.443609 0.0354853 -0.124509 50 
0.444397 0.0354504 -0.123869 57 
0.443374 0.0354913 -0.122723 57 
0.443948 0.0354653 -0.122023 56 
0.444365 0.0354459 -0.121277 57 
0.44596 0.0353771 -0.120852 62 
0.444612 0.0354317 -0.119625 59 
0.444764 0.0354234 -0.118807 64 
0.444275 0.0354419 -0.117818 63 
0.446085 0.0353641 -0.11744 65 
0.44458 0.0354253 -0.116185 58 
0.445213 0.0353968 -0.115493 60 
0.445581 0.0353794 -0.114731 62 
0.445094 0.0353979 -0.113749 61 
0.446695 0.0353288 -0.113301 69 
0.445243 0.0353878 -0.112076 69 
0.445826 0.0353614 -0.111367 72 
0.445555 0.0353709 -0.110444 80 
0.4463 0.0353376 -0.109774 79 
0.446083 0.0353448 -0.108866 73 
0.446562 0.0353228 -0.108128 70 
0.447151 0.0352962 -0.107415 78 
0.447741 0.0352695 -0.106702 81 
0.447362 0.0352834 -0.105756 82 
0.447684 0.035268 -0.104977 88 
0.448547 0.0352298 -0.104324 87 
0.448114 0.035246 -0.103369 92 
0.447953 0.0352509 -0.102477 89 
0.448493 0.0352263 -0.101747 97 
0.44909 0.0351993 -0.101028 87 
0.449146 0.035195 -0.100186 86 
0.450615 0.0351313 -0.0996583 98 
0.449856 0.0351613 -0.0986347 98 
0.450185 0.0351456 -0.0978522 94 
0.450679 0.0351229 -0.0971045 94 
0.450084 0.035146 -0.096122 96 
0.450741 0.0351164 -0.0954086 97 
0.450637 0.0351188 -0.0945327 96 
0.450752 0.0351121 -0.0937033 97 
0.451577 0.0350755 -0.0930208 89 
0.451474 0.0350779 -0.0921456 97 
0.451591 0.035071 -0.0913159 95 
0.451598 0.0350688 -0.0904642 95 
0.452428 0.035032 -0.0897768 94 
0.452656 0.0350204 -0.088968 90 
0.453105 0.0349996 -0.0882019 85 
0.453059 0.0349996 -0.087339 90 
0.453345 0.0349857 -0.0865401 100 
0.453521 0.0349763 -0.0857198 104 
0.454581 0.0349298 -0.0850654 99 
0.454648 0.034925 -0.0842228 105 
0.454494 0.0349296 -0.0833398 104 
0.454729 0.0349178 -0.0825284 112 
0.454798 0.034913 -0.0816868 108 
0.454369 0.0349291 -0.0807568 115 
0.455269 0.0348892 -0.0800631 111 
0.455673 0.0348703 -0.0792798 119 
0.455578 0.0348724 -0.0784093 113 
0.455816 0.0348604 -0.0775966 111 
0.456445 0.034832 -0.0768493 110 
0.456574 0.0348246 -0.0760166 114 
0.45676 0.0348149 -0.0751931 116 
0.457057 0.0348004 -0.0743876 118 
0.457244 0.0347906 -0.0735636 118 
0.457376 0.0347831 -0.0727304 116 
0.458686 0.034726 -0.0720827 110 
0.458313 0.0347397 -0.0711687 114 
0.458784 0.0347179 -0.0703862 116 
0.459144 0.0347008 -0.0695853 115 
0.45928 0.0346932 -0.0687499 115 
0.459641 0.034676 -0.0679478 110 
0.459835 0.0346659 -0.0671201 116 
0.460142 0.034651 -0.0663084 122 
0.459208 0.0346885 -0.0653192 120 
0.459741 0.034664 -0.0645401 118 
0.459994 0.0346515 -0.0637204 115 
0.460247 0.0346388 -0.0629002 113 
0.461011 0.0346047 -0.0621483 115 
0.460869 0.0346087 -0.0612734 119 
0.46158 0.0345768 -0.0605111 116 
0.461951 0.0345592 -0.0597026 135 
0.461981 0.034556 -0.0588496 137 
0.462126 0.0345479 -0.0580112 135 
0.461817 0.0345591 -0.0571164 132 
0.463047 0.0345052 -0.0564106 137 
0.461939 0.03455 -0.0554201 138 
0.4622 0.0345371 -0.0545957 131 
0.462805 0.0345096 -0.0538105 129 
0.461928 0.0345447 -0.0528539 128 
0.463276 0.0344858 -0.0521512 132 
0.463312 0.0344823 -0.0512986 128 
0.462208 0.0345271 -0.0503221 135 
0.462473 0.0345139 -0.0494964 138 
0.463082 0.0344862 -0.0487061 137 
0.462095 0.0345261 -0.0477492 139 
0.46259 0.0345032 -0.0469463 130 
0.461607 0.0345428 -0.0459948 137 
0.46233 0.0345103 -0.0452137 134 
0.461349 0.0345499 -0.0442672 134 
0.462073 0.0345174 -0.0434844 132 
0.462286 0.0345064 -0.0426523 142 
0.461025 0.0345579 -0.0416867 145 
0.462033 0.0345133 -0.0409263 142 
0.461114 0.0345503 -0.0399959 142 
0.461556 0.0345296 -0.0391842 149 
0.460866 0.0345569 -0.0382775 150 
0.460292 0.0345793 -0.037383 158 
0.460227 0.0345801 -0.0365309 155 
0.4596 0.0346048 -0.035636 157 
0.459087 0.0346246 -0.0347522 156 
0.459136 0.0346206 -0.0339117 155 
0.459018 0.0346237 -0.0330593 152 
0.459069 0.0346196 -0.0322192 156 
0.459288 0.0346084 -0.0313906 162 
0.458836 0.0346257 -0.030517 162 
0.459561 0.0345931 -0.0297207 167 
0.45939 0.0345984 -0.0288661 169 
0.459275 0.0346014 -0.0280158 162 
0.459274 0.0345995 -0.0271726 174 
0.459049 0.0346071 -0.0263169 170 
0.458545 0.0346266 -0.0254469 175 
0.458211 0.0346389 -0.0245879 172 
0.4581 0.0346417 -0.0237417 174 
0.457545 0.0346633 -0.0228742 175 
0.457492 0.0346636 -0.0220326 179 
0.457051 0.0346805 -0.0211737 182 
0.457277 0.034669 -0.0203456 182 
0.456838 0.0346857 -0.019489 185 
0.455406 0.0347446 -0.0185946 185 
0.454862 0.0347658 -0.0177393 174 
0.453662 0.0348148 -0.0168624 174 
0.453724 0.0348103 -0.0160334 169 
0.454006 0.0347965 -0.0152113 180 
0.453686 0.0348082 -0.0143699 163 
0.452768 0.0348452 -0.0135125 170 
0.452778 0.034843 -0.0126836 168 
0.453006 0.0348314 -0.0118601 172 
0.452908 0.0348337 -0.0110283 167 
0.453247 0.0348174 -0.0102063 170 
0.453205 0.0348173 -0.00937561 175 
0.452946 0.0348265 -0.00854129 172 
0.453505 0.0348008 -0.00772091 172 
0.453902 0.0347821 -0.00689622 176 
0.453753 0.0347866 -0.0060635 172 
0.453441 0.0347979 -0.00522968 174 
0.453894 0.0347768 -0.00440346 170 
0.454349 0.0347556 -0.00357559 172 
0.454532 0.0347459 -0.00274476 179 
0.45444 0.0347479 -0.00191249 178 
0.454405 0.0347476 -0.00108061 175 
0.454424 0.0347449 -0.000248817 179 
0.454609 0.0347351 0.000583509 174 
0.454795 0.0347253 0.00141654 177 
0.454652 0.0347296 0.00224816 177 
0.455279 0.034701 0.00308564 174 
0.454862 0.0347169 0.00391491 172 
0.454831 0.0347163 0.00474728 172 
0.456454 0.0346453 0.00560247 176 
0.456369 0.0346471 0.0064369 177 
0.456506 0.0346394 0.00727496 175 
0.455593 0.0346763 0.00809322 174 
0.456449 0.034638 0.00894574 175 
0.456089 0.0346514 0.00977342 174 
0.456671 0.0346248 0.0106233 175 
0.456534 0.0346287 0.0114562 176 
0.457119 0.034602 0.0123093 176 
0.456983 0.0346059 0.0131426 170 
0.456349 0.0346309 0.0139595 166 
0.456824 0.0346088 0.014812 166 
0.457023 0.0345985 0.0156564 168 
0.457501 0.0345762 0.0165123 171 
0.457981 0.0345539 0.01737 171 
0.457681 0.0345647 0.0181973 172 
0.457717 0.0345613 0.0190381 167 
0.457864 0.0345531 0.0198842 174 
0.458963 0.0345044 0.0207759 169 
0.459056 0.0344985 0.0216225 175 
0.459825 0.0344639 0.022504 175 
0.459808 0.0344627 0.0233469 175 
0.46058 0.0344279 0.0242331 176 
0.461186 0.0344001 0.025113 179 
0.460719 0.0344181 0.0259326 173 
0.460987 0.0344048 0.0267949 172 
0.461426 0.0343842 0.0276689 171 
0.46164 0.0343731 0.0285304 171 
0.462025 0.0343548 0.0294041 174 
0.463266 0.0342999 0.0303374 173 
0.463198 0.0343009 0.0311844 173 
0.46376 0.034275 0.0320763 172 
0.463693 0.0342759 0.0329245 172 
0.463742 0.0342719 0.0337813 173 
0.464652 0.0342311 0.0347048 172 
0.465797 0.0341803 0.0356504 171 
0.465098 0.0342082 0.0364517 172 
0.465208 0.0342016 0.0373173 172 
0.466242 0.0341555 0.0382617 174 
0.466876 0.0341265 0.0391756 165 
0.466989 0.0341197 0.0400461 171 
0.467218 0.034108 0.0409278 166 
0.467623 0.0340887 0.0418268 173 
0.467622 0.0340868 0.0426893 176 
0.467621 0.0340849 0.0435522 170 
0.468497 0.0340455 0.0445009 171 
0.469142 0.034016 0.0454302 170 
0.468616 0.0340365 0.0462435 173 
0.469734 0.0339868 0.0472246 168 
0.46868 0.0340299 0.0479822 178 
0.470271 0.0339599 0.0490188 163 
0.469922 0.0339729 0.0498507 174 
0.469927 0.0339707 0.0507207 171 
0.470405 0.0339483 0.0516443 167 
0.471595 0.0338954 0.0526514 168 
0.471247 0.0339083 0.0534845 179 
0.47167 0.0338882 0.0544077 179 
0.472691 0.0338426 0.0554045 175 
0.472821 0.0338351 0.0562968 176 
0.472951 0.0338275 0.05719 174 
0.47416 0.0337738 0.0582196 172 
0.474052 0.0337764 0.0590861 169 
0.474005 0.0337764 0.0599605 179 
0.474079 0.0337713 0.0608509 179 
0.474394 0.0337558 0.061774 179 
0.47477 0.0337377 0.0627069 182 
0.474967 0.0337273 0.0636171 177 
0.475406 0.0337065 0.0645621 181 
0.475726 0.0336908 0.0654922 179 
0.475623 0.0336932 0.0663637 185 
0.475461 0.0336981 0.0672266 182 
0.475783 0.0336823 0.0681601 186 
0.47544 0.033695 0.0689967 182 
0.475643 0.0336843 0.0699143 182 
0.476029 0.0336658 0.0708609 177 
0.476112 0.0336602 0.0717628 177 
0.4765 0.0336416 0.0727129 181 
0.476402 0.0336437 0.0735883 180 
0.476671 0.0336302 0.0745222 178 
0.478223 0.0335616 0.0756648 183 
0.476479 0.0336344 0.0762753 187 
0.476324 0.0336391 0.0771421 188 
0.476108 0.0336463 0.0779987 185 
0.475894 0.0336535 0.0788551 184 
0.476226 0.0336372 0.0798047 191 
0.475831 0.0336521 0.0806301 189 
0.474589 0.0337034 0.0813067 187 
0.475771 0.0336507 0.082407 192 
0.475681 0.0336525 0.0832853 189 
0.474744 0.0336907 0.0840109 186 
0.47357 0.0337391 0.0846902 188 
0.474448 0.0336994 0.0857434 189 
0.473517 0.0337373 0.0864639 186 
0.473371 0.0337416 0.0873289 191 
0.473165 0.0337484 0.0881825 191 
0.4729 0.0337578 0.0890245 187 
0.472157 0.0337877 0.0897733 193 
0.472313 0.0337789 0.0906957 190 
0.472291 0.0337779 0.0915839 194 
0.470359 0.0338589 0.0920918 199 
0.469803 0.0338807 0.0928698 195 
0.469486 0.0338924 0.0936948 191 
0.469288 0.0338989 0.0945435 190 
0.469446 0.03389 0.0954658 186 
0.469487 0.0338863 0.0963645 192 
0.468817 0.0339131 0.0971143 192 
0.468268 0.0339347 0.0978876 193 
0.467426 0.0339689 0.0985966 191 
0.467175 0.0339777 0.0994307 188 
0.466572 0.0340016 0.100188 192 
0.466908 0.0339851 0.10115 196 
0.466835 0.0339863 0.102023 188 
0.466117 0.0340151 0.102752 187 
0.465928 0.0340213 0.103598 186 
0.465331 0.034045 0.104351 182 
0.465318 0.0340435 0.105236 185 
0.464956 0.0340571 0.106041 187 
0.464014 0.0340956 0.10671 185 
0.463307 0.034124 0.107431 183 
0.463412 0.0341175 0.108343 181 
0.462593 0.0341508 0.109034 185 
0.462525 0.0341517 0.109905 185 
0.462228 0.0341625 0.11072 178 
0.462392 0.0341534 0.111647 176 
0.462038 0.0341666 0.112448 178 
0.46134 0.0341947 0.113162 167 
0.460359 0.034235 0.113803 171 
0.460524 0.0342259 0.114731 166 
0.460804 0.0342118 0.115689 158 
0.459711 0.0342569 0.116297 155 
0.459478 0.0342649 0.117123 159 
0.459302 0.0342705 0.117964 154 
0.45964 0.0342539 0.11894 153 
0.459579 0.0342545 0.119813 158 
0.45912 0.0342723 0.120579 162 
0.458946 0.0342778 0.121421 162 
0.459001 0.0342734 0.122325 162 
0.458885 0.0342764 0.123184 158 
0.4586 0.0342867 0.123995 157 
0.458087 0.0343068 0.124744 159 
0.45803 0.0343073 0.125618 158 
0.458258 0.0342954 0.126573 158 
0.45752 0.0343253 0.127256 155 
0.457862 0.0343085 0.128244 151 
0.457409 0.034326 0.129007 152 
0.457411 0.0343239 0.1299 157 
0.457357 0.0343242 0.130777 157 
0.457645 0.0343098 0.131754 149 
0.457137 0.0343297 0.1325 161 
0.456688 0.0343471 0.133261 155 
0.456353 0.0343595 0.134055 154 
0.456019 0.0343719 0.134849 146 
0.456477 0.0343501 0.135882 152 
0.455578 0.0343869 0.136505 148 
0.455472 0.0343895 0.137367 152 
0.455027 0.0344067 0.138125 145 
0.455372 0.0343897 0.139128 152 
0.455493 0.0343825 0.140062 152 
0.455219 0.0343923 0.140873 153 
0.455453 0.0343802 0.141845 153 
0.454729 0.0344094 0.142514 155 
0.453951 0.034441 0.143163 148 
0.453904 0.034441 0.144046 145 
0.453746 0.0344459 0.144892 148 
0.453812 0.034441 0.145813 145 
0.453992 0.0344312 0.146771 147 
0.453722 0.0344408 0.147582 150 
0.453565 0.0344455 0.148431 150 
0.453185 0.03446 0.149205 145 
0.452749 0.0344768 0.14996 142 
0.452147 0.0345008 0.150658 132 
0.452943 0.0344643 0.151829 137 
0.451894 0.0345077 0.152374 134 
0.452187 0.034493 0.153376 133 
0.451811 0.0345072 0.154149 130 
0.451993 0.0344973 0.155115 130 
0.452119 0.0344898 0.156064 131 
0.451632 0.0345088 0.156798 126 
0.451871 0.0344964 0.157787 119 
0.450606 0.0345492 0.158243 117 
0.451346 0.0345151 0.159413 118 
0.450861 0.034534 0.160145 117 
0.450267 0.0345578 0.160837 120 
0.450673 0.0345381 0.161891 127 
0.450524 0.0345425 0.162744 124 
0.4511 0.0345155 0.163865 116 
0.451119 0.0345126 0.164782 112 
0.449802 0.0345677 0.165203 104 
0.451437 0.0344947 0.166725 107 
0.450843 0.0345184 0.167415 111 
0.449861 0.0345589 0.167957 116 
0.450104 0.0345463 0.168961 127 
0.449624 0.0345651 0.169691 123 
0.450592 0.034521 0.170976 117 
0.450224 0.0345349 0.17175 117 
0.450637 0.0345149 0.172826 111 
0.450715 0.0345095 0.173775 111 
0.452085 0.0344479 0.175231 109 
0.450818 0.0345008 0.175654 113 
0.450674 0.034505 0.176518 108 
0.451652 0.0344605 0.177829 105 
0.451341 0.0344719 0.178628 110 
0.451929 0.0344443 0.17979 115 
0.452519 0.0344166 0.180955 114 
0.451531 0.0344574 0.181482 113 
0.451727 0.0344468 0.182489 105 
0.45181 0.0344411 0.183452 113 
0.451838 0.0344377 0.184394 109 
0.452487 0.0344074 0.185594 107 
0.453083 0.0343794 0.186776 103 
0.45334 0.0343662 0.187819 106 
0.453541 0.0343553 0.18884 106 
0.454255 0.0343221 0.19008 108 
0.454344 0.0343162 0.191058 100 
0.453804 0.0343375 0.191769 100 
0.454065 0.034324 0.192822 94 
0.454612 0.0342981 0.194001 102 
0.454359 0.034307 0.194836 105 
0.454392 0.0343034 0.195796 106 
0.455057 0.0342723 0.197034 105 
0.455092 0.0342687 0.197997 103 
0.455645 0.0342425 0.199192 100 
0.455047 0.0342663 0.199878 101 
0.454164 0.0343026 0.200435 121 
0.454257 0.0342964 0.201427 98 
0.45372 0.0343176 0.202137 98 
0.454272 0.0342915 0.203339 101 
0.446522 0.039055 -0.212086 11 
0.449382 0.0389569 -0.212499 8 
0.452906 0.0388364 -0.213215 9 
0.446927 0.039035 -0.209449 9 
0.450864 0.0389007 -0.21035 9 
0.449908 0.0389306 -0.208957 10 
0.453895 0.0387945 -0.20986 11 
0.44612 0.0390537 -0.205318 8 
0.454248 0.0387784 -0.208118 9 
0.450157 0.0389137 -0.205295 12 
0.453743 0.038791 -0.205986 9 
0.451301 0.038871 -0.20393 9 
0.45739 0.0386641 -0.205735 11 
0.456352 0.0386969 -0.204314 9 
0.461448 0.0385233 -0.205642 11 
0.466054 0.0383662 -0.206731 10 
0.455104 0.0387324 -0.20091 11 
0.455975 0.038701 -0.200349 8 
0.455695 0.0387083 -0.199279 15 
0.457554 0.0386436 -0.199145 10 
0.454851 0.0387324 -0.197022 14 
0.45624 0.0386835 -0.196681 14 
0.457232 0.038648 -0.196164 14 
0.455282 0.0387115 -0.194384 10 
0.453407 0.0387726 -0.192644 12 
0.457494 0.0386328 -0.193443 13 
0.457389 0.0386342 -0.192456 18 
0.457573 0.0386258 -0.191592 18 
0.455797 0.0386836 -0.189908 15 
0.463697 0.0384152 -0.192259 13 
0.454963 0.0387075 -0.18769 16 
0.457044 0.0386352 -0.187614 15 
0.454533 0.0387178 -0.185649 11 
0.456264 0.0386573 -0.185424 17 
0.456393 0.0386508 -0.184543 20 
0.455719 0.0386714 -0.183338 21 
0.454535 0.0387093 -0.181932 17 
0.457013 0.0386236 -0.181995 18 
0.460625 0.0384996 -0.1825 16 
0.456068 0.0386513 -0.179759 15 
0.455512 0.0386679 -0.178613 17 
0.457364 0.0386033 -0.178412 19 
0.455546 0.0386626 -0.176775 15 
0.456881 0.0386154 -0.176368 24 
0.455754 0.0386514 -0.175007 17 
0.45778 0.0385809 -0.174861 23 
0.456191 0.0386325 -0.173328 25 
0.454558 0.0386856 -0.171787 22 
0.457089 0.038598 -0.171823 23 
0.456249 0.0386243 -0.170586 27 
0.455756 0.0386389 -0.169482 25 
0.456691 0.0386052 -0.16891 27 
0.455399 0.0386468 -0.167514 30 
0.454853 0.0386632 -0.166398 26 
0.454365 0.0386776 -0.165305 27 
0.455466 0.0386383 -0.164793 27 
0.452889 0.0387235 -0.162948 30 
0.454435 0.0386691 -0.162596 32 
0.452937 0.0387177 -0.161151 28 
0.453975 0.0386806 -0.160613 31 
0.452818 0.0387177 -0.159297 32 
0.453968 0.0386767 -0.158796 33 
0.452701 0.0387175 -0.157448 35 
0.453176 0.0386994 -0.15671 34 
0.453203 0.0386965 -0.155816 36 
0.451274 0.0387598 -0.154252 32 
0.451246 0.0387587 -0.153345 28 
0.450719 0.0387745 -0.152269 28 
0.449421 0.0388165 -0.150936 30 
0.44857 0.0388433 -0.149759 37 
0.449149 0.0388217 -0.149063 40 
0.44962 0.0388037 -0.148329 42 
0.448551 0.0388379 -0.147087 34 
0.448253 0.038846 -0.146102 36 
0.449327 0.0388076 -0.145566 38 
0.448536 0.0388325 -0.144422 38 
0.447693 0.038859 -0.143267 37 
0.446366 0.0389021 -0.141961 39 
0.44602 0.0389118 -0.140972 45 
0.445136 0.0389398 -0.139815 39 
0.444095 0.0389732 -0.138613 46 
0.444344 0.0389628 -0.137818 41 
0.444433 0.0389578 -0.136973 46 
0.443987 0.038971 -0.135964 47 
0.444774 0.0389423 -0.135334 46 
0.443578 0.0389809 -0.134099 48 
0.442815 0.0390049 -0.133001 50 
0.443386 0.0389835 -0.132306 54 
0.443317 0.0389839 -0.131418 59 
0.443355 0.0389806 -0.130564 57 
0.443501 0.0389737 -0.129741 57 
0.44306 0.0389868 -0.128748 51 
0.44374 0.0389617 -0.128081 52 
0.443247 0.0389765 -0.127075 55 
0.443554 0.0389641 -0.1263 65 
0.444931 0.0389154 -0.125829 55 
0.443903 0.0389484 -0.124675 56 
0.444961 0.0389104 -0.124109 57 
0.444093 0.038938 -0.123004 62 
0.444564 0.0389201 -0.122273 60 
0.444553 0.0389185 -0.121409 61 
0.445508 0.038884 -0.120808 65 
0.444855 0.0389043 -0.11977 66 
0.445596 0.0388771 -0.119109 59 
0.445266 0.0388864 -0.11816 67 
0.445686 0.0388702 -0.117411 68 
0.446108 0.0388539 -0.116662 68 
0.446747 0.0388302 -0.115969 67 
0.446202 0.0388468 -0.114967 69 
0.446088 0.0388487 -0.114079 72 
0.446082 0.038847 -0.113219 70 
0.446614 0.0388269 -0.112496 68 
0.447688 0.0387884 -0.111907 71 
0.447683 0.0387866 -0.111046 75 
0.446923 0.0388106 -0.11 81 
0.447189 0.0387996 -0.109208 79 
0.447509 0.0387867 -0.108429 75 
0.447831 0.0387738 -0.10765 79 
0.44864 0.0387443 -0.106986 86 
0.448422 0.0387498 -0.106076 80 
0.448312 0.0387516 -0.105194 82 
0.449396 0.0387127 -0.10459 85 
0.449232 0.0387163 -0.103695 90 
0.449722 0.0386977 -0.10295 84 
0.450322 0.0386753 -0.10223 88 
0.450268 0.0386752 -0.10136 86 
0.450051 0.0386807 -0.100454 87 
0.44989 0.0386842 -0.0995615 88 
0.450328 0.0386673 -0.0988025 99 
0.451096 0.0386392 -0.0981141 100 
0.451209 0.0386334 -0.0972817 105 
0.451486 0.038622 -0.0964848 99 
0.451217 0.0386292 -0.095571 103 
0.451879 0.0386047 -0.094855 105 
0.451939 0.0386007 -0.0940113 104 
0.451671 0.0386079 -0.0931 105 
0.451897 0.0385983 -0.0922914 101 
0.452618 0.0385717 -0.091583 100 
0.45406 0.0385204 -0.0910172 92 
0.453847 0.0385258 -0.0901168 92 
0.454353 0.0385065 -0.0893596 93 
0.45403 0.0385157 -0.088439 94 
0.455149 0.0384755 -0.0877989 103 
0.454603 0.0384922 -0.0868364 99 
0.455447 0.0384614 -0.0861398 97 
0.455347 0.0384629 -0.0852633 94 
0.45625 0.03843 -0.084574 108 
0.456318 0.0384258 -0.0837282 109 
0.456554 0.0384157 -0.0829132 108 
0.456512 0.0384152 -0.0820475 109 
0.456749 0.0384052 -0.0812323 113 
0.458504 0.0383432 -0.0806843 109 
0.4579 0.0383619 -0.0797185 113 
0.458647 0.0383344 -0.0789886 110 
0.458607 0.0383338 -0.0781219 114 
0.458173 0.0383467 -0.0771894 116 
0.45819 0.0383442 -0.0763343 129 
0.458152 0.0383436 -0.0754703 126 
0.458677 0.0383236 -0.0746987 126 
0.45926 0.0383017 -0.073935 125 
0.459619 0.0382875 -0.0731337 128 
0.460149 0.0382674 -0.0723583 121 
0.461192 0.0382296 -0.0716613 125 
0.461385 0.0382211 -0.0708299 124 
0.461122 0.0382282 -0.0699291 123 
0.461715 0.0382059 -0.0691579 122 
0.461567 0.038209 -0.0682753 128 
0.462219 0.0381847 -0.0675104 123 
0.462129 0.0381858 -0.0666365 126 
0.462097 0.038185 -0.0657715 120 
0.462523 0.0381684 -0.0649713 121 
0.463065 0.0381479 -0.064186 118 
0.463494 0.0381312 -0.0633835 118 
0.464616 0.0380907 -0.0626733 119 
0.464126 0.0381056 -0.0617447 122 
0.464559 0.0380888 -0.0609393 125 
0.464531 0.0380878 -0.0600731 131 
0.464446 0.0380888 -0.0592001 128 
0.464881 0.0380719 -0.058393 134 
0.46474 0.0380748 -0.0575132 137 
0.465987 0.03803 -0.0568036 140 
0.465325 0.0380508 -0.0558605 136 
0.465128 0.0380556 -0.054975 137 
0.465857 0.0380286 -0.0541983 137 
0.465603 0.0380354 -0.0533067 139 
0.465696 0.0380302 -0.0524555 135 
0.465733 0.038027 -0.0515978 140 
0.465597 0.0380298 -0.0507216 145 
0.465461 0.0380325 -0.0498462 141 
0.464864 0.0380511 -0.0489231 139 
0.464846 0.0380498 -0.0480622 142 
0.465001 0.0380425 -0.0472193 139 
0.464581 0.038055 -0.0463187 144 
0.464564 0.0380536 -0.0454594 138 
0.465298 0.0380264 -0.0446722 144 
0.464764 0.0380429 -0.0437636 142 
0.464002 0.0380672 -0.0428362 141 
0.463587 0.0380796 -0.0419432 142 
0.46346 0.038082 -0.0410773 141 
0.463219 0.0380884 -0.0402023 138 
0.462807 0.0381006 -0.039314 142 
0.463311 0.0380813 -0.0385031 141 
0.462958 0.0380916 -0.0376213 148 
0.462094 0.0381195 -0.0367007 146 
0.462427 0.0381061 -0.0358758 153 
0.46202 0.0381181 -0.0349942 154 
0.461729 0.0381263 -0.0341228 157 
0.461325 0.0381383 -0.0332446 160 
0.46064 0.03816 -0.0323485 164 
0.462053 0.0381093 -0.0315972 162 
0.461424 0.0381291 -0.0307063 165 
0.460741 0.0381508 -0.0298145 163 
0.460681 0.0381509 -0.0289642 169 
0.460171 0.0381666 -0.028087 165 
0.459156 0.0381997 -0.0271824 170 
0.459437 0.0381882 -0.026355 166 
0.459886 0.0381707 -0.025536 172 
0.459325 0.0381882 -0.0246619 173 
0.458709 0.0382076 -0.0237874 178 
0.458767 0.0382037 -0.0229483 178 
0.458433 0.0382133 -0.0220907 178 
0.458045 0.0382248 -0.0212319 177 
0.457492 0.038242 -0.0203674 179 
0.456718 0.0382669 -0.019496 173 
0.456556 0.0382705 -0.0186519 170 
0.455456 0.0383067 -0.0177728 176 
0.455352 0.0383084 -0.0169339 172 
0.455249 0.0383101 -0.0160956 169 
0.455092 0.0383136 -0.0152559 165 
0.454825 0.038321 -0.0144136 164 
0.455551 0.038294 -0.0136008 160 
0.455505 0.0382937 -0.0127647 159 
0.45524 0.038301 -0.0119233 166 
0.456412 0.0382585 -0.0111163 167 
0.455981 0.0382716 -0.0102708 166 
0.455 0.0383036 -0.00941623 167 
0.455786 0.0382745 -0.0085965 171 
0.455579 0.0382798 -0.00775821 172 
0.455538 0.0382793 -0.00692305 173 
0.454617 0.0383093 -0.00607742 171 
0.455349 0.0382821 -0.00525216 170 
0.456083 0.0382548 -0.00442423 175 
0.456433 0.0382408 -0.00359108 176 
0.455842 0.0382594 -0.00275224 173 
0.455805 0.0382588 -0.00191717 174 
0.456877 0.0382198 -0.00108332 174 
0.456066 0.038246 -0.000247142 172 
0.45714 0.0382069 0.000591175 173 
0.456995 0.03821 0.00142791 172 
0.456628 0.0382208 0.00226269 171 
0.456762 0.0382143 0.00310029 167 
0.457118 0.0382001 0.00394066 164 
0.45742 0.0381877 0.00478174 163 
0.456778 0.0382081 0.0056109 168 
0.458084 0.0381609 0.00646829 163 
0.45772 0.0381716 0.00730127 168 
0.458193 0.0381533 0.00814919 171 
0.45822 0.0381505 0.00898946 170 
0.458025 0.0381554 0.00982474 174 
0.459454 0.0381039 0.0106999 171 
0.45786 0.0381573 0.0114994 171 
0.458226 0.0381427 0.0123492 168 
0.458424 0.0381339 0.0131953 167 
0.459353 0.0380998 0.014066 165 
0.459779 0.0380831 0.0149229 164 
0.459587 0.0380878 0.0157592 164 
0.460128 0.0380672 0.0166227 173 
0.460049 0.038068 0.0174637 166 
0.460254 0.038059 0.0183163 165 
0.459839 0.0380715 0.0191428 163 
0.459876 0.0380683 0.0199884 165 
0.460986 0.0380278 0.0208849 168 
0.461081 0.0380226 0.0217358 175 
0.46146 0.0380075 0.0226017 169 
0.462694 0.0379627 0.0235143 173 
0.461994 0.0379851 0.024326 172 
0.462491 0.0379659 0.0252028 171 
0.463275 0.0379367 0.0260984 172 
0.46349 0.0379273 0.0269627 173 
0.463878 0.0379119 0.0278388 171 
0.464381 0.0378925 0.0287239 167 
0.464484 0.037887 0.0295846 169 
0.464703 0.0378774 0.0304538 169 
0.465846 0.0378357 0.0313882 170 
0.466068 0.037826 0.0322613 167 
0.466871 0.0377961 0.033178 171 
0.466804 0.0377965 0.0340326 172 
0.467378 0.0377746 0.0349364 174 
0.467721 0.0377607 0.0358244 179 
0.467307 0.0377732 0.0366527 177 
0.467826 0.0377532 0.0375568 177 
0.468288 0.0377351 0.0384583 173 
0.470282 0.0376637 0.0394939 174 
0.47022 0.0376639 0.0403559 174 
0.470099 0.0376661 0.0412126 174 
0.469097 0.0376991 0.0419881 168 
0.469154 0.0376952 0.0428594 174 
0.469271 0.0376891 0.043737 176 
0.469919 0.0376646 0.044667 173 
0.470984 0.0376255 0.0456411 179 
0.471638 0.0376007 0.0465779 175 
0.471344 0.037609 0.0474196 169 
0.471466 0.0376028 0.0483042 172 
0.471886 0.0375862 0.0492214 173 
0.47201 0.0375799 0.0501083 175 
0.47303 0.0375423 0.051095 176 
0.472976 0.0375422 0.0519651 176 
0.473342 0.0375274 0.0528833 176 
0.47419 0.0374959 0.0538592 174 
0.473838 0.0375061 0.0546968 177 
0.473728 0.037508 0.0555624 171 
0.47464 0.0374742 0.0565526 175 
0.474711 0.0374697 0.0574425 182 
0.475145 0.0374526 0.0583785 179 
0.475339 0.0374438 0.0592859 182 
0.475352 0.0374413 0.060171 180 
0.475729 0.0374262 0.0611042 186 
0.475381 0.0374363 0.0619426 180 
0.477158 0.0373722 0.0630671 181 
0.477846 0.0373462 0.0640495 182 
0.475672 0.0374202 0.0646376 179 
0.475992 0.037407 0.065569 179 
0.475829 0.0374107 0.0664328 182 
0.475363 0.037425 0.0672528 183 
0.476111 0.0373968 0.0682489 185 
0.475403 0.0374196 0.0690326 176 
0.476517 0.0373786 0.0700875 179 
0.477944 0.0373266 0.0711944 182 
0.476319 0.0373815 0.0718376 177 
0.476403 0.0373765 0.0727413 181 
0.476306 0.0373779 0.0736171 183 
0.476757 0.0373601 0.0745805 182 
0.477149 0.0373444 0.0755364 185 
0.475714 0.0373926 0.0761959 183 
0.475862 0.0373854 0.077112 189 
0.47589 0.0373824 0.0780089 188 
0.474645 0.037424 0.0786913 187 
0.473708 0.0374548 0.079422 190 
0.474824 0.0374137 0.0805044 191 
0.475643 0.037383 0.0815396 192 
0.474039 0.0374372 0.0821505 192 
0.473587 0.037451 0.0829615 188 
0.473258 0.0374606 0.0837933 182 
0.47299 0.037468 0.0846354 192 
0.472722 0.0374753 0.0854771 190 
0.472276 0.037489 0.0862851 191 
0.47243 0.0374815 0.0872046 192 
0.470969 0.0375308 0.0878187 194 
0.470945 0.0375296 0.0887031 191 
0.471398 0.0375117 0.0896806 191 
0.470004 0.0375586 0.0902989 192 
0.470279 0.0375469 0.0912419 195 
0.470019 0.0375541 0.0920799 194 
0.469701 0.0375632 0.0929057 195 
0.469502 0.0375682 0.093755 192 
0.469719 0.0375586 0.0946895 194 
0.469462 0.0375656 0.0955271 197 
0.469265 0.0375705 0.0963769 195 
0.46901 0.0375774 0.0972141 191 
0.468755 0.0375844 0.098051 190 
0.468797 0.0375809 0.0989513 196 
0.467305 0.0376313 0.0995198 193 
0.46629 0.0376649 0.100188 189 
0.466275 0.0376635 0.101072 189 
0.466201 0.0376641 0.101945 190 
0.465368 0.0376914 0.102647 188 
0.465062 0.0377001 0.103466 184 
0.465107 0.0376965 0.104364 184 
0.464803 0.0377052 0.105183 183 
0.464616 0.0377098 0.106028 184 
0.463906 0.0377327 0.106751 180 
0.464302 0.0377168 0.107732 180 
0.46435 0.0377131 0.108633 179 
0.464806 0.037695 0.109633 179 
0.46468 0.0376975 0.110494 178 
0.462638 0.0377673 0.110888 177 
0.462456 0.0377717 0.111732 172 
0.461987 0.0377862 0.112505 172 
0.462268 0.0377743 0.113464 169 
0.462319 0.0377705 0.114366 166 
0.462313 0.0377687 0.115255 159 
0.460981 0.0378136 0.115807 161 
0.461724 0.0377854 0.116887 160 
0.461258 0.0377998 0.117657 157 
0.461773 0.0377797 0.118683 159 
0.461135 0.0378002 0.119408 154 
0.460499 0.0378205 0.120131 150 
0.461072 0.0377984 0.121175 156 
0.460782 0.0378066 0.121991 155 
0.46078 0.0378046 0.122883 160 
0.460952 0.0377965 0.123824 155 
0.460951 0.0377945 0.124719 155 
0.460606 0.0378047 0.125519 155 
0.460204 0.0378168 0.126303 161 
0.460032 0.0378209 0.12715 162 
0.45946 0.037839 0.127884 158 
0.459634 0.0378309 0.128829 151 
0.459751 0.0378247 0.129759 155 
0.459754 0.0378226 0.130657 153 
0.4597 0.0378225 0.131539 151 
0.459359 0.0378325 0.132338 155 
0.458734 0.0378525 0.133053 155 
0.458967 0.0378423 0.13402 152 
0.458172 0.0378683 0.134682 155 
0.457721 0.0378822 0.135445 150 
0.458126 0.0378659 0.136466 152 
0.458247 0.0378596 0.137403 150 
0.458026 0.0378654 0.138235 144 
0.458548 0.0378449 0.139297 147 
0.457584 0.0378769 0.139901 152 
0.457592 0.0378746 0.140805 148 
0.45783 0.0378641 0.141782 147 
0.456415 0.0379121 0.142239 141 
0.456765 0.0378977 0.143252 146 
0.456775 0.0378953 0.144158 150 
0.45616 0.037915 0.144863 141 
0.456285 0.0379086 0.145807 139 
0.456637 0.0378941 0.146826 140 
0.457048 0.0378775 0.147866 141 
0.456661 0.0378891 0.148646 147 
0.456276 0.0379007 0.149425 148 
0.456403 0.0378942 0.150374 150 
0.456473 0.0378896 0.151306 139 
0.455521 0.0379213 0.151894 130 
0.455762 0.0379107 0.152884 133 
0.455436 0.0379202 0.153681 130 
0.455224 0.0379257 0.154518 129 
0.455751 0.037905 0.15561 126 
0.45571 0.0379043 0.156507 118 
0.454988 0.0379279 0.157167 123 
0.455402 0.0379111 0.158224 118 
0.454682 0.0379346 0.158882 115 
0.455381 0.0379078 0.160044 113 
0.454207 0.0379473 0.160539 115 
0.454112 0.0379486 0.161418 117 
0.453735 0.0379599 0.162195 116 
0.452795 0.0379912 0.162767 116 
0.453434 0.0379665 0.163914 114 
0.453284 0.0379697 0.164773 105 
0.453361 0.0379649 0.165717 110 
0.4544 0.037926 0.16702 103 
0.452612 0.0379874 0.167271 100 
0.452746 0.0379806 0.168237 106 
0.451754 0.0380137 0.16878 116 
0.451495 0.0380208 0.169598 120 
0.451573 0.038016 0.170545 115 
0.451651 0.0380111 0.171493 119 
0.452011 0.0379963 0.17255 124 
0.451191 0.0380233 0.173153 119 
0.452791 0.0379644 0.174697 114 
0.452985 0.0379554 0.175696 109 
0.452558 0.0379685 0.176453 111 
0.452639 0.0379635 0.17741 109 
0.452495 0.0379666 0.178278 117 
0.452521 0.0379636 0.179215 115 
0.453057 0.0379424 0.180359 107 
0.452461 0.0379615 0.181047 108 
0.452827 0.0379464 0.182125 112 
0.453252 0.0379291 0.183229 107 
0.452373 0.0379583 0.183801 111 
0.452798 0.0379411 0.184908 104 
0.453623 0.0379096 0.186183 115 
0.453424 0.0379146 0.187037 113 
0.454653 0.0378687 0.188488 111 
0.454284 0.0378798 0.189272 112 
0.453858 0.0378928 0.190032 105 
0.454805 0.037857 0.191375 103 
0.454435 0.037868 0.19216 104 
0.45441 0.0378667 0.193093 105 
0.454157 0.0378737 0.193927 104 
0.454362 0.0378642 0.194961 107 
0.453823 0.0378813 0.195671 109 
0.454028 0.0378718 0.196707 106 
0.45389 0.0378746 0.197593 112 
0.454212 0.037861 0.198683 105 
0.453788 0.037874 0.199444 97 
0.45503 0.0378275 0.200948 114 
0.454778 0.0378344 0.201788 95 
0.454873 0.0378289 0.202784 103 
0.455025 0.0378213 0.203808 103 
0.217231 0.04845 -0.104093 6 
2.76956 -0.0171682 -1.32078 5 
0.455699 0.0423122 -0.214684 9 
0.608231 0.0383866 -0.28558 7 
0.450488 0.042442 -0.210324 8 
0.450549 0.0424382 -0.209404 7 
0.458744 0.0422252 -0.212257 9 
0.19501 0.0490155 -0.0909664 8 
0.460103 0.0421858 -0.210956 9 
0.450629 0.0424277 -0.205657 9 
0.22877 0.048142 -0.104596 7 
0.177999 0.0494508 -0.0819468 8 
0.453723 0.0423415 -0.204224 13 
0.457195 0.0422499 -0.204836 8 
0.452538 0.0423678 -0.2018 10 
0.453917 0.0423301 -0.201471 11 
0.463341 0.042085 -0.2047 11 
0.531301 0.0403302 -0.233731 6 
0.460152 0.0421629 -0.201374 10 
0.46063 0.0421484 -0.200627 9 
0.460402 0.0421521 -0.199572 12 
0.456906 0.0422402 -0.197106 7 
0.45983 0.0421626 -0.197419 11 
0.459839 0.0421602 -0.196472 14 
0.456992 0.0422316 -0.194309 17 
0.45579 0.0422605 -0.192855 11 
0.458523 0.0421878 -0.193069 13 
0.458942 0.0421748 -0.1923 14 
0.456689 0.0422309 -0.190414 14 
0.461073 0.0421155 -0.191299 12 
0.457813 0.0421976 -0.189002 15 
0.456265 0.0422355 -0.187424 12 
0.456566 0.0422256 -0.186612 16 
0.458141 0.0421828 -0.186319 15 
0.45694 0.0422117 -0.184894 16 
0.45811 0.0421793 -0.184432 14 
0.461748 0.0420831 -0.184957 14 
0.459185 0.0421473 -0.18299 16 
0.457287 0.0421943 -0.181299 14 
0.458402 0.0421633 -0.180808 20 
0.461217 0.0420883 -0.180983 18 
0.457451 0.0421838 -0.17857 22 
0.455114 0.0422422 -0.17673 15 
0.459629 0.0421231 -0.177555 26 
0.459123 0.0421341 -0.176428 22 
0.458445 0.0421496 -0.175237 23 
0.458231 0.0421531 -0.174227 21 
0.45595 0.0422101 -0.172435 18 
0.457059 0.0421793 -0.171932 18 
0.457711 0.0421603 -0.171253 25 
0.457962 0.0421517 -0.170423 22 
0.455973 0.0422012 -0.168762 21 
0.457542 0.0421584 -0.168422 23 
0.45499 0.0422226 -0.166564 20 
0.454671 0.0422288 -0.165533 25 
0.454751 0.0422247 -0.164648 26 
0.454603 0.0422264 -0.163682 27 
0.455138 0.0422105 -0.162962 30 
0.4529 0.0422666 -0.161251 28 
0.45315 0.042258 -0.160433 30 
0.452781 0.0422656 -0.159396 31 
0.455975 0.0421805 -0.159612 27 
0.454863 0.0422073 -0.158313 26 
0.453533 0.0422399 -0.156944 32 
0.45238 0.0422678 -0.155642 28 
0.451792 0.0422811 -0.154539 31 
0.451429 0.0422885 -0.153515 31 
0.452407 0.042261 -0.152949 28 
0.449378 0.0423378 -0.151029 37 
0.450625 0.0423034 -0.150554 35 
0.450543 0.0423035 -0.149633 37 
0.449467 0.0423295 -0.148384 31 
0.449663 0.0423224 -0.147558 37 
0.449142 0.0423339 -0.146497 38 
0.449891 0.0423124 -0.145852 39 
0.447779 0.0423654 -0.144281 40 
0.447047 0.0423825 -0.143162 40 
0.447844 0.0423597 -0.142534 36 
0.445701 0.0424136 -0.140972 48 
0.445897 0.0424065 -0.140155 43 
0.445769 0.0424079 -0.139238 38 
0.444508 0.0424388 -0.137969 43 
0.445622 0.0424077 -0.13744 45 
0.44528 0.0424147 -0.136459 42 
0.445748 0.0424005 -0.135728 47 
0.444115 0.0424412 -0.134359 47 
0.443188 0.0424634 -0.13321 51 
0.444297 0.0424325 -0.132674 51 
0.444066 0.0424365 -0.131736 49 
0.444802 0.0424154 -0.131086 48 
0.443181 0.0424558 -0.129741 54 
0.444075 0.0424304 -0.129137 52 
0.444276 0.0424232 -0.128329 59 
0.446362 0.0423668 -0.128063 55 
0.445 0.0424004 -0.126805 50 
0.44429 0.042417 -0.125738 53 
0.445083 0.0423943 -0.125097 52 
0.445232 0.0423885 -0.124274 54 
0.445435 0.0423812 -0.123466 52 
0.445693 0.0423725 -0.122673 59 
0.445898 0.0423652 -0.121865 58 
0.445726 0.0423677 -0.120954 62 
0.447554 0.0423179 -0.120585 62 
0.445761 0.0423629 -0.119238 60 
0.447372 0.0423188 -0.118805 67 
0.446552 0.0423383 -0.117724 64 
0.446005 0.0423507 -0.116719 70 
0.44632 0.0423405 -0.115941 70 
0.446529 0.0423331 -0.115134 72 
0.447171 0.0423143 -0.114438 68 
0.446732 0.0423239 -0.113466 68 
0.447104 0.0423122 -0.1127 64 
0.447748 0.0422934 -0.112002 68 
0.447365 0.0423015 -0.111046 74 
0.447631 0.0422926 -0.110253 76 
0.448277 0.0422737 -0.109553 82 
0.447732 0.042286 -0.10856 79 
0.449141 0.0422471 -0.108042 72 
0.44941 0.0422381 -0.107247 81 
0.44919 0.042242 -0.106334 77 
0.450225 0.0422128 -0.105719 85 
0.450115 0.0422138 -0.104832 87 
0.450771 0.0421946 -0.104124 84 
0.44984 0.0422171 -0.10305 79 
0.450004 0.0422109 -0.10223 90 
0.450114 0.042206 -0.101397 84 
0.451101 0.0421782 -0.10076 89 
0.450993 0.0421791 -0.0998768 84 
0.45105 0.0421757 -0.0990311 95 
0.451766 0.0421549 -0.0983295 90 
0.451549 0.0421586 -0.097424 88 
0.452599 0.0421291 -0.0967911 91 
0.453155 0.0421125 -0.0960501 96 
0.453713 0.0420959 -0.0953078 99 
0.45322 0.0421069 -0.0943446 95 
0.453779 0.0420903 -0.0936012 97 
0.453896 0.0420853 -0.0927657 100 
0.453958 0.0420817 -0.0919191 99 
0.453744 0.0420854 -0.0910172 97 
0.454306 0.0420687 -0.0902712 96 
0.454814 0.0420533 -0.0895129 94 
0.455436 0.042035 -0.0887753 93 
0.455724 0.0420255 -0.0879713 100 
0.455343 0.0420336 -0.0870387 97 
0.4558 0.0420196 -0.0862666 98 
0.456706 0.0419938 -0.0855777 104 
0.457335 0.0419752 -0.0848342 107 
0.457459 0.04197 -0.0839961 107 
0.457247 0.0419737 -0.0830967 115 
0.457317 0.0419699 -0.0822493 114 
0.458062 0.0419483 -0.0815224 121 
0.458076 0.041946 -0.0806644 115 
0.458655 0.0419288 -0.0799052 119 
0.459236 0.0419115 -0.0791446 116 
0.459195 0.0419106 -0.0782761 122 
0.459325 0.0419052 -0.077437 115 
0.460193 0.0418804 -0.076721 120 
0.46004 0.0418825 -0.0758338 118 
0.4604 0.041871 -0.0750311 121 
0.461159 0.041849 -0.0742918 120 
0.461521 0.0418375 -0.0734869 127 
0.461484 0.0418365 -0.0726181 126 
0.461562 0.0418325 -0.0717678 124 
0.463361 0.041783 -0.071182 125 
0.462923 0.0417926 -0.0702503 129 
0.463291 0.041781 -0.0694414 124 
0.463142 0.041783 -0.068555 125 
0.463626 0.0417682 -0.0677621 126 
0.464632 0.0417396 -0.067043 129 
0.465295 0.0417201 -0.0662716 129 
0.465843 0.0417037 -0.065482 129 
0.464941 0.0417256 -0.0644896 125 
0.465839 0.0416999 -0.0637471 131 
0.465751 0.0417002 -0.0628686 123 
0.466303 0.0416837 -0.0620759 128 
0.466507 0.0416763 -0.0612359 125 
0.46712 0.0416581 -0.0604484 133 
0.467794 0.0416383 -0.0596666 138 
0.467708 0.0416386 -0.0587872 140 
0.46774 0.0416358 -0.0579231 133 
0.468066 0.0416252 -0.0570949 138 
0.468804 0.0416037 -0.0563152 139 
0.469545 0.0415821 -0.0555335 138 
0.468638 0.0416042 -0.0545577 138 
0.468438 0.0416075 -0.0536666 138 
0.469592 0.0415749 -0.0529288 136 
0.468922 0.0415907 -0.0519851 141 
0.469372 0.0415768 -0.051166 139 
0.468939 0.0415864 -0.0502512 135 
0.468978 0.0415834 -0.0493879 135 
0.469018 0.0415803 -0.0485247 142 
0.468471 0.0415929 -0.0476022 136 
0.468218 0.0415977 -0.0467113 142 
0.467207 0.0416226 -0.0457477 141 
0.467366 0.0416164 -0.0449 135 
0.466943 0.0416257 -0.0439973 137 
0.466812 0.0416272 -0.0431232 138 
0.467089 0.0416179 -0.0422868 140 
0.466668 0.0416272 -0.0413879 141 
0.466017 0.0416426 -0.0404709 144 
0.465657 0.0416502 -0.0395812 149 
0.465704 0.041647 -0.0387266 153 
0.464366 0.0416807 -0.0377603 147 
0.464356 0.041679 -0.0369039 149 
0.463772 0.0416926 -0.0360036 159 
0.464454 0.0416725 -0.0352007 152 
0.464447 0.0416708 -0.034345 156 
0.463349 0.0416981 -0.0334116 156 
0.463114 0.0417024 -0.0325424 158 
0.462709 0.0417113 -0.0316628 159 
0.462533 0.041714 -0.0308 165 
0.462643 0.0417092 -0.0299564 165 
0.462298 0.0417165 -0.0290841 165 
0.46184 0.0417267 -0.0282065 165 
0.461213 0.0417415 -0.0273209 165 
0.461042 0.0417442 -0.0264636 167 
0.461098 0.0417408 -0.0256195 171 
0.461156 0.0417373 -0.0247753 174 
0.461213 0.0417339 -0.0239312 173 
0.459407 0.0417801 -0.0229952 173 
0.459522 0.0417752 -0.022157 176 
0.459132 0.0417837 -0.0212955 175 
0.458462 0.0417996 -0.0204235 172 
0.457795 0.0418155 -0.0195541 165 
0.457298 0.0418269 -0.018694 168 
0.457249 0.0418263 -0.0178529 169 
0.457478 0.0418183 -0.0170222 170 
0.457207 0.0418237 -0.0161736 166 
0.457549 0.0418126 -0.0153459 165 
0.457391 0.041815 -0.0145017 161 
0.457289 0.0418158 -0.0136599 164 
0.457076 0.0418196 -0.0128154 158 
0.457811 0.041798 -0.0119956 161 
0.457376 0.0418078 -0.011146 163 
0.4575 0.0418026 -0.01031 166 
0.457736 0.0417944 -0.00947571 169 
0.457693 0.0417936 -0.00863571 171 
0.45821 0.0417779 -0.00780475 169 
0.458113 0.0417786 -0.00696334 170 
0.458352 0.0417703 -0.0061264 167 
0.458145 0.041774 -0.00528402 171 
0.458217 0.0417701 -0.00444478 170 
0.458683 0.0417558 -0.00360785 175 
0.458253 0.0417654 -0.00276502 173 
0.458384 0.04176 -0.00192537 172 
0.458515 0.0417546 -0.00108524 172 
0.458535 0.0417521 -0.000244722 169 
0.45923 0.0417316 0.000597716 171 
0.459983 0.0417095 0.00144301 168 
0.459611 0.0417176 0.00228388 171 
0.460085 0.041703 0.0031304 168 
0.459714 0.041711 0.00397014 169 
0.459964 0.0417024 0.00481598 167 
0.460837 0.0416771 0.00567139 164 
0.46058 0.0416821 0.00651237 164 
0.460663 0.041678 0.0073584 165 
0.46103 0.0416662 0.0082103 163 
0.460662 0.0416742 0.00904799 164 
0.460464 0.0416776 0.00988832 169 
0.460833 0.0416658 0.0107421 171 
0.462625 0.0416158 0.0116355 177 
0.460837 0.0416619 0.012433 173 
0.462061 0.0416271 0.0133159 175 
0.46198 0.0416274 0.0141611 169 
0.462183 0.04162 0.0150159 170 
0.462217 0.0416171 0.0158654 167 
0.462537 0.0416066 0.016726 167 
0.46223 0.041613 0.0175629 171 
0.462836 0.0415947 0.0184369 164 
0.462873 0.0415918 0.0192884 166 
0.462625 0.0415966 0.0201272 169 
0.462834 0.041589 0.0209869 170 
0.463617 0.0415661 0.0218756 174 
0.463887 0.0415569 0.0227412 172 
0.464272 0.0415446 0.0236141 172 
0.465467 0.0415105 0.0245328 176 
0.465104 0.0415184 0.0253681 174 
0.464916 0.0415215 0.0262123 169 
0.465769 0.0414966 0.0271187 167 
0.466917 0.0414638 0.0280468 170 
0.467312 0.0414512 0.0289311 169 
0.467066 0.0414558 0.029775 171 
0.467347 0.0414464 0.0306537 173 
0.467862 0.0414305 0.03155 177 
0.469671 0.0413798 0.0325407 172 
0.468897 0.0413987 0.0333492 173 
0.46883 0.0413986 0.0342081 175 
0.469469 0.0413794 0.0351213 176 
0.470052 0.0413618 0.0360326 177 
0.46922 0.0413822 0.0368322 170 
0.46945 0.0413741 0.0377166 171 
0.470508 0.0413436 0.0386719 176 
0.470859 0.0413321 0.0395705 173 
0.471153 0.0413223 0.0404654 169 
0.47121 0.0413188 0.0413405 168 
0.471624 0.0413056 0.0422488 170 
0.472099 0.0412908 0.0431646 172 
0.472935 0.0412663 0.044117 169 
0.472995 0.0412627 0.0449971 172 
0.473536 0.0412461 0.0459255 172 
0.473298 0.0412505 0.0467773 172 
0.473001 0.0412566 0.0476224 172 
0.472586 0.0412658 0.0484543 168 
0.473489 0.0412395 0.0494257 165 
0.474335 0.0412146 0.0503947 169 
0.474522 0.0412076 0.0512942 171 
0.475374 0.0411825 0.0522695 170 
0.474415 0.0412065 0.0530413 172 
0.474846 0.0411929 0.0539712 173 
0.474492 0.0412004 0.0548105 175 
0.473779 0.0412177 0.0556057 173 
0.475237 0.0411763 0.056663 173 
0.475309 0.0411724 0.0575546 176 
0.475199 0.0411733 0.0584241 181 
0.475636 0.0411595 0.0593631 180 
0.476378 0.0411374 0.0603436 182 
0.476697 0.0411268 0.0612717 180 
0.4758 0.0411491 0.0620394 176 
0.475451 0.0411565 0.0628783 177 
0.477049 0.0411112 0.0639826 176 
0.477066 0.0411088 0.064874 174 
0.475805 0.0411409 0.065586 180 
