ply
format ascii 1.0
comment Created by CloudCompare v2.11 alpha (Anoia)
comment Created 2025/12/9 15:24
obj_info Generated by CloudCompare!
element vertex 1443
property float x
property float y
property float z
property float scalar_Scalar_field
end_header
0.42514 -0.312186 0.0318712 143 
0.426576 -0.311793 0.0329701 144 
0.425413 -0.312116 0.034002 142 
0.425724 -0.312032 0.0350736 146 
0.425691 -0.312044 0.0361355 143 
0.424536 -0.312365 0.0371596 147 
0.425455 -0.312114 0.0382532 147 
0.425599 -0.312077 0.0393214 145 
0.425918 -0.311992 0.0403972 145 
0.426238 -0.311906 0.0414743 145 
0.425606 -0.312083 0.0425116 144 
0.425149 -0.312211 0.0435545 151 
0.424435 -0.31241 0.0445837 152 
0.424931 -0.312276 0.0456697 154 
0.425171 -0.312213 0.0467447 157 
0.425065 -0.312244 0.0478025 159 
0.424184 -0.312489 0.0488174 152 
0.425204 -0.312211 0.0499372 152 
0.42493 -0.312289 0.0509851 149 
0.424657 -0.312367 0.0520321 147 
0.42499 -0.312277 0.0531163 152 
0.42446 -0.312426 0.0541462 149 
0.424191 -0.312502 0.0551916 157 
0.424096 -0.312531 0.0562481 161 
0.424003 -0.312559 0.0573046 157 
0.424601 -0.312397 0.0584109 158 
0.425201 -0.312234 0.05952 157 
0.424419 -0.312452 0.0605263 157 
0.423555 -0.312693 0.0615234 161 
0.423985 -0.312577 0.0626209 170 
0.424589 -0.312413 0.0637348 170 
0.423814 -0.312629 0.0647354 167 
0.423989 -0.312583 0.0658149 172 
0.424166 -0.312537 0.0668954 178 
0.423654 -0.31268 0.0679152 177 
0.421516 -0.313272 0.0687841 176 
0.419226 -0.313906 0.0696307 171 
0.414196 -0.315295 0.070207 173 
0.408934 -0.316748 0.0707414 169 
0.406346 -0.317463 0.0715217 170 
0.403944 -0.318128 0.0723111 173 
0.401724 -0.318742 0.0731102 174 
0.399522 -0.319351 0.0739031 177 
0.39734 -0.319955 0.0746898 180 
0.396652 -0.320147 0.0756313 172 
0.393955 -0.320893 0.0763475 171 
0.392357 -0.321335 0.0771776 171 
0.391761 -0.321502 0.0781171 168 
0.386557 -0.322938 0.078516 175 
0.385528 -0.323224 0.0793911 176 
0.38391 -0.323673 0.0801914 177 
0.383188 -0.323874 0.0810958 180 
0.381733 -0.324277 0.0819063 174 
0.380287 -0.324678 0.0827127 171 
0.378996 -0.325036 0.0835336 180 
0.377206 -0.325532 0.0842849 179 
0.377228 -0.325528 0.0852695 183 
0.374735 -0.326217 0.0859167 188 
0.373048 -0.326684 0.0866643 189 
0.37507 -0.326129 0.0879186 191 
0.376029 -0.325867 0.089032 193 
0.371635 -0.32708 0.0893888 189 
0.370745 -0.327328 0.0902336 186 
0.370139 -0.327497 0.091117 186 
0.367929 -0.328108 0.0917609 185 
0.367054 -0.328352 0.0925968 186 
0.368057 -0.328077 0.0937149 190 
0.367669 -0.328186 0.0946235 190 
0.366036 -0.328639 0.0953369 186 
0.365515 -0.328785 0.0962198 189 
0.36472 -0.329006 0.0970575 191 
0.363861 -0.329245 0.0978819 194 
0.363894 -0.329238 0.0988496 194 
0.364272 -0.329136 0.0998748 197 
0.363622 -0.329317 0.10073 192 
0.361 -0.330042 0.101248 197 
0.360765 -0.330109 0.102166 199 
0.359316 -0.33051 0.102874 195 
0.359488 -0.330465 0.10386 186 
0.358652 -0.330698 0.104668 187 
0.357752 -0.330948 0.105463 185 
0.355857 -0.331472 0.106074 181 
0.355366 -0.331609 0.106935 186 
0.355605 -0.331546 0.10793 186 
0.35578 -0.3315 0.108914 185 
0.355822 -0.33149 0.109874 178 
0.356397 -0.331334 0.110937 181 
0.355909 -0.331471 0.111798 178 
0.355422 -0.331607 0.112657 180 
0.355799 -0.331506 0.113685 180 
0.355779 -0.331513 0.114636 177 
0.3583 -0.330821 0.116099 173 
0.356007 -0.331455 0.116594 175 
0.357191 -0.331131 0.117794 174 
0.357308 -0.331101 0.118778 170 
0.358635 -0.330738 0.120016 175 
0.359227 -0.330577 0.121105 170 
0.360024 -0.33036 0.12224 163 
0.360689 -0.330179 0.123351 162 
0.360813 -0.330147 0.124348 166 
0.363263 -0.329475 0.125855 164 
0.361813 -0.329877 0.12651 158 
0.364345 -0.329182 0.128048 162 
0.364198 -0.329225 0.128995 156 
0.365644 -0.328829 0.130303 153 
0.366821 -0.328507 0.131555 156 
0.368426 -0.328068 0.132912 153 
0.371675 -0.327175 0.134659 158 
0.373674 -0.326627 0.136125 148 
0.375113 -0.326233 0.137468 151 
0.379338 -0.325073 0.139483 160 
0.382594 -0.324179 0.141281 149 
0.387864 -0.32273 0.143584 131 
0.390237 -0.322079 0.145198 105 
0.45125 -0.305287 0.161318 104 
0.450503 -0.305495 0.162294 129 
0.449951 -0.30565 0.163315 138 
0.451416 -0.305249 0.164847 132 
0.449044 -0.305905 0.165405 139 
0.448594 -0.306031 0.166449 132 
0.448526 -0.306053 0.167591 127 
0.448363 -0.3061 0.168709 118 
0.446777 -0.30654 0.169452 118 
0.447187 -0.30643 0.17072 120 
0.445419 -0.306919 0.171407 117 
0.445451 -0.306913 0.172573 113 
0.44473 -0.307114 0.173536 110 
0.444293 -0.307237 0.174574 121 
0.443201 -0.30754 0.175431 124 
0.442301 -0.30779 0.176337 120 
0.442151 -0.307834 0.17745 118 
0.440697 -0.308237 0.178197 119 
0.441202 -0.308101 0.179493 118 
0.439569 -0.308553 0.180182 117 
0.441003 -0.308161 0.181748 116 
0.43771 -0.30907 0.18195 118 
0.437199 -0.309213 0.182952 119 
0.436599 -0.309381 0.183927 122 
0.437839 -0.309043 0.185444 119 
0.436045 -0.309539 0.186063 115 
0.437377 -0.309175 0.187613 117 
0.434947 -0.309846 0.188034 113 
0.434356 -0.310012 0.189005 116 
0.43413 -0.310077 0.190086 112 
0.433269 -0.310316 0.190971 115 
0.431869 -0.310704 0.191686 114 
0.430565 -0.311065 0.192427 114 
0.430346 -0.311128 0.193504 115 
0.428961 -0.311512 0.194212 114 
0.42982 -0.311279 0.19563 115 
0.430413 -0.311118 0.196967 114 
0.430017 -0.31123 0.197988 115 
0.426852 -0.312103 0.19811 113 
0.427084 -0.312042 0.19933 108 
0.425364 -0.312518 0.19991 114 
0.425066 -0.312602 0.200954 107 
0.424593 -0.312735 0.201939 109 
0.425269 -0.312552 0.203308 112 
0.423298 -0.313097 0.203789 109 
0.423533 -0.313035 0.20501 103 
0.421225 -0.313672 0.205366 105 
0.421023 -0.313731 0.206436 111 
0.421258 -0.313669 0.207657 110 
0.422019 -0.313462 0.209063 105 
0.419725 -0.314096 0.209405 107 
0.419179 -0.314248 0.210354 106 
0.418808 -0.314353 0.211363 100 
0.417488 -0.314719 0.212033 99 
0.417034 -0.314846 0.213009 97 
0.416152 -0.315091 0.21383 98 
0.415616 -0.315242 0.214774 100 
0.415939 -0.315155 0.216029 102 
0.415834 -0.315187 0.217129 103 
0.415043 -0.315407 0.217978 98 
0.413829 -0.315744 0.218667 95 
0.413385 -0.315868 0.219639 90 
0.412773 -0.316039 0.220548 92 
0.412671 -0.31607 0.221647 89 
0.411046 -0.31652 0.22217 91 
0.410862 -0.316573 0.223235 93 
0.411017 -0.316533 0.224431 91 
0.409907 -0.316841 0.225141 87 
0.40981 -0.31687 0.226239 80 
0.408118 -0.317338 0.226719 74 
0.408442 -0.317252 0.227979 78 
0.408682 -0.317188 0.22921 82 
0.407834 -0.317424 0.230013 78 
0.406739 -0.317728 0.230714 81 
0.405648 -0.31803 0.231414 83 
0.404644 -0.318309 0.232145 86 
0.404388 -0.318382 0.233175 95 
0.404132 -0.318455 0.234205 93 
0.402724 -0.318845 0.234764 88 
0.401814 -0.319097 0.235524 92 
0.40189 -0.319079 0.236686 91 
0.402706 -0.318857 0.238157 81 
0.400407 -0.319492 0.238335 79 
0.401302 -0.319249 0.239841 75 
0.39796 -0.32017 0.23957 81 
0.397957 -0.320174 0.240697 81 
0.397469 -0.32031 0.241619 76 
0.396337 -0.320624 0.242265 81 
0.397788 -0.320228 0.244016 81 
0.396495 -0.320586 0.24459 83 
0.395127 -0.320964 0.245128 84 
0.394406 -0.321165 0.245943 82 
0.394007 -0.321278 0.246896 75 
0.395611 -0.32084 0.24873 68 
0.39513 -0.320974 0.249651 69 
0.392575 -0.321679 0.249649 71 
0.393774 -0.321352 0.251313 73 
0.393857 -0.321332 0.252483 74 
0.393861 -0.321334 0.253618 73 
0.393626 -0.321401 0.254647 69 
0.393551 -0.321424 0.255748 70 
0.394118 -0.321271 0.257144 66 
0.395734 -0.32083 0.259025 69 
0.390547 -0.322258 0.257774 72 
0.392301 -0.321778 0.259722 94 
0.392071 -0.321844 0.260753 63 
0.390491 -0.322281 0.261152 62 
0.391851 -0.32191 0.262928 64 
0.341419 -0.330706 -0.214721 9 
0.23425 -0.361303 -0.160884 11 
0.338607 -0.331514 -0.211259 7 
0.438605 -0.302969 -0.259214 8 
0.181045 -0.376496 -0.13274 7 
0.355113 -0.326809 -0.21617 9 
0.799152 -0.200056 -0.430224 7 
0.337472 -0.33185 -0.205562 9 
0.339264 -0.33134 -0.205394 8 
0.337075 -0.331968 -0.203325 8 
0.338029 -0.331698 -0.202755 8 
0.349584 -0.328402 -0.207184 10 
0.336232 -0.332216 -0.199866 8 
0.341888 -0.330603 -0.201493 13 
0.348751 -0.328647 -0.203659 10 
0.343248 -0.33022 -0.200068 12 
0.340382 -0.331041 -0.197718 6 
0.350679 -0.328104 -0.20142 9 
0.341216 -0.330807 -0.196056 10 
0.346388 -0.329334 -0.197385 10 
0.344932 -0.329752 -0.195694 13 
0.338314 -0.331643 -0.191687 12 
0.34565 -0.329551 -0.193962 9 
0.338122 -0.331702 -0.189578 14 
0.348764 -0.328668 -0.19329 11 
0.34335 -0.330215 -0.189867 10 
0.347163 -0.329129 -0.190523 11 
0.344264 -0.329959 -0.188229 14 
0.348291 -0.328813 -0.188961 11 
0.343873 -0.330075 -0.186021 11 
0.347759 -0.328969 -0.186679 13 
0.347295 -0.329104 -0.185456 11 
0.345057 -0.329745 -0.183479 14 
0.344797 -0.329821 -0.182352 11 
0.34155 -0.33075 -0.179966 10 
0.34943 -0.328504 -0.18227 17 
0.346384 -0.329376 -0.179973 16 
0.350037 -0.328336 -0.180477 16 
0.347911 -0.328945 -0.178575 16 
0.34352 -0.3302 -0.17575 16 
0.345615 -0.329605 -0.175602 18 
0.348789 -0.328702 -0.175884 15 
0.346943 -0.329231 -0.17412 18 
0.3502 -0.328304 -0.174422 17 
0.346103 -0.329475 -0.171761 20 
0.346374 -0.3294 -0.170862 19 
0.344291 -0.329996 -0.169027 19 
0.345148 -0.329754 -0.168364 21 
0.343273 -0.330292 -0.166624 20 
0.346872 -0.329267 -0.167031 24 
0.348068 -0.328929 -0.166491 18 
0.347947 -0.328965 -0.165438 25 
0.345269 -0.329732 -0.163403 26 
0.345477 -0.329675 -0.162484 23 
0.347193 -0.329188 -0.162137 19 
0.34349 -0.330246 -0.159737 20 
0.350194 -0.328336 -0.161264 21 
0.347497 -0.329108 -0.15925 23 
0.346921 -0.329275 -0.158036 26 
0.346609 -0.329366 -0.156923 29 
0.346102 -0.329513 -0.155741 27 
0.349008 -0.328686 -0.155809 27 
0.347379 -0.329153 -0.154218 30 
0.348844 -0.328738 -0.153752 31 
0.346759 -0.329335 -0.152006 29 
0.346582 -0.329388 -0.150951 31 
0.348306 -0.328898 -0.150572 28 
0.348654 -0.328801 -0.149701 24 
0.348017 -0.328985 -0.148484 29 
0.348366 -0.328888 -0.147615 27 
0.349111 -0.328678 -0.146882 31 
0.34808 -0.328974 -0.145534 29 
0.349617 -0.328538 -0.145072 29 
0.347143 -0.329246 -0.143238 32 
0.349795 -0.328492 -0.14315 31 
0.347191 -0.329237 -0.141283 31 
0.349975 -0.328446 -0.14123 38 
0.349208 -0.328667 -0.139986 29 
0.349168 -0.32868 -0.138986 31 
0.349128 -0.328694 -0.137987 29 
0.350739 -0.328237 -0.137528 30 
0.351629 -0.327986 -0.136829 35 
0.349013 -0.328734 -0.134997 39 
0.350823 -0.32822 -0.134594 32 
0.351913 -0.327912 -0.133955 34 
0.352009 -0.327887 -0.132999 35 
0.353774 -0.327386 -0.132566 36 
0.354206 -0.327265 -0.131712 40 
0.353768 -0.327392 -0.130587 38 
0.353265 -0.327538 -0.129444 32 
0.353565 -0.327455 -0.12855 43 
0.353197 -0.327562 -0.127452 41 
0.354434 -0.327211 -0.126842 41 
0.353799 -0.327395 -0.125665 47 
0.356388 -0.326659 -0.125451 42 
0.355143 -0.327016 -0.124095 41 
0.356392 -0.326663 -0.123476 41 
0.35724 -0.326423 -0.122736 42 
0.356668 -0.326589 -0.121582 43 
0.356706 -0.32658 -0.120607 43 
0.35688 -0.326533 -0.119671 47 
0.358003 -0.326215 -0.119004 47 
0.361256 -0.32529 -0.118932 45 
0.357812 -0.326274 -0.116977 39 
0.359214 -0.325877 -0.116381 39 
0.35661 -0.326621 -0.114677 44 
0.358073 -0.326207 -0.114095 45 
0.357913 -0.326255 -0.113068 43 
0.360273 -0.325585 -0.112721 43 
0.358477 -0.326099 -0.111254 47 
0.360226 -0.325603 -0.110736 45 
0.361575 -0.32522 -0.110106 48 
0.360456 -0.325542 -0.108826 52 
0.358595 -0.326074 -0.107359 48 
0.36021 -0.325617 -0.106794 51 
0.362317 -0.325018 -0.10635 45 
0.360787 -0.325457 -0.104976 46 
0.362693 -0.324916 -0.104472 53 
0.363712 -0.324628 -0.10374 54 
0.364319 -0.324457 -0.102903 55 
0.362366 -0.325016 -0.101437 53 
0.363317 -0.324747 -0.100685 53 
0.36213 -0.325088 -0.0994135 51 
0.365021 -0.324267 -0.0991235 55 
0.364312 -0.324471 -0.0979695 57 
0.363884 -0.324595 -0.0968835 57 
0.365678 -0.324086 -0.0963195 65 
0.366504 -0.323853 -0.0955245 61 
0.365655 -0.324097 -0.0943425 55 
0.366273 -0.323924 -0.0934985 61 
0.368086 -0.32341 -0.0929205 59 
0.368148 -0.323394 -0.0919465 59 
0.367647 -0.323539 -0.0908475 62 
0.369189 -0.323102 -0.0901995 69 
0.371168 -0.322541 -0.0896405 67 
0.369035 -0.323151 -0.0881885 67 
0.369383 -0.323054 -0.0872755 61 
0.369874 -0.322917 -0.0863915 62 
0.370863 -0.322637 -0.0856105 60 
0.371002 -0.3226 -0.0846505 67 
0.37264 -0.322136 -0.0839975 65 
0.373642 -0.321853 -0.0832095 62 
0.373139 -0.321998 -0.0821145 59 
0.373355 -0.321939 -0.0811655 63 
0.374722 -0.321552 -0.0804443 67 
0.37494 -0.321493 -0.0794931 72 
0.375664 -0.321288 -0.0786396 67 
0.374441 -0.321639 -0.0774106 74 
0.376832 -0.320961 -0.0768722 71 
0.377055 -0.3209 -0.0759181 69 
0.376479 -0.321066 -0.0748155 69 
0.376486 -0.321066 -0.0738225 73 
0.376639 -0.321025 -0.0728565 71 
0.378102 -0.32061 -0.0721261 69 
0.378842 -0.320402 -0.0712617 71 
0.377539 -0.320776 -0.0700356 78 
0.379523 -0.320213 -0.0693867 81 
0.380343 -0.319982 -0.0685304 78 
0.380724 -0.319876 -0.0675967 78 
0.379635 -0.320188 -0.0664151 77 
0.380826 -0.319851 -0.0656167 80 
0.380915 -0.319828 -0.0646333 77 
0.382187 -0.319468 -0.0638419 77 
0.381983 -0.319529 -0.0628093 82 
0.383262 -0.319167 -0.0620128 80 
0.383653 -0.319058 -0.0610729 77 
0.384195 -0.318906 -0.0601552 74 
0.385413 -0.318562 -0.0593387 78 
0.386336 -0.318301 -0.0584736 75 
0.385683 -0.31849 -0.0573714 74 
0.38691 -0.318143 -0.0565475 73 
0.387917 -0.317859 -0.0556873 74 
0.388701 -0.317638 -0.0547919 69 
0.38888 -0.317589 -0.0538087 75 
0.388604 -0.31767 -0.0527622 73 
0.390154 -0.317231 -0.0519668 83 
0.390261 -0.317203 -0.0509711 78 
0.39098 -0.317001 -0.0500568 85 
0.393395 -0.316316 -0.049362 84 
0.391888 -0.316747 -0.0481526 87 
0.392152 -0.316674 -0.0471743 85 
0.393884 -0.316184 -0.0463787 81 
0.393225 -0.316374 -0.0452826 81 
0.396367 -0.315482 -0.0446497 81 
0.395315 -0.315784 -0.0435051 79 
0.394888 -0.315908 -0.0424383 86 
0.396877 -0.315344 -0.0416519 86 
0.398331 -0.314933 -0.0407974 85 
0.398925 -0.314766 -0.0398419 83 
0.400154 -0.314419 -0.0389539 82 
0.400754 -0.31425 -0.0379938 84 
0.402713 -0.313695 -0.0371751 75 
0.403 -0.313616 -0.0361759 86 
0.404172 -0.313285 -0.0352659 82 
0.40358 -0.313456 -0.0341756 80 
0.405968 -0.312779 -0.0333793 92 
0.405858 -0.312812 -0.0323348 94 
0.408595 -0.312036 -0.0315581 95 
0.408569 -0.312046 -0.030517 92 
0.408299 -0.312125 -0.0294544 96 
0.408601 -0.312042 -0.0284435 92 
0.410217 -0.311584 -0.0275448 92 
0.410442 -0.311523 -0.026523 97 
0.410503 -0.311508 -0.0254871 106 
0.411637 -0.311187 -0.0245374 114 
0.411041 -0.311359 -0.0234479 115 
0.411436 -0.31125 -0.0224367 113 
0.410925 -0.311397 -0.0213568 114 
0.411322 -0.311287 -0.0203449 111 
0.411391 -0.31127 -0.0193085 122 
0.411708 -0.311182 -0.0182891 121 
0.412193 -0.311046 -0.0172798 125 
0.413344 -0.310722 -0.0163121 126 
0.413334 -0.310727 -0.0152671 126 
0.414743 -0.310328 -0.0143087 126 
0.413569 -0.310665 -0.0131928 124 
0.415399 -0.310147 -0.0122529 128 
0.414475 -0.310412 -0.0111543 132 
0.415057 -0.310249 -0.0101396 133 
0.415138 -0.310228 -0.00909712 134 
0.415556 -0.310112 -0.00807102 137 
0.415305 -0.310186 -0.00701182 140 
0.415977 -0.309997 -0.00599562 141 
0.416568 -0.309831 -0.00497352 136 
0.417245 -0.309641 -0.00395282 130 
0.416745 -0.309786 -0.00288292 129 
0.417848 -0.309475 -0.00187552 125 
0.418109 -0.309403 -0.000833824 129 
0.418626 -0.309258 0.000200076 128 
0.418721 -0.309234 0.00124938 128 
0.419242 -0.309088 0.00228618 131 
0.419509 -0.309015 0.00333198 134 
0.419779 -0.30894 0.00437878 134 
0.420475 -0.308745 0.00541608 130 
0.420492 -0.308742 0.00647118 136 
0.420937 -0.308618 0.00751758 136 
0.421469 -0.30847 0.00856408 135 
0.420721 -0.308685 0.00963364 133 
0.421426 -0.308487 0.0106791 136 
0.421364 -0.308507 0.011737 135 
0.422245 -0.308259 0.0127845 132 
0.422959 -0.308058 0.0138368 135 
0.423417 -0.307931 0.0148937 137 
0.423187 -0.307999 0.0159556 137 
0.424858 -0.307526 0.017011 135 
0.424543 -0.307618 0.0180749 135 
0.424229 -0.30771 0.0191376 138 
0.425389 -0.307382 0.0202033 140 
0.425685 -0.307301 0.0212694 146 
0.425461 -0.307367 0.0223331 141 
0.424892 -0.307531 0.023393 138 
0.425278 -0.307424 0.0244608 132 
0.425405 -0.30739 0.025527 136 
0.426404 -0.307109 0.0266062 134 
0.426883 -0.306975 0.0276809 135 
0.426143 -0.307188 0.0287351 133 
0.426712 -0.307029 0.0298131 136 
0.426498 -0.307092 0.0308759 138 
0.425676 -0.307328 0.0319234 144 
0.427733 -0.306746 0.0330427 148 
0.428398 -0.30656 0.0341311 151 
0.427049 -0.306945 0.035162 150 
0.427716 -0.306759 0.0362519 150 
0.427771 -0.306745 0.0373238 146 
0.427215 -0.306906 0.0383742 149 
0.426574 -0.30709 0.0394194 148 
0.425936 -0.307274 0.0404624 152 
0.427568 -0.306813 0.0415973 143 
0.427105 -0.306947 0.0426475 143 
0.42647 -0.30713 0.0436884 149 
0.42575 -0.307337 0.0447229 146 
0.425034 -0.307543 0.0457549 142 
0.425795 -0.307329 0.04686 156 
0.425689 -0.307362 0.0479221 154 
0.42698 -0.306998 0.0490608 156 
0.425655 -0.307377 0.0500557 153 
0.425814 -0.307334 0.0511331 156 
0.425627 -0.30739 0.0521902 157 
0.425701 -0.307371 0.0532632 156 
0.425429 -0.307451 0.0543142 159 
0.425506 -0.307432 0.0553877 159 
0.427505 -0.306866 0.0565936 159 
0.425316 -0.307491 0.057512 156 
0.42505 -0.307569 0.0585614 157 
0.424524 -0.307721 0.0595908 154 
0.423829 -0.307921 0.0606054 153 
0.424519 -0.307727 0.0617261 162 
0.425039 -0.307582 0.062836 157 
0.423999 -0.30788 0.06382 154 
0.423654 -0.30798 0.0648587 156 
0.423485 -0.308031 0.0659113 163 
0.422454 -0.308326 0.0668879 158 
0.422459 -0.308327 0.0679539 151 
0.417942 -0.309613 0.0686045 153 
0.411756 -0.311373 0.0690813 159 
0.408638 -0.312261 0.0698283 162 
0.404107 -0.313551 0.0704253 172 
0.400285 -0.314639 0.0710759 168 
0.399346 -0.314909 0.0720046 175 
0.395905 -0.315888 0.0726711 173 
0.393512 -0.316571 0.073435 179 
0.392061 -0.316985 0.0742911 173 
0.388642 -0.317959 0.0749266 166 
0.385417 -0.318877 0.0755709 160 
0.383716 -0.319363 0.0763754 168 
0.382766 -0.319635 0.0772602 171 
0.382634 -0.319675 0.0782373 177 
0.379341 -0.320613 0.0788379 171 
0.377683 -0.321086 0.0796239 175 
0.374884 -0.321883 0.0802637 174 
0.373613 -0.322246 0.0810836 173 
0.371994 -0.322708 0.0818548 177 
0.370952 -0.323007 0.0826942 172 
0.36893 -0.323583 0.083402 174 
0.368321 -0.323759 0.0842896 171 
0.368063 -0.323834 0.0852226 172 
0.368015 -0.32385 0.0861836 179 
0.36602 -0.324419 0.0868751 189 
0.366113 -0.324395 0.0878525 191 
0.364893 -0.324744 0.0886435 187 
0.361831 -0.325615 0.0891643 189 
0.36213 -0.325533 0.0901653 190 
0.36243 -0.32545 0.0911681 194 
0.360754 -0.325928 0.0918756 191 
0.361462 -0.325729 0.0929398 191 
0.3602 -0.32609 0.0937035 189 
0.357534 -0.326849 0.0942434 192 
0.357765 -0.326786 0.0952313 191 
0.358333 -0.326626 0.0962745 194 
0.357425 -0.326887 0.0970811 194 
0.358061 -0.326708 0.0981379 195 
0.35542 -0.32746 0.0986539 191 
0.354128 -0.32783 0.0993863 198 
0.354758 -0.327653 0.100441 199 
0.354859 -0.327626 0.101407 196 
0.353307 -0.328069 0.102087 197 
0.3517 -0.328528 0.102752 192 
0.35069 -0.328817 0.103517 189 
0.34975 -0.329086 0.104291 186 
0.349982 -0.329022 0.105274 183 
0.349956 -0.329032 0.106212 189 
0.350516 -0.328875 0.107259 188 
0.350035 -0.329014 0.108113 185 
0.34988 -0.32906 0.109028 184 
0.349661 -0.329124 0.10993 179 
0.349573 -0.329151 0.110857 184 
0.349551 -0.32916 0.111798 183 
0.349204 -0.32926 0.112674 181 
0.347501 -0.329746 0.11328 182 
0.349034 -0.329313 0.11453 180 
0.3496 -0.329155 0.115591 178 
0.349842 -0.329088 0.116588 177 
0.349499 -0.329188 0.117465 174 
0.348897 -0.329361 0.118288 170 
0.34927 -0.329257 0.119314 173 
0.349646 -0.329153 0.120343 167 
0.350349 -0.328956 0.121444 167 
0.351778 -0.328552 0.122707 164 
0.352292 -0.328409 0.123775 162 
0.354266 -0.327851 0.125169 167 
0.353458 -0.328082 0.125951 168 
0.355111 -0.327615 0.127284 160 
0.355436 -0.327526 0.128322 154 
0.355829 -0.327416 0.129378 156 
0.357974 -0.32681 0.130841 157 
0.35878 -0.326583 0.132001 157 
0.359658 -0.326336 0.133182 146 
0.361636 -0.325777 0.134629 147 
0.366558 -0.324383 0.136788 142 
0.368527 -0.323827 0.138255 148 
0.371584 -0.322962 0.139995 147 
0.374391 -0.322167 0.141688 136 
0.375482 -0.32186 0.142967 109 
0.451707 -0.300235 0.163015 121 
0.451731 -0.300231 0.164187 136 
0.451177 -0.300391 0.165214 138 
0.450721 -0.300523 0.166264 136 
0.449113 -0.300982 0.167016 137 
0.448758 -0.301085 0.168088 127 
0.448787 -0.30108 0.16926 128 
0.447002 -0.301589 0.169954 124 
0.447319 -0.301502 0.1712 115 
0.446303 -0.301792 0.172092 111 
0.445482 -0.302028 0.173033 111 
0.444191 -0.302397 0.173843 111 
0.444321 -0.302363 0.175039 112 
0.444262 -0.302382 0.176184 110 
0.441947 -0.303042 0.176701 118 
0.441328 -0.30322 0.177686 123 
0.440899 -0.303344 0.178722 125 
0.441126 -0.303283 0.179944 125 
0.441447 -0.303195 0.181194 123 
0.439994 -0.303609 0.181935 122 
0.440222 -0.303547 0.18316 126 
0.440826 -0.303379 0.184496 115 
0.437616 -0.304292 0.184712 119 
0.438495 -0.304046 0.186128 111 
0.436506 -0.304612 0.186693 114 
0.435908 -0.304785 0.187669 118 
0.435679 -0.304852 0.188754 115 
0.434901 -0.305076 0.189672 115 
0.433852 -0.305376 0.190505 114 
0.43381 -0.305391 0.191645 109 
0.432402 -0.305793 0.192362 117 
0.430911 -0.306218 0.193047 114 
0.431687 -0.306001 0.194442 120 
0.42993 -0.306502 0.195037 114 
0.429802 -0.306541 0.196146 109 
0.429766 -0.306554 0.197285 112 
0.42892 -0.306796 0.198162 110 
0.426914 -0.307368 0.19866 109 
0.427595 -0.307177 0.20003 104 
0.426579 -0.307468 0.200845 112 
0.425923 -0.307657 0.201776 107 
0.425091 -0.307895 0.202646 108 
0.425061 -0.307907 0.203783 111 
0.423879 -0.308244 0.204532 109 
0.423408 -0.30838 0.205519 109 
0.422939 -0.308516 0.206504 108 
0.422559 -0.308627 0.20752 118 
0.421214 -0.309011 0.208201 109 
0.42075 -0.309145 0.209185 106 
0.420638 -0.309179 0.21029 112 
0.419565 -0.309486 0.211057 103 
0.41928 -0.30957 0.2121 98 
0.418561 -0.309776 0.212989 96 
0.417671 -0.310031 0.213813 95 
0.417823 -0.309991 0.215011 96 
0.41547 -0.31066 0.215303 98 
0.416571 -0.310351 0.216844 99 
0.413972 -0.31109 0.217035 88 
0.416707 -0.310318 0.219182 92 
0.414707 -0.310887 0.219586 82 
0.413918 -0.311114 0.220435 92 
0.413389 -0.311266 0.221378 85 
0.412604 -0.311491 0.222224 91 
0.411483 -0.311812 0.22294 94 
0.411214 -0.311891 0.223977 94 
0.411795 -0.311729 0.22534 85 
0.410085 -0.312216 0.225823 82 
0.409481 -0.31239 0.226729 78 
0.410061 -0.312228 0.228095 75 
0.40929 -0.31245 0.228934 80 
0.407764 -0.312885 0.229474 77 
0.406498 -0.313246 0.230112 81 
0.405904 -0.313417 0.231013 85 
0.407317 -0.313019 0.232716 84 
0.40497 -0.313687 0.232912 84 
0.405713 -0.313479 0.23435 85 
0.404374 -0.313861 0.234945 84 
0.403787 -0.31403 0.235843 88 
0.405194 -0.313634 0.23756 86 
0.405858 -0.313449 0.238975 78 
0.401871 -0.314581 0.238464 79 
0.403603 -0.314093 0.240324 78 
0.400303 -0.315031 0.240081 75 
0.4003 -0.315035 0.241216 79 
0.39997 -0.315131 0.242213 80 
0.399395 -0.315296 0.243105 77 
0.399639 -0.31523 0.244347 74 
0.398414 -0.315579 0.244958 75 
0.398577 -0.315536 0.246165 74 
0.398333 -0.315608 0.247198 69 
0.396871 -0.316025 0.247699 69 
0.397197 -0.315935 0.248979 64 
0.397199 -0.315937 0.250119 63 
0.394455 -0.316717 0.250042 64 
0.396638 -0.316101 0.252149 63 
0.396237 -0.316218 0.253111 60 
0.39681 -0.316058 0.25451 62 
0.394551 -0.316701 0.254633 63 
0.39311 -0.317111 0.255118 66 
0.394724 -0.316657 0.256992 69 
0.39457 -0.316703 0.258064 70 
0.394497 -0.316727 0.259174 67 
0.392017 -0.317432 0.259171 66 
0.394031 -0.316864 0.261247 90 
0.39404 -0.316864 0.262397 65 
0.393809 -0.316932 0.263435 66 
0.393016 -0.317159 0.264209 63 
0.349307 -0.324366 -0.219379 7 
0.334012 -0.328865 -0.210748 9 
0.019435 -0.421344 -0.0572522 9 
0.359284 -0.32144 -0.221092 7 
0.340806 -0.326875 -0.210988 10 
0.518912 -0.274519 -0.296684 7 
0.812513 -0.188211 -0.437948 6 
0.343333 -0.326139 -0.209093 14 
0.348318 -0.324677 -0.210443 8 
0.351559 -0.323727 -0.210939 8 
0.342058 -0.326522 -0.205368 11 
0.341789 -0.326603 -0.204206 9 
0.350573 -0.324024 -0.207308 11 
0.354805 -0.322782 -0.208241 8 
0.341704 -0.326636 -0.20107 7 
0.33596 -0.328326 -0.197374 14 
0.344318 -0.325872 -0.200219 14 
0.344444 -0.325837 -0.199244 10 
0.346693 -0.325179 -0.19924 10 
0.347288 -0.325006 -0.198474 12 
0.341613 -0.326677 -0.194864 9 
0.350029 -0.324206 -0.197638 11 
0.34311 -0.326242 -0.19349 9 
0.350222 -0.324154 -0.195643 14 
0.342061 -0.326555 -0.190974 12 
0.347331 -0.325008 -0.192286 13 
0.342517 -0.326426 -0.189134 8 
0.343759 -0.326063 -0.188659 12 
0.343432 -0.326161 -0.187495 11 
0.342583 -0.326413 -0.186106 16 
0.345867 -0.325451 -0.186507 15 
0.348393 -0.324711 -0.186569 12 
0.35135 -0.323844 -0.186806 9 
0.341488 -0.326745 -0.181577 12 
0.350138 -0.324205 -0.184228 14 
0.343251 -0.326231 -0.180298 14 
0.347802 -0.324897 -0.181192 14 
0.345357 -0.325617 -0.179151 22 
0.345033 -0.325715 -0.178001 17 
0.346951 -0.325154 -0.177778 15 
0.343082 -0.326293 -0.175173 19 
0.34361 -0.32614 -0.17438 17 
0.343487 -0.326179 -0.173322 14 
0.346116 -0.325409 -0.173377 18 
0.34494 -0.325756 -0.171893 19 
0.345145 -0.325699 -0.170966 21 
0.34261 -0.326446 -0.16895 21 
0.346808 -0.325215 -0.169609 22 
0.346619 -0.325273 -0.168525 21 
0.346695 -0.325253 -0.167546 22 
0.342523 -0.326481 -0.164914 20 
0.344551 -0.325887 -0.164701 22 
0.34785 -0.324921 -0.164971 20 
0.347531 -0.325017 -0.163841 26 
0.347345 -0.325074 -0.162764 24 
0.346304 -0.325382 -0.161365 24 
0.346449 -0.325342 -0.160418 25 
0.346004 -0.325475 -0.15925 28 
0.346872 -0.325222 -0.158574 23 
0.347877 -0.324929 -0.157945 26 
0.348819 -0.324655 -0.157291 22 
0.347446 -0.325061 -0.155785 24 
0.34687 -0.325232 -0.154576 20 
0.351735 -0.323806 -0.155341 25 
0.346905 -0.325226 -0.152596 28 
0.347318 -0.325108 -0.151748 26 
0.346942 -0.32522 -0.150619 30 
0.349006 -0.324616 -0.150355 28 
0.34896 -0.324632 -0.149341 26 
0.349709 -0.324415 -0.148607 29 
0.350794 -0.324098 -0.147987 25 
0.351416 -0.323918 -0.147203 28 
0.349375 -0.32452 -0.145503 25 
0.350726 -0.324126 -0.14497 32 
0.351015 -0.324043 -0.144072 26 
0.350638 -0.324156 -0.142949 28 
0.353137 -0.323425 -0.142792 31 
0.352088 -0.323735 -0.141444 31 
0.351311 -0.323965 -0.140191 33 
0.350671 -0.324156 -0.138987 33 
0.353573 -0.323306 -0.138945 34 
0.350525 -0.324203 -0.136958 31 
0.354166 -0.323137 -0.137144 33 
0.353251 -0.323407 -0.135854 34 
0.355167 -0.322847 -0.135471 33 
0.35452 -0.32304 -0.13427 36 
0.354212 -0.323132 -0.133179 33 
0.357566 -0.32215 -0.133234 36 
0.354678 -0.323 -0.131337 37 
0.353766 -0.32327 -0.130064 32 
0.354674 -0.323006 -0.129351 40 
0.355991 -0.322622 -0.128761 42 
0.355414 -0.322793 -0.127594 36 
0.356804 -0.322388 -0.12702 38 
0.35677 -0.3224 -0.126017 38 
0.356262 -0.322551 -0.124874 40 
0.356841 -0.322384 -0.124053 40 
0.356199 -0.322575 -0.122874 38 
0.358345 -0.321947 -0.122508 39 
0.359753 -0.321536 -0.121921 39 
0.358421 -0.32193 -0.120545 41 
0.360105 -0.321438 -0.120032 44 
0.361801 -0.320942 -0.119516 39 
0.360047 -0.321459 -0.118028 44 
0.360984 -0.321187 -0.117295 47 
0.358896 -0.321802 -0.115725 46 
0.360241 -0.321409 -0.115104 41 
0.360215 -0.321419 -0.114106 41 
0.360465 -0.321348 -0.113183 45 
0.364043 -0.320301 -0.113152 45 
0.365488 -0.319879 -0.112539 43 
0.362395 -0.320789 -0.110724 44 
0.36175 -0.320981 -0.109563 46 
0.362282 -0.320827 -0.108711 44 
0.366096 -0.31971 -0.108704 48 
0.366005 -0.319739 -0.107683 46 
0.36326 -0.320547 -0.10599 52 
0.364354 -0.320228 -0.105275 56 
0.364684 -0.320133 -0.104365 45 
0.366911 -0.319483 -0.103925 55 
0.367175 -0.319407 -0.102994 56 
0.366173 -0.319704 -0.101754 53 
0.366086 -0.319732 -0.100739 57 
0.367055 -0.31945 -0.0999785 58 
0.366689 -0.319559 -0.0988975 60 
0.368368 -0.319069 -0.0983015 60 
0.367295 -0.319386 -0.0970555 60 
0.367706 -0.319268 -0.0961585 61 
0.367977 -0.319191 -0.0952285 60 
0.369951 -0.318614 -0.0946855 62 
0.368663 -0.318994 -0.0933985 61 
0.370643 -0.318416 -0.0928495 61 
0.370777 -0.318379 -0.0918825 59 
0.370412 -0.318488 -0.0908065 63 
0.371119 -0.318283 -0.0899665 64 
0.374565 -0.317275 -0.0897145 59 
0.372611 -0.31785 -0.0882955 61 
0.373109 -0.317706 -0.0874035 59 
0.374331 -0.31735 -0.0866625 59 
0.374979 -0.317162 -0.0857985 61 
0.375049 -0.317144 -0.0848125 58 
0.378038 -0.31627 -0.0844215 62 
0.376354 -0.316766 -0.0830765 59 
0.37701 -0.316576 -0.0822065 57 
0.375626 -0.316985 -0.0809305 62 
0.378182 -0.316237 -0.0804332 63 
0.379656 -0.315807 -0.0797158 62 
0.378187 -0.316241 -0.0784281 71 
0.37819 -0.316242 -0.0774266 66 
0.378195 -0.316243 -0.0764257 69 
0.381373 -0.315313 -0.0760161 68 
0.380342 -0.315618 -0.0748192 69 
0.381534 -0.315271 -0.074032 71 
0.381468 -0.315293 -0.0730137 65 
0.382742 -0.314921 -0.0722351 67 
0.383424 -0.314724 -0.0713476 73 
0.383135 -0.314811 -0.0702888 67 
0.38352 -0.3147 -0.0693477 71 
0.384582 -0.314391 -0.0685208 73 
0.38407 -0.314544 -0.0674251 73 
0.386342 -0.31388 -0.0667954 64 
0.385904 -0.314011 -0.0657114 71 
0.386676 -0.313787 -0.0648262 69 
0.389279 -0.313026 -0.0642324 68 
0.387696 -0.313492 -0.0629651 69 
0.389239 -0.313042 -0.0621939 73 
0.388724 -0.313196 -0.0610989 73 
0.388136 -0.313371 -0.0599951 71 
0.388386 -0.3133 -0.0590204 70 
0.39209 -0.312216 -0.0585589 66 
0.391188 -0.312483 -0.0574073 70 
0.391521 -0.312388 -0.0564384 71 
0.393325 -0.311861 -0.0556788 71 
0.393119 -0.311924 -0.0546294 70 
0.393845 -0.311713 -0.0537106 68 
0.393874 -0.311707 -0.0526939 73 
0.39476 -0.31145 -0.0517932 74 
0.393935 -0.311694 -0.0506616 73 
0.395917 -0.311116 -0.0499019 81 
0.396107 -0.311062 -0.0489032 80 
0.398424 -0.310386 -0.0481747 75 
0.399172 -0.310169 -0.047241 72 
0.399525 -0.310068 -0.0462561 80 
0.39996 -0.309943 -0.0452801 85 
0.400476 -0.309794 -0.0443124 85 
0.400835 -0.309691 -0.0433245 90 
0.403924 -0.308788 -0.042651 89 
0.40316 -0.309014 -0.0415283 88 
0.405384 -0.308365 -0.0407423 90 
0.40551 -0.30833 -0.0397179 95 
0.40515 -0.308438 -0.038641 91 
0.406986 -0.307903 -0.037798 83 
0.409 -0.307315 -0.0369667 88 
0.409625 -0.307134 -0.0359864 93 
0.409759 -0.307098 -0.0349547 94 
0.410388 -0.306916 -0.0339715 93 
0.411933 -0.306465 -0.033074 98 
0.41307 -0.306135 -0.0321324 100 
0.413292 -0.306072 -0.0311025 96 
0.413433 -0.306033 -0.0300645 93 
0.414077 -0.305847 -0.0290706 100 
0.412467 -0.306321 -0.02788 104 
0.4147 -0.305669 -0.0270201 108 
0.413089 -0.306144 -0.025835 117 
0.41207 -0.306445 -0.0247039 119 
0.41255 -0.306307 -0.0236948 121 
0.413449 -0.306046 -0.0227162 126 
0.414269 -0.305808 -0.0217284 125 
0.412667 -0.30628 -0.0205616 123 
0.414239 -0.305822 -0.0196258 124 
0.414058 -0.305877 -0.0185635 131 
0.415052 -0.305588 -0.0175806 122 
0.414706 -0.305692 -0.016507 127 
0.415116 -0.305575 -0.0154827 124 
0.416286 -0.305234 -0.0145033 124 
0.415101 -0.305584 -0.0133803 132 
0.415095 -0.305588 -0.0123296 129 
0.41551 -0.305469 -0.0113023 129 
0.417363 -0.304929 -0.0103502 131 
0.415673 -0.305426 -0.00920902 134 
0.417275 -0.304959 -0.00823732 135 
0.41753 -0.304887 -0.00719562 135 
0.417955 -0.304765 -0.00616072 139 
0.417873 -0.304792 -0.00510232 139 
0.418302 -0.304669 -0.00406552 134 
0.418562 -0.304595 -0.00302052 136 
0.418314 -0.30467 -0.00195542 137 
0.419855 -0.304221 -0.000955625 135 
0.418841 -0.304521 0.000136776 135 
0.419703 -0.30427 0.00116508 141 
0.42117 -0.303843 0.00217858 135 
0.420669 -0.303993 0.00325288 139 
0.420255 -0.304116 0.00432298 139 
0.420613 -0.304014 0.00537258 136 
0.421831 -0.30366 0.00640438 141 
0.421936 -0.303632 0.00746348 138 
0.421611 -0.303729 0.00853088 141 
0.422752 -0.303398 0.00957279 141 
0.422515 -0.303469 0.0106391 140 
0.423489 -0.303187 0.0116892 140 
0.423687 -0.303131 0.0127513 141 
0.423973 -0.30305 0.0138134 140 
0.425217 -0.302688 0.01487 144 
0.425158 -0.302708 0.0159378 136 
0.424493 -0.302905 0.0170072 139 
0.424785 -0.302822 0.018073 137 
0.425079 -0.302739 0.01914 139 
0.425985 -0.302476 0.0202098 136 
0.42541 -0.302647 0.021276 142 
0.426145 -0.302434 0.0223489 146 
0.426533 -0.302323 0.0234217 140 
0.42666 -0.302288 0.0244932 138 
0.426788 -0.302253 0.0255652 136 
0.427093 -0.302166 0.0266404 138 
0.426786 -0.302259 0.0277067 139 
0.427358 -0.302094 0.028788 139 
0.428019 -0.301903 0.0298735 143 
0.427979 -0.301917 0.0309459 150 
0.42838 -0.301802 0.032029 150 
0.427903 -0.301944 0.0330907 147 
0.428571 -0.301751 0.0341829 147 
0.42792 -0.301945 0.0352381 149 
0.427183 -0.302163 0.0362882 152 
0.42645 -0.30238 0.0373356 150 
0.42712 -0.302186 0.0384306 149 
0.427003 -0.302223 0.0394986 147 
0.426887 -0.302259 0.0405662 150 
0.42686 -0.30227 0.0416373 149 
0.427537 -0.302074 0.0427391 145 
0.426986 -0.302238 0.0437877 145 
0.426349 -0.302427 0.0448303 148 
0.426766 -0.302308 0.0459226 151 
0.427184 -0.302188 0.0470168 154 
0.426902 -0.302273 0.0480754 157 
0.427323 -0.302152 0.0491719 163 
0.427571 -0.302082 0.0502604 159 
0.427028 -0.302243 0.0513033 159 
0.427103 -0.302224 0.0523819 158 
0.426564 -0.302384 0.0534224 159 
0.425765 -0.302621 0.0544442 158 
0.425494 -0.302703 0.0554982 156 
0.425922 -0.30258 0.0565996 159 
0.426002 -0.302559 0.0576783 160 
0.426872 -0.302307 0.0588149 156 
0.42678 -0.302336 0.0598833 159 
0.426426 -0.302442 0.0609315 153 
0.425113 -0.302829 0.0619033 154 
0.426249 -0.302499 0.0630672 153 
0.425637 -0.302681 0.0640919 151 
0.424941 -0.302887 0.0651073 150 
0.424857 -0.302914 0.0661731 152 
0.4246 -0.302992 0.0672235 147 
0.41943 -0.304507 0.0678303 138 
0.414274 -0.306018 0.0684185 133 
0.407248 -0.308077 0.0688111 148 
0.403043 -0.30931 0.0694475 161 
0.398905 -0.310523 0.0700744 166 
0.394676 -0.311763 0.0706764 171 
0.392052 -0.312533 0.0714256 181 
0.388541 -0.313563 0.0720729 176 
0.386733 -0.314094 0.0728869 181 
0.385314 -0.314511 0.073736 179 
0.382341 -0.315384 0.0744096 178 
0.379696 -0.31616 0.0751085 169 
0.37788 -0.316693 0.0758915 166 
0.376803 -0.317011 0.0767529 168 
0.373786 -0.317896 0.077383 172 
0.373156 -0.318082 0.0782864 171 
0.371035 -0.318705 0.0790067 173 
0.371265 -0.31864 0.0800088 181 
0.367965 -0.319608 0.0805705 181 
0.366376 -0.320075 0.0813371 186 
0.365006 -0.320478 0.0821259 181 
0.363919 -0.320798 0.082947 181 
0.361673 -0.321457 0.0836101 184 
0.361079 -0.321633 0.0844876 184 
0.360284 -0.321868 0.0853356 186 
0.358612 -0.322359 0.0860592 185 
0.358702 -0.322335 0.0870247 186 
0.357043 -0.322823 0.0877412 186 
0.355662 -0.323229 0.0884918 191 
0.355553 -0.323263 0.089424 185 
0.355778 -0.3232 0.0904059 191 
0.355138 -0.323389 0.0912587 187 
0.352779 -0.324081 0.0918472 184 
0.352147 -0.324268 0.0926938 188 
0.350144 -0.324856 0.0933237 195 
0.349455 -0.32506 0.0941545 191 
0.350462 -0.324768 0.0952548 191 
0.347827 -0.32554 0.0957684 185 
0.348699 -0.325288 0.0968482 194 
0.348277 -0.325413 0.0977166 190 
0.348762 -0.325274 0.0987366 191 
0.3486 -0.325323 0.0996487 196 
0.345988 -0.326089 0.100139 196 
0.347179 -0.325743 0.101281 195 
0.344009 -0.326672 0.101661 192 
0.343281 -0.326888 0.102464 189 
0.34357 -0.326805 0.103447 183 
0.343797 -0.326741 0.10442 190 
0.343961 -0.326695 0.105384 186 
0.343616 -0.326798 0.106254 184 
0.341564 -0.3274 0.106802 191 
0.343566 -0.326817 0.108112 186 
0.342273 -0.327198 0.108799 188 
0.34301 -0.326984 0.109874 186 
0.34128 -0.327492 0.11047 187 
0.343157 -0.326946 0.111773 182 
0.341174 -0.327528 0.112313 179 
0.34109 -0.327554 0.113228 177 
0.342398 -0.327174 0.114428 183 
0.343204 -0.326941 0.11553 176 
0.343313 -0.326911 0.11649 176 
0.34228 -0.327215 0.117212 181 
0.340999 -0.327592 0.117879 177 
0.341614 -0.327414 0.118945 177 
0.341599 -0.327421 0.119879 169 
0.343361 -0.326908 0.1212 172 
0.343156 -0.32697 0.122097 165 
0.344292 -0.32664 0.123291 164 
0.344985 -0.32644 0.124391 162 
0.345488 -0.326295 0.125451 161 
0.346381 -0.326037 0.126602 165 
0.347927 -0.325587 0.127908 164 
0.348635 -0.325382 0.129027 163 
0.349739 -0.325062 0.130241 157 
0.350258 -0.324912 0.131323 156 
0.351768 -0.324473 0.132643 152 
0.353423 -0.323992 0.134004 156 
0.354087 -0.3238 0.135133 157 
0.357382 -0.322839 0.136907 151 
0.358399 -0.322544 0.138135 140 
0.364256 -0.320835 0.140568 130 
0.369333 -0.319353 0.14283 113 
0.370622 -0.318979 0.144158 107 
0.454312 -0.294524 0.16645 98 
0.45035 -0.295685 0.16661 120 
0.449701 -0.295877 0.167612 127 
0.449344 -0.295985 0.168688 131 
0.449567 -0.295922 0.169916 129 
0.448731 -0.296169 0.170865 121 
0.447132 -0.296639 0.171608 115 
0.444877 -0.297301 0.172169 117 
0.444721 -0.297349 0.173289 114 
0.444186 -0.297508 0.174307 113 
0.44479 -0.297334 0.175637 110 
0.444447 -0.297437 0.176707 111 
0.444105 -0.29754 0.177777 113 
0.441972 -0.298166 0.178344 114 
0.441822 -0.298213 0.179464 120 
0.441111 -0.298423 0.180424 120 
0.441058 -0.298441 0.181571 119 
0.441664 -0.298267 0.182908 128 
0.439644 -0.29886 0.183486 121 
0.440062 -0.29874 0.18477 120 
0.438334 -0.299248 0.185423 123 
0.438845 -0.299101 0.186736 124 
0.43657 -0.299769 0.187217 116 
0.434956 -0.300243 0.18789 119 
0.434727 -0.300313 0.188977 118 
0.43496 -0.300247 0.190205 110 
0.43409 -0.300504 0.191095 113 
0.433498 -0.30068 0.192069 115 
0.432725 -0.300908 0.192986 116 
0.430683 -0.301508 0.193501 114 
0.432008 -0.301123 0.195072 110 
0.430969 -0.30143 0.195899 110 
0.428489 -0.302156 0.196261 113 
0.430532 -0.301562 0.19807 110 
0.428417 -0.302183 0.198541 109 
0.428834 -0.302064 0.199829 107 
0.425927 -0.302916 0.20003 110 
0.42661 -0.302719 0.201405 113 
0.425862 -0.30294 0.202309 111 
0.424405 -0.303368 0.202973 114 
0.425712 -0.302989 0.204561 111 
0.424968 -0.303209 0.205462 108 
0.424406 -0.303376 0.206423 109 
0.424645 -0.303309 0.207657 108 
0.423818 -0.303553 0.208525 111 
0.422286 -0.304003 0.209146 115 
0.421819 -0.304142 0.210134 111 
0.421619 -0.304203 0.211213 108 
0.421066 -0.304367 0.212169 98 
0.421308 -0.3043 0.213406 99 
0.419792 -0.304745 0.214016 103 
0.418458 -0.305137 0.214687 96 
0.417566 -0.3054 0.215513 102 
0.416677 -0.305663 0.216337 96 
0.416398 -0.305747 0.217381 100 
0.416987 -0.305578 0.218744 101 
0.414891 -0.306192 0.219119 88 
0.416866 -0.305618 0.220998 90 
0.415635 -0.30598 0.221689 85 
0.416053 -0.305861 0.222995 90 
0.414741 -0.306247 0.223649 87 
0.413607 -0.30658 0.224368 86 
0.411965 -0.307062 0.224888 91 
0.410503 -0.307492 0.225471 88 
0.409811 -0.307697 0.226347 87 
0.410905 -0.30738 0.227914 79 
0.409703 -0.307734 0.228591 71 
0.410798 -0.307417 0.230166 78 
0.409429 -0.307819 0.230773 78 
0.407476 -0.308392 0.231143 83 
0.408226 -0.308175 0.232586 79 
0.406618 -0.308648 0.233086 85 
0.406275 -0.30875 0.23409 88 
0.405765 -0.308902 0.235027 84 
0.406598 -0.308661 0.23651 83 
0.405 -0.309131 0.237002 89 
0.404494 -0.309281 0.237937 86 
0.405075 -0.309114 0.239321 83 
0.404821 -0.309191 0.240362 81 
0.403317 -0.309633 0.240879 79 
0.402401 -0.309902 0.241639 75 
0.40182 -0.310075 0.242537 77 
0.402232 -0.309957 0.243855 74 
0.401404 -0.310202 0.244647 77 
0.401156 -0.310277 0.245685 77 
0.402565 -0.309868 0.247438 72 
0.401903 -0.310064 0.248301 68 
0.40174 -0.310114 0.249379 69 
0.400172 -0.310575 0.249843 62 
0.399188 -0.310864 0.250557 71 
0.400262 -0.310554 0.252178 69 
0.397312 -0.311417 0.252018 64 
0.396583 -0.311633 0.252838 63 
0.399454 -0.310798 0.255269 69 
0.396675 -0.311611 0.255169 62 
0.397416 -0.311398 0.256651 63 
0.397423 -0.311398 0.257804 64 
0.397677 -0.311327 0.25907 64 
0.394915 -0.312135 0.258954 70 
0.394357 -0.312301 0.259844 71 
0.395095 -0.312088 0.261334 63 
0.394457 -0.312277 0.262187 89 
0.396093 -0.311803 0.264102 64 
0.39375 -0.312489 0.264155 65 
0.395384 -0.312015 0.266078 61 
0.342957 -0.322177 -0.216977 10 
0.340506 -0.322921 -0.21471 9 
0.333969 -0.324901 -0.210438 8 
0.331427 -0.325673 -0.20816 7 
0.334015 -0.324892 -0.208404 9 
0.1143 -0.391363 -0.101083 7 
0.914531 -0.149276 -0.488966 8 
0.345062 -0.321557 -0.21066 7 
0.339127 -0.323355 -0.20676 8 
0.347384 -0.32086 -0.209677 9 
0.344964 -0.321594 -0.207473 9 
0.347834 -0.320729 -0.207789 8 
0.336004 -0.32431 -0.201158 11 
0.354782 -0.318632 -0.208955 9 
0.340648 -0.32291 -0.201283 7 
0.346389 -0.321176 -0.202924 10 
0.344916 -0.321624 -0.201199 9 
0.346642 -0.321104 -0.200957 9 
0.339652 -0.323221 -0.196709 10 
0.422583 -0.29814 -0.233589 8 
0.347897 -0.320732 -0.198408 10 
0.342711 -0.322303 -0.195021 11 
0.340746 -0.322899 -0.193108 12 
0.339965 -0.323138 -0.191735 14 
0.352553 -0.319333 -0.196327 10 
0.351593 -0.319626 -0.194854 10 
0.342374 -0.322417 -0.18974 10 
0.342701 -0.32232 -0.18886 12 
0.346134 -0.321285 -0.189339 11 
0.337967 -0.323757 -0.184757 11 
0.347533 -0.320867 -0.187887 9 
0.341724 -0.322626 -0.184355 14 
0.339973 -0.323157 -0.182588 13 
0.342774 -0.322313 -0.18277 13 
0.34627 -0.321258 -0.183236 12 
0.346272 -0.32126 -0.182214 15 
0.343832 -0.322 -0.180166 17 
0.342657 -0.322358 -0.178659 13 
0.342597 -0.322378 -0.17762 15 
0.346287 -0.321265 -0.178134 15 
0.342217 -0.322498 -0.175441 16 
0.343072 -0.322242 -0.174781 18 
0.342883 -0.322301 -0.173694 16 
0.34545 -0.321528 -0.173724 14 
0.342377 -0.322459 -0.171472 21 
0.342646 -0.32238 -0.170574 24 
0.345605 -0.321488 -0.170748 19 
0.346406 -0.321248 -0.170054 23 
0.346283 -0.321288 -0.168994 23 
0.343794 -0.322043 -0.167006 21 
0.346765 -0.321147 -0.167161 20 
0.344733 -0.321763 -0.165361 17 
0.345599 -0.321504 -0.164691 21 
0.34946 -0.320339 -0.165167 21 
0.344179 -0.321938 -0.162137 24 
0.346691 -0.321181 -0.16209 17 
0.348229 -0.320719 -0.161665 25 
0.346585 -0.321218 -0.160039 20 
0.345021 -0.321693 -0.158451 27 
0.345626 -0.321512 -0.157677 27 
0.346234 -0.321331 -0.156901 28 
0.346184 -0.321348 -0.155882 24 
0.350384 -0.320081 -0.156416 25 
0.349065 -0.320482 -0.154929 27 
0.347621 -0.320921 -0.153404 25 
0.349966 -0.320215 -0.153245 29 
0.347459 -0.320975 -0.151347 24 
0.347082 -0.321091 -0.150215 26 
0.344804 -0.321782 -0.148415 26 
0.348444 -0.320684 -0.1487 29 
0.349062 -0.3205 -0.147917 27 
0.349949 -0.320234 -0.147226 23 
0.350504 -0.320069 -0.146418 26 
0.353012 -0.319313 -0.146277 26 
0.351218 -0.319858 -0.144662 26 
0.353191 -0.319264 -0.14433 33 
0.351398 -0.319808 -0.142725 31 
0.352026 -0.319621 -0.141936 33 
0.351849 -0.319676 -0.140879 30 
0.35067 -0.320035 -0.139492 32 
0.354463 -0.318891 -0.139741 28 
0.35334 -0.319233 -0.138373 33 
0.354381 -0.318921 -0.137712 30 
0.353731 -0.319119 -0.136503 35 
0.356955 -0.318148 -0.136536 30 
0.356437 -0.318307 -0.135368 32 
0.357286 -0.318052 -0.134634 32 
0.356018 -0.318438 -0.133234 29 
0.355844 -0.318493 -0.13218 36 
0.356079 -0.318424 -0.131255 33 
0.356247 -0.318376 -0.130308 31 
0.356756 -0.318224 -0.129466 34 
0.356244 -0.318382 -0.128313 39 
0.357506 -0.318002 -0.127697 31 
0.356039 -0.318448 -0.12626 38 
0.360675 -0.31705 -0.126643 40 
0.360571 -0.317084 -0.12561 37 
0.360607 -0.317075 -0.124618 37 
0.359676 -0.317359 -0.123346 41 
0.359437 -0.317433 -0.122278 41 
0.360511 -0.317111 -0.121589 41 
0.359652 -0.317373 -0.120345 41 
0.362534 -0.316505 -0.120163 38 
0.360007 -0.317271 -0.118452 40 
0.362057 -0.316654 -0.118028 44 
0.362586 -0.316496 -0.117175 44 
0.362489 -0.316528 -0.116148 43 
0.36295 -0.316391 -0.115275 43 
0.363133 -0.316338 -0.114326 40 
0.363806 -0.316137 -0.113508 46 
0.364482 -0.315936 -0.112689 44 
0.364177 -0.31603 -0.111608 40 
0.363105 -0.316356 -0.110327 42 
0.365254 -0.31571 -0.109891 48 
0.364459 -0.315952 -0.108686 49 
0.36535 -0.315685 -0.107917 48 
0.366033 -0.315481 -0.107093 47 
0.367924 -0.314913 -0.106571 54 
0.368829 -0.314642 -0.105795 53 
0.367885 -0.314929 -0.104557 56 
0.368151 -0.314851 -0.103621 53 
0.367778 -0.314966 -0.102529 51 
0.369112 -0.314566 -0.101853 48 
0.370311 -0.314206 -0.101139 50 
0.370224 -0.314235 -0.100115 53 
0.372005 -0.313699 -0.0995325 57 
0.37322 -0.313335 -0.0988115 54 
0.369966 -0.31432 -0.0970485 55 
0.371748 -0.313784 -0.0964585 57 
0.37188 -0.313747 -0.0954855 64 
0.372734 -0.313491 -0.0946765 66 
0.373013 -0.313409 -0.0937345 58 
0.373292 -0.313327 -0.0927925 57 
0.372921 -0.313442 -0.0917075 59 
0.375091 -0.312789 -0.0911785 59 
0.378977 -0.311618 -0.0910125 59 
0.375441 -0.312688 -0.0892415 55 
0.374852 -0.312868 -0.0881105 61 
0.377628 -0.312033 -0.0876905 58 
0.377329 -0.312125 -0.0866185 61 
0.37762 -0.31204 -0.0856705 58 
0.377396 -0.31211 -0.0846165 59 
0.379831 -0.311377 -0.0841025 59 
0.379978 -0.311335 -0.0831205 64 
0.381093 -0.311001 -0.0823315 60 
0.381466 -0.310891 -0.0813915 59 
0.381616 -0.310848 -0.0804081 57 
0.381543 -0.310872 -0.0793814 61 
0.383043 -0.310422 -0.0786551 63 
0.382372 -0.310627 -0.0775141 61 
0.384104 -0.310106 -0.0768246 66 
0.383282 -0.310357 -0.0756573 71 
0.383288 -0.310357 -0.074645 70 
0.38518 -0.309789 -0.0739738 60 
0.384433 -0.310017 -0.0728241 64 
0.386638 -0.309354 -0.0721996 65 
0.38642 -0.309422 -0.0711434 70 
0.386355 -0.309444 -0.070115 65 
0.387585 -0.309075 -0.0693085 68 
0.388056 -0.308935 -0.0683694 68 
0.389065 -0.308633 -0.0675188 67 
0.38862 -0.30877 -0.0664249 72 
0.389172 -0.308606 -0.0654957 68 
0.390265 -0.308278 -0.0646518 77 
0.3909 -0.308089 -0.0637312 75 
0.392856 -0.307501 -0.0630161 75 
0.391324 -0.307966 -0.0617529 79 
0.392585 -0.307588 -0.0609236 74 
0.393073 -0.307443 -0.0599731 78 
0.394188 -0.307109 -0.0591145 71 
0.393353 -0.307363 -0.057965 72 
0.395019 -0.306863 -0.0571823 75 
0.396066 -0.30655 -0.0563049 74 
0.397118 -0.306235 -0.0554244 74 
0.399368 -0.305558 -0.0547071 78 
0.400595 -0.305191 -0.0538409 78 
0.399347 -0.30557 -0.0526352 81 
0.398106 -0.305946 -0.0514357 77 
0.39949 -0.305531 -0.0505865 79 
0.401523 -0.30492 -0.0498164 86 
0.400595 -0.305203 -0.048661 80 
0.402962 -0.304491 -0.0479234 82 
0.402192 -0.304726 -0.0467891 90 
0.404007 -0.304181 -0.0459726 98 
0.405753 -0.303656 -0.0451412 96 
0.405223 -0.303819 -0.0440352 90 
0.406406 -0.303464 -0.0431301 86 
0.407022 -0.303281 -0.0421561 90 
0.40871 -0.302775 -0.0412999 99 
0.409002 -0.302689 -0.0402841 102 
0.410621 -0.302203 -0.0394107 95 
0.410918 -0.302116 -0.0383911 100 
0.410883 -0.302129 -0.0373362 96 
0.411849 -0.30184 -0.0363838 102 
0.412819 -0.30155 -0.0354285 99 
0.413962 -0.301208 -0.0344866 103 
0.413764 -0.30127 -0.0334114 107 
0.413148 -0.301458 -0.0322978 110 
0.413707 -0.301292 -0.0312956 106 
0.413764 -0.301277 -0.030246 107 
0.414832 -0.300958 -0.0292859 107 
0.414134 -0.301171 -0.0281691 111 
0.414532 -0.301053 -0.0271479 118 
0.41451 -0.301062 -0.0260908 125 
0.414574 -0.301046 -0.0250409 126 
0.414218 -0.301155 -0.023958 128 
0.415041 -0.300909 -0.0229672 129 
0.415024 -0.300917 -0.0219106 133 
0.415093 -0.300899 -0.0208605 134 
0.414741 -0.301007 -0.0197805 132 
0.414476 -0.30109 -0.018708 129 
0.416066 -0.300613 -0.0177613 125 
0.415802 -0.300695 -0.0166877 127 
0.415708 -0.300726 -0.0156262 132 
0.416715 -0.300425 -0.0146326 137 
0.416623 -0.300455 -0.0135701 133 
0.416278 -0.300561 -0.0124937 132 
0.416867 -0.300387 -0.0114705 135 
0.416609 -0.300467 -0.0103999 134 
0.417201 -0.300291 -0.00937432 137 
0.41771 -0.30014 -0.00834242 141 
0.41788 -0.300091 -0.00729252 134 
0.418308 -0.299965 -0.00625392 136 
0.420107 -0.299424 -0.00527372 141 
0.418998 -0.299762 -0.00416512 143 
0.418661 -0.299865 -0.00309172 142 
0.420037 -0.299453 -0.00208472 146 
0.419274 -0.299686 -0.000995524 139 
0.419454 -0.299634 5.84758e-05 141 
0.421183 -0.299115 0.00106348 138 
0.420334 -0.299374 0.00215268 139 
0.421035 -0.299165 0.00319488 138 
0.420877 -0.299215 0.00426218 140 
0.421755 -0.298953 0.00530368 143 
0.422031 -0.298872 0.00636198 143 
0.421876 -0.298921 0.00743008 143 
0.423455 -0.298448 0.00846548 146 
0.422436 -0.298758 0.00954994 142 
0.422718 -0.298675 0.0106114 141 
0.423001 -0.298592 0.0116739 142 
0.424766 -0.298063 0.0127215 139 
0.424356 -0.298189 0.0137951 147 
0.425082 -0.297973 0.0148593 143 
0.425461 -0.297861 0.015928 142 
0.425491 -0.297854 0.0169992 150 
0.427191 -0.297344 0.0180688 149 
0.426257 -0.297629 0.0191426 147 
0.426555 -0.297541 0.0202163 145 
0.426855 -0.297454 0.0212912 145 
0.426716 -0.297498 0.0223643 146 
0.427635 -0.297223 0.0234461 144 
0.427146 -0.297373 0.0245165 143 
0.427364 -0.29731 0.0255939 139 
0.428555 -0.296954 0.0266863 138 
0.42745 -0.297289 0.0277457 143 
0.427143 -0.297384 0.0288155 136 
0.428691 -0.29692 0.0299219 147 
0.428031 -0.297122 0.0309852 147 
0.428081 -0.297109 0.0320632 151 
0.427866 -0.297177 0.0331345 153 
0.428007 -0.297137 0.0342151 154 
