0.542932,0.215253,0.00736289,138
0.542625,0.21516,0.00842922,139
0.543197,0.215325,0.00951054,139
0.543858,0.215516,0.010596,143
0.543818,0.215502,0.0116684,150
0.544219,0.215617,0.0127515,150
0.543742,0.215475,0.0138132,147
0.54441,0.215668,0.0149054,147
0.543759,0.215474,0.0159606,149
0.543022,0.215256,0.0170107,152
0.542289,0.215039,0.0180581,150
0.542959,0.215233,0.0191531,149
0.542842,0.215196,0.0202211,147
0.542726,0.21516,0.0212887,150
0.542699,0.215149,0.0223598,149
0.543376,0.215345,0.0234616,145
0.542825,0.215181,0.0245102,145
0.542188,0.214992,0.0255528,148
0.542605,0.215111,0.0266451,151
0.543023,0.215231,0.0277393,154
0.542741,0.215146,0.0287979,157
0.543162,0.215267,0.0298944,163
0.54341,0.215337,0.0309829,159
0.542867,0.215176,0.0320258,159
0.542942,0.215195,0.0331044,158
0.542403,0.215035,0.0341449,159
0.541604,0.214798,0.0351667,158
0.541333,0.214716,0.0362207,156
0.541761,0.214839,0.0373221,159
0.541841,0.21486,0.0384008,160
0.542711,0.215112,0.0395374,156
0.542619,0.215083,0.0406058,159
0.542265,0.214977,0.041654,153
0.540952,0.21459,0.0426258,154
0.542088,0.21492,0.0437897,153
0.541476,0.214738,0.0448144,151
0.54078,0.214532,0.0458298,150
0.540696,0.214505,0.0468956,152
0.540439,0.214427,0.047946,147
0.535269,0.212912,0.0485528,138
0.530113,0.211401,0.049141,133
0.523087,0.209342,0.0495336,148
0.518882,0.208109,0.05017,161
0.514744,0.206896,0.0507969,166
0.510515,0.205656,0.0513989,171
0.507891,0.204886,0.0521481,181
0.50438,0.203856,0.0527954,176
0.502572,0.203325,0.0536094,181
0.501153,0.202908,0.0544585,179
0.49818,0.202035,0.0551321,178
0.495535,0.201259,0.055831,169
0.493719,0.200726,0.056614,166
0.492642,0.200408,0.0574754,168
0.489625,0.199523,0.0581055,172
0.488995,0.199337,0.0590089,171
0.486874,0.198714,0.0597292,173
0.487104,0.198779,0.0607313,181
0.483804,0.197811,0.061293,181
0.482215,0.197344,0.0620596,186
0.480845,0.196941,0.0628484,181
0.479758,0.196621,0.0636695,181
0.477512,0.195962,0.0643326,184
0.476918,0.195786,0.0652101,184
0.476123,0.195551,0.0660581,186
0.474451,0.19506,0.0667817,185
0.474541,0.195084,0.0677472,186
0.472882,0.194596,0.0684637,186
0.471501,0.19419,0.0692143,191
0.471392,0.194156,0.0701465,185
0.471617,0.194219,0.0711284,191
0.470977,0.19403,0.0719812,187
0.468618,0.193338,0.0725697,184
0.467986,0.193151,0.0734163,188
0.465983,0.192563,0.0740462,195
0.465294,0.192359,0.074877,191
0.466301,0.192651,0.0759773,191
0.463666,0.191879,0.0764909,185
0.464538,0.192131,0.0775707,194
0.464116,0.192006,0.0784391,190
0.464601,0.192145,0.0794591,191
0.464439,0.192096,0.0803712,196
0.461827,0.19133,0.0808613,196
0.463018,0.191676,0.082004,195
0.459848,0.190747,0.0823837,192
0.45912,0.190531,0.0831861,189
0.459409,0.190614,0.0841694,183
0.459636,0.190678,0.0851429,190
0.4598,0.190724,0.0861062,186
0.459455,0.190621,0.0869762,184
0.457403,0.190019,0.0875243,191
0.459405,0.190602,0.0888347,186
0.458112,0.190221,0.0895213,188
0.458849,0.190435,0.0905969,186
0.457119,0.189927,0.0911925,187
0.458996,0.190473,0.0924955,182
0.457013,0.189891,0.0930352,179
0.456929,0.189865,0.0939508,177
0.458237,0.190245,0.0951501,183
0.459043,0.190478,0.0962521,176
0.459152,0.190508,0.0972129,176
0.458119,0.190204,0.0979349,181
0.456838,0.189827,0.0986011,177
0.457453,0.190005,0.0996679,177
0.457438,0.189998,0.100602,169
0.4592,0.190511,0.101923,172
0.458995,0.190449,0.10282,165
0.460131,0.190779,0.104014,164
0.460824,0.190979,0.105114,162
0.461327,0.191124,0.106174,161
0.46222,0.191382,0.107325,165
0.463766,0.191832,0.108631,164
0.464474,0.192037,0.10975,163
0.465578,0.192357,0.110964,157
0.466097,0.192507,0.112046,156
0.467607,0.192946,0.113366,152
0.469262,0.193427,0.114727,156
0.469926,0.193619,0.115856,157
0.473221,0.19458,0.11763,151
0.474238,0.194875,0.118858,140
0.480095,0.196584,0.121291,130
0.485172,0.198066,0.123553,113
0.486461,0.19844,0.124881,107
0.570151,0.222895,0.147173,98
0.566189,0.221734,0.147333,120
0.56554,0.221542,0.148335,127
0.565183,0.221434,0.149411,131
0.565406,0.221497,0.150639,129
0.56457,0.22125,0.151588,121
0.562971,0.22078,0.152331,115
0.560716,0.220118,0.152892,117
0.56056,0.22007,0.154012,114
0.560025,0.219911,0.15503,113
0.560629,0.220085,0.15636,110
0.560286,0.219982,0.15743,111
0.559944,0.219879,0.1585,113
0.557811,0.219253,0.159067,114
0.557661,0.219206,0.160187,120
0.55695,0.218996,0.161147,120
0.556897,0.218978,0.162294,119
0.557503,0.219152,0.163631,128
0.555483,0.218559,0.164209,121
0.555901,0.218679,0.165493,120
0.554173,0.218171,0.166146,123
0.554684,0.218318,0.167459,124
0.552409,0.21765,0.16794,116
0.550795,0.217176,0.168613,119
0.550566,0.217106,0.1697,118
0.550799,0.217172,0.170928,110
0.549929,0.216915,0.171818,113
0.549337,0.216739,0.172792,115
0.548564,0.216511,0.173709,116
0.546522,0.215911,0.174224,114
0.547847,0.216296,0.175795,110
0.546808,0.215989,0.176622,110
0.544328,0.215263,0.176984,113
0.546371,0.215857,0.178793,110
0.544256,0.215236,0.179264,109
0.544673,0.215355,0.180552,107
0.541766,0.214503,0.180753,110
0.542449,0.2147,0.182128,113
0.541701,0.214479,0.183032,111
0.540244,0.214051,0.183696,114
0.541551,0.21443,0.185284,111
0.540807,0.21421,0.186185,108
0.540245,0.214043,0.187146,109
0.540484,0.21411,0.18838,108
0.539657,0.213866,0.189248,111
0.538125,0.213416,0.189869,115
0.537658,0.213277,0.190857,111
0.537458,0.213216,0.191936,108
0.536905,0.213052,0.192892,98
0.537147,0.213119,0.194129,99
0.535631,0.212674,0.194739,103
0.534297,0.212282,0.19541,96
0.533405,0.212019,0.196236,102
0.532516,0.211756,0.19706,96
0.532237,0.211672,0.198104,100
0.532826,0.211841,0.199467,101
0.53073,0.211227,0.199842,88
0.532705,0.211801,0.201721,90
0.531474,0.211439,0.202412,85
0.531892,0.211558,0.203718,90
0.53058,0.211172,0.204372,87
0.529446,0.210839,0.205091,86
0.527804,0.210357,0.205611,91
0.526342,0.209927,0.206194,88
0.52565,0.209722,0.20707,87
0.526744,0.210039,0.208637,79
0.525542,0.209685,0.209314,71
0.526637,0.210002,0.210889,78
0.525268,0.2096,0.211496,78
0.523315,0.209027,0.211866,83
0.524065,0.209244,0.213309,79
0.522457,0.208771,0.213809,85
0.522114,0.208669,0.214813,88
0.521604,0.208517,0.21575,84
0.522437,0.208758,0.217233,83
0.520839,0.208288,0.217725,89
0.520333,0.208138,0.21866,86
0.520914,0.208305,0.220044,83
0.52066,0.208228,0.221085,81
0.519156,0.207786,0.221602,79
0.51824,0.207517,0.222362,75
0.517659,0.207344,0.22326,77
0.518071,0.207462,0.224578,74
0.517243,0.207217,0.22537,77
0.516995,0.207142,0.226408,77
0.518404,0.207551,0.228161,72
0.517742,0.207355,0.229024,68
0.517579,0.207305,0.230102,69
0.516011,0.206844,0.230566,62
0.515027,0.206555,0.23128,71
0.516101,0.206865,0.232901,69
0.513151,0.206002,0.232741,64
0.512422,0.205786,0.233561,63
0.515293,0.206621,0.235992,69
0.512514,0.205808,0.235892,62
0.513255,0.206021,0.237374,63
0.513262,0.206021,0.238527,64
0.513516,0.206092,0.239793,64
0.510754,0.205284,0.239677,70
0.510196,0.205118,0.240567,71
0.510934,0.205331,0.242057,63
0.510296,0.205142,0.24291,89
0.511932,0.205616,0.244825,64
0.509589,0.20493,0.244878,65
0.511223,0.205404,0.246801,61
0.458796,0.195242,-0.236254,10
0.456345,0.194498,-0.233987,9
0.449808,0.192518,-0.229715,8
0.447266,0.191746,-0.227437,7
0.449854,0.192527,-0.227681,9
0.230139,0.126056,-0.12036,7
1.03037,0.368143,-0.508244,8
0.460901,0.195862,-0.229937,7
0.454966,0.194064,-0.226037,8
0.463223,0.196559,-0.228954,9
0.460803,0.195825,-0.22675,9
0.463673,0.19669,-0.227066,8
0.451843,0.193109,-0.220435,11
0.470621,0.198787,-0.228232,9
0.456487,0.194509,-0.22056,7
0.462228,0.196243,-0.222201,10
0.460755,0.195795,-0.220476,9
0.462481,0.196315,-0.220234,9
0.455491,0.194198,-0.215986,10
0.538422,0.219279,-0.252866,8
0.463736,0.196687,-0.217685,10
0.45855,0.195116,-0.214298,11
0.456585,0.19452,-0.212385,12
0.455804,0.194281,-0.211012,14
0.468392,0.198086,-0.215604,10
0.467432,0.197793,-0.214131,10
0.458213,0.195002,-0.209017,10
0.45854,0.195099,-0.208137,12
0.461973,0.196134,-0.208616,11
0.453806,0.193662,-0.204034,11
0.463372,0.196552,-0.207164,9
0.457563,0.194793,-0.203632,14
0.455812,0.194262,-0.201865,13
0.458613,0.195106,-0.202047,13
0.462109,0.196161,-0.202513,12
0.462111,0.196159,-0.201491,15
0.459671,0.195419,-0.199443,17
0.458496,0.195061,-0.197936,13
0.458436,0.195041,-0.196897,15
0.462126,0.196154,-0.197411,15
0.458056,0.194921,-0.194718,16
0.458911,0.195177,-0.194058,18
0.458722,0.195118,-0.192971,16
0.461289,0.195891,-0.193001,14
0.458216,0.19496,-0.190749,21
0.458485,0.195039,-0.189851,24
0.461444,0.195931,-0.190025,19
0.462245,0.196171,-0.189331,23
0.462122,0.196131,-0.188271,23
0.459633,0.195376,-0.186283,21
0.462604,0.196272,-0.186438,20
0.460572,0.195656,-0.184638,17
0.461438,0.195915,-0.183968,21
0.465299,0.19708,-0.184444,21
0.460018,0.195481,-0.181414,24
0.46253,0.196238,-0.181367,17
0.464068,0.1967,-0.180942,25
0.462424,0.196201,-0.179316,20
0.46086,0.195726,-0.177728,27
0.461465,0.195907,-0.176954,27
0.462073,0.196088,-0.176178,28
0.462023,0.196071,-0.175159,24
0.466223,0.197338,-0.175693,25
0.464904,0.196937,-0.174206,27
0.46346,0.196498,-0.172681,25
0.465805,0.197204,-0.172522,29
0.463298,0.196444,-0.170624,24
0.462921,0.196328,-0.169492,26
0.460643,0.195637,-0.167692,26
0.464283,0.196735,-0.167977,29
0.464901,0.196919,-0.167194,27
0.465788,0.197185,-0.166503,23
0.466343,0.19735,-0.165695,26
0.468851,0.198106,-0.165554,26
0.467057,0.197561,-0.163939,26
0.46903,0.198155,-0.163607,33
0.467237,0.197611,-0.162002,31
0.467865,0.197798,-0.161213,33
0.467688,0.197743,-0.160156,30
0.466509,0.197384,-0.158769,32
0.470302,0.198528,-0.159018,28
0.469179,0.198186,-0.15765,33
0.47022,0.198498,-0.156989,30
0.46957,0.1983,-0.15578,35
0.472794,0.199271,-0.155813,30
0.472276,0.199112,-0.154645,32
0.473125,0.199367,-0.153911,32
0.471857,0.198981,-0.152511,29
0.471683,0.198926,-0.151457,36
0.471918,0.198995,-0.150532,33
0.472086,0.199043,-0.149585,31
0.472595,0.199195,-0.148743,34
0.472083,0.199037,-0.14759,39
0.473345,0.199417,-0.146974,31
0.471878,0.198971,-0.145537,38
0.476514,0.200369,-0.14592,40
0.47641,0.200335,-0.144887,37
0.476446,0.200344,-0.143895,37
0.475515,0.20006,-0.142623,41
0.475276,0.199986,-0.141555,41
0.47635,0.200308,-0.140866,41
0.475491,0.200046,-0.139622,41
0.478373,0.200914,-0.13944,38
0.475846,0.200148,-0.137729,40
0.477896,0.200765,-0.137305,44
0.478425,0.200923,-0.136452,44
0.478328,0.200891,-0.135425,43
0.478789,0.201028,-0.134552,43
0.478972,0.201081,-0.133603,40
0.479645,0.201282,-0.132785,46
0.480321,0.201483,-0.131966,44
0.480016,0.201389,-0.130885,40
0.478944,0.201063,-0.129604,42
0.481093,0.201709,-0.129168,48
0.480298,0.201467,-0.127963,49
0.481189,0.201734,-0.127194,48
0.481872,0.201938,-0.12637,47
0.483763,0.202506,-0.125848,54
0.484668,0.202777,-0.125072,53
0.483724,0.20249,-0.123834,56
0.48399,0.202568,-0.122898,53
0.483617,0.202453,-0.121806,51
0.484951,0.202853,-0.12113,48
0.48615,0.203213,-0.120416,50
0.486063,0.203184,-0.119392,53
0.487844,0.20372,-0.11881,57
0.489059,0.204084,-0.118089,54
0.485805,0.203099,-0.116326,55
0.487587,0.203635,-0.115736,57
0.487719,0.203672,-0.114763,64
0.488573,0.203928,-0.113954,66
0.488852,0.20401,-0.113012,58
0.489131,0.204092,-0.11207,57
0.48876,0.203977,-0.110985,59
0.49093,0.20463,-0.110456,59
0.494816,0.205801,-0.11029,59
0.49128,0.204731,-0.108519,55
0.490691,0.204551,-0.107388,61
0.493467,0.205386,-0.106968,58
0.493168,0.205294,-0.105896,61
0.493459,0.205379,-0.104948,58
0.493235,0.205309,-0.103894,59
0.49567,0.206042,-0.10338,59
0.495817,0.206084,-0.102398,64
0.496932,0.206418,-0.101609,60
0.497305,0.206528,-0.100669,59
0.497455,0.206571,-0.0996856,57
0.497382,0.206547,-0.0986589,61
0.498882,0.206997,-0.0979326,63
0.498211,0.206792,-0.0967916,61
0.499943,0.207313,-0.0961021,66
0.499121,0.207062,-0.0949348,71
0.499127,0.207062,-0.0939225,70
0.501019,0.20763,-0.0932513,60
0.500272,0.207402,-0.0921016,64
0.502477,0.208065,-0.0914771,65
0.502259,0.207997,-0.0904209,70
0.502194,0.207975,-0.0893925,65
0.503424,0.208344,-0.088586,68
0.503895,0.208484,-0.0876469,68
0.504904,0.208786,-0.0867963,67
0.504459,0.208649,-0.0857024,72
0.505011,0.208813,-0.0847732,68
0.506104,0.209141,-0.0839293,77
0.506739,0.20933,-0.0830087,75
0.508695,0.209918,-0.0822936,75
0.507163,0.209453,-0.0810304,79
0.508424,0.209831,-0.0802011,74
0.508912,0.209976,-0.0792506,78
0.510027,0.21031,-0.078392,71
0.509192,0.210056,-0.0772425,72
0.510858,0.210556,-0.0764598,75
0.511905,0.210869,-0.0755824,74
0.512957,0.211184,-0.0747019,74
0.515207,0.211861,-0.0739846,78
0.516434,0.212228,-0.0731184,78
0.515186,0.211849,-0.0719127,81
0.513945,0.211473,-0.0707132,77
0.515329,0.211888,-0.069864,79
0.517362,0.212499,-0.0690939,86
0.516434,0.212216,-0.0679385,80
0.518801,0.212928,-0.0672009,82
0.518031,0.212693,-0.0660666,90
0.519846,0.213238,-0.0652501,98
0.521592,0.213763,-0.0644187,96
0.521062,0.2136,-0.0633127,90
0.522245,0.213955,-0.0624076,86
0.522861,0.214138,-0.0614336,90
0.524549,0.214644,-0.0605774,99
0.524841,0.21473,-0.0595616,102
0.52646,0.215216,-0.0586882,95
0.526757,0.215303,-0.0576686,100
0.526722,0.21529,-0.0566137,96
0.527688,0.215579,-0.0556613,102
0.528658,0.215869,-0.054706,99
0.529801,0.216211,-0.0537641,103
0.529603,0.216149,-0.0526889,107
0.528987,0.215961,-0.0515753,110
0.529546,0.216127,-0.0505731,106
0.529603,0.216142,-0.0495235,107
0.530671,0.216461,-0.0485634,107
0.529973,0.216248,-0.0474466,111
0.530371,0.216366,-0.0464254,118
0.530349,0.216357,-0.0453683,125
0.530413,0.216373,-0.0443184,126
0.530057,0.216264,-0.0432355,128
0.53088,0.21651,-0.0422447,129
0.530863,0.216502,-0.0411881,133
0.530932,0.21652,-0.040138,134
0.53058,0.216412,-0.039058,132
0.530315,0.216329,-0.0379855,129
0.531905,0.216806,-0.0370388,125
0.531641,0.216724,-0.0359652,127
0.531547,0.216693,-0.0349037,132
0.532554,0.216994,-0.0339101,137
0.532462,0.216964,-0.0328476,133
0.532117,0.216858,-0.0317712,132
0.532706,0.217032,-0.030748,135
0.532448,0.216952,-0.0296774,134
0.53304,0.217128,-0.0286518,137
0.533549,0.217279,-0.0276199,141
0.533719,0.217328,-0.02657,134
0.534147,0.217454,-0.0255314,136
0.535946,0.217995,-0.0245512,141
0.534837,0.217657,-0.0234426,143
0.5345,0.217554,-0.0223692,142
0.535876,0.217966,-0.0213622,146
0.535113,0.217733,-0.020273,139
0.535293,0.217785,-0.019219,141
0.537022,0.218304,-0.018214,138
0.536173,0.218045,-0.0171248,139
0.536874,0.218254,-0.0160826,138
0.536716,0.218204,-0.0150153,140
0.537594,0.218466,-0.0139738,143
0.53787,0.218547,-0.0129155,143
0.537715,0.218498,-0.0118474,143
0.539294,0.218971,-0.010812,146
0.538275,0.218661,-0.00972754,142
0.538557,0.218744,-0.0086661,141
0.53884,0.218827,-0.00760361,142
0.540605,0.219356,-0.00655595,139
0.540195,0.21923,-0.00548237,147
0.540921,0.219446,-0.00441816,143
0.5413,0.219558,-0.00334946,142
0.54133,0.219565,-0.00227826,150
0.54303,0.220075,-0.00120865,149
0.542096,0.21979,-0.000134863,147
0.542394,0.219878,0.00093883,145
0.542694,0.219965,0.0020137,145
0.542555,0.219921,0.0030868,146
0.543474,0.220196,0.00416858,144
0.542985,0.220046,0.00523899,143
0.543203,0.220109,0.00631642,139
0.544394,0.220465,0.00740887,138
0.543289,0.22013,0.00846822,143
0.542982,0.220035,0.00953801,136
0.54453,0.220499,0.0106444,147
0.54387,0.220297,0.0117077,147
0.54392,0.22031,0.0127857,151
0.543705,0.220242,0.013857,153
0.543846,0.220282,0.0149376,154
0.54443,0.220456,0.0160321,153
0.543336,0.220123,0.0170753,150
0.545517,0.220778,0.0182256,150
0.543184,0.220073,0.0192224,151
0.543861,0.220274,0.0203242,146
0.544984,0.22061,0.0214464,155
0.543453,0.220146,0.0224624,153
0.544134,0.220349,0.0235692,153
0.543226,0.220073,0.0246063,152
0.542763,0.219931,0.0256612,150
0.543182,0.220054,0.0267581,152
0.543514,0.220152,0.0278523,159
0.545267,0.220677,0.0290238,159
0.542772,0.219923,0.0299673,157
0.542756,0.219916,0.0310432,156
0.54327,0.220068,0.0321507,156
0.543257,0.220061,0.033228,151
0.544394,0.220401,0.0343782,151
0.542969,0.21997,0.0353662,153
0.5434,0.220097,0.0364733,152
0.544453,0.220412,0.0376252,152
0.543297,0.220061,0.0386248,159
0.543379,0.220083,0.0397103,158
0.542581,0.21984,0.0407305,157
0.54205,0.219678,0.0417683,151
0.541697,0.219569,0.0428183,151
0.541609,0.21954,0.0438886,154
0.542841,0.219908,0.0450678,156
0.542403,0.219774,0.0461108,159
0.542406,0.219772,0.0471907,157
0.541444,0.21948,0.0481854,157
0.536667,0.218039,0.0488317,147
0.527434,0.215256,0.0490485,130
0.519479,0.212857,0.04935,129
0.513648,0.211099,0.0498253,144
0.512315,0.210695,0.0507195,156
0.506564,0.208961,0.0511667,163
0.504427,0.208315,0.0519605,169
0.501251,0.207356,0.0526382,175
0.499009,0.206679,0.0534028,170
0.494795,0.205408,0.0539463,175
0.492903,0.204835,0.0547285,175
0.489869,0.203919,0.0553761,171
0.490532,0.204117,0.0564325,173
0.487528,0.20321,0.0570678,175
0.485905,0.202719,0.057854,175
0.483448,0.201977,0.0585346,175
0.482062,0.201557,0.059336,173
0.479092,0.200661,0.0599367,180
0.477114,0.200063,0.0606507,176
0.476311,0.199819,0.0615068,182
0.476466,0.199863,0.062484,183
0.473159,0.198866,0.0630079,182
0.471298,0.198303,0.0637117,181
0.470317,0.198005,0.0645275,189
0.470204,0.197969,0.0654589,189
0.470292,0.197993,0.0664182,189
0.469449,0.197737,0.067247,190
0.466764,0.196927,0.0678093,191
0.465412,0.196517,0.0685547,190
0.465631,0.196581,0.0695262,192
0.463184,0.195842,0.0701018,194
0.463014,0.195789,0.0710119,198
0.464207,0.196146,0.0721299,195
0.461969,0.19547,0.0727218,197
0.462576,0.195651,0.0737515,195
0.458569,0.194442,0.0740516,197
0.45847,0.19441,0.0749642,192
0.45907,0.194589,0.0759907,198
0.4584,0.194385,0.0768108,192
0.458938,0.194545,0.0778301,195
0.456878,0.193922,0.0784138,194
0.457541,0.19412,0.0794543,189
0.456058,0.193671,0.0801278,198
0.454649,0.193245,0.0808085,197
0.455057,0.193365,0.0818049,198
0.454527,0.193204,0.0826361,198
0.454248,0.193118,0.0835109,196
0.45149,0.192286,0.0839328,192
0.453446,0.192872,0.0852134,191
0.450574,0.192006,0.0856027,187
0.449322,0.191627,0.0862861,188
0.450093,0.191857,0.08735,185
0.450315,0.191921,0.0883117,190
0.450414,0.191949,0.0892511,186
0.450268,0.191903,0.0901433,183
0.45043,0.191949,0.0910965,185
0.450224,0.191885,0.0919771,185
0.449957,0.191803,0.0928452,185
0.450367,0.191924,0.0938509,187
0.450348,0.191916,0.0947702,185
0.450268,0.191889,0.0956773,181
0.450681,0.192012,0.0966882,184
0.449679,0.191708,0.0974013,179
0.450893,0.192071,0.0985854,178
0.450076,0.191823,0.0993358,179
0.450061,0.191816,0.100258,175
0.450231,0.191865,0.101222,172
0.451576,0.192268,0.102449,168
0.452059,0.192411,0.103487,167
0.452419,0.192517,0.104501,166
0.452781,0.192624,0.105517,164
0.454836,0.19324,0.106925,161
0.454826,0.193234,0.107862,166
0.456015,0.19359,0.109081,165
0.455943,0.193566,0.110007,160
0.457267,0.193962,0.111266,160
0.459048,0.194496,0.112641,158
0.460199,0.19484,0.113871,158
0.462525,0.195537,0.115393,159
0.463499,0.195828,0.116592,159
0.465268,0.196358,0.117994,154
0.468783,0.197413,0.11984,145
0.47073,0.197996,0.121305,152
0.476049,0.199593,0.123638,145
0.480154,0.200826,0.125681,113
0.565908,0.226616,0.148886,100
0.564969,0.22633,0.149814,114
0.564034,0.226046,0.15074,121
0.564065,0.226053,0.151919,118
0.562943,0.225713,0.152791,114
0.560966,0.225115,0.153429,112
0.559857,0.224779,0.154295,117
0.560463,0.224959,0.155627,114
0.560499,0.224967,0.156805,113
0.559584,0.224689,0.157719,108
0.558768,0.224441,0.158659,108
0.558902,0.224478,0.159864,116
0.557145,0.223947,0.160533,120
0.557374,0.224013,0.161764,127
0.556756,0.223825,0.162753,123
0.555296,0.223383,0.163496,121
0.555151,0.223337,0.164618,126
0.555008,0.223291,0.16574,123
0.552721,0.2226,0.166228,119
0.554632,0.223172,0.167959,122
0.554492,0.223127,0.169083,116
0.554166,0.223027,0.170151,118
0.550131,0.221811,0.170091,116
0.549719,0.221684,0.171125,116
0.550507,0.221918,0.172527,113
0.549635,0.221654,0.173418,111
0.547851,0.221114,0.174022,116
0.54827,0.221237,0.175312,119
0.54759,0.22103,0.176257,124
0.546913,0.220824,0.177201,118
0.546421,0.220673,0.178202,116
0.545839,0.220496,0.179173,117
0.545168,0.220291,0.180114,114
0.543686,0.219843,0.180788,109
0.543111,0.219668,0.181755,107
0.542179,0.219385,0.182602,106
0.541788,0.219265,0.183627,107
0.542297,0.219415,0.184952,105
0.542897,0.219592,0.186311,107
0.54143,0.219149,0.186973,103
0.540686,0.218922,0.187875,105
0.540033,0.218723,0.188808,105
0.540632,0.218901,0.190171,110
0.538379,0.218221,0.190545,108
0.539154,0.218451,0.191971,107
0.537798,0.218041,0.192651,108
0.536978,0.217791,0.193516,104
0.537132,0.217835,0.194725,103
0.535347,0.217296,0.195241,98
0.534711,0.217102,0.196165,94
0.533552,0.216751,0.196898,99
0.533183,0.216638,0.197915,95
0.532554,0.216446,0.198835,95
0.532536,0.216438,0.19998,94
0.530955,0.21596,0.200545,96
0.532677,0.216474,0.202337,86
0.532749,0.216493,0.203517,80
0.53056,0.215833,0.203848,83
0.529164,0.215411,0.20447,85
0.528032,0.215068,0.205189,90
0.52862,0.215242,0.206562,86
0.525867,0.214412,0.206652,82
0.529027,0.215359,0.209022,78
0.527983,0.215042,0.209769,80
0.527115,0.214779,0.210581,73
0.527106,0.214773,0.211729,66
0.525644,0.214331,0.212302,68
0.524444,0.213968,0.212975,72
0.522912,0.213505,0.213511,84
0.522904,0.2135,0.214655,85
0.52256,0.213394,0.215663,83
0.522216,0.213288,0.216671,86
0.521117,0.212955,0.21737,89
0.521533,0.213077,0.218688,85
0.520604,0.212796,0.219454,84
0.521273,0.212994,0.220879,83
0.519593,0.212486,0.221329,77
0.521521,0.213063,0.223285,77
0.519924,0.21258,0.223765,77
0.519337,0.212401,0.224667,73
0.518169,0.212048,0.22532,73
0.518335,0.212095,0.226541,69
0.517753,0.211918,0.227441,71
0.518922,0.212266,0.229097,68
0.517175,0.211738,0.229492,75
0.518343,0.212087,0.231153,74
0.517514,0.211835,0.231945,70
0.517185,0.211733,0.232954,66
0.51479,0.211011,0.233047,72
0.517862,0.211931,0.235566,67
0.514635,0.210959,0.235281,64
0.515054,0.211082,0.236622,65
0.515723,0.211281,0.238079,70
0.515152,0.211106,0.238977,63
0.516154,0.211405,0.240591,67
0.51517,0.211106,0.2413,66
0.514601,0.210933,0.242198,65
0.514364,0.210859,0.243248,62
0.515534,0.211207,0.244952,65
0.512331,0.210243,0.24462,94
0.513246,0.210515,0.246207,65
0.513836,0.210689,0.247646,62
0.514015,0.21074,0.248895,63
0.458375,0.19919,-0.236817,10
0.353874,0.166673,-0.183902,8
0.452062,0.197221,-0.231586,8
0.258102,0.136873,-0.135478,8
0.282504,0.144463,-0.146688,7
0.40611,0.182917,-0.206056,8
0.482763,0.206762,-0.242375,8
0.353171,0.166443,-0.178649,8
0.490989,0.209317,-0.244141,7
1.14397,0.41246,-0.557532,7
0.457201,0.1988,-0.225771,8
0.4549,0.198082,-0.223638,8
0.460965,0.199966,-0.225473,7
0.463374,0.200713,-0.225561,10
0.45107,0.196883,-0.218745,6
0.456835,0.198674,-0.220411,12
0.456763,0.198649,-0.219344,11
0.453956,0.197773,-0.217014,11
0.459522,0.199502,-0.218548,10
0.458326,0.199128,-0.216963,12
0.456352,0.198512,-0.215031,13
0.453104,0.197499,-0.21253,12
0.460765,0.199879,-0.214967,9
0.461028,0.199958,-0.214049,11
0.460492,0.199789,-0.212775,14
0.460689,0.199848,-0.211829,14
0.457452,0.198839,-0.209364,14
0.451436,0.196965,-0.20569,9
0.451438,0.196964,-0.20468,14
0.45719,0.19875,-0.206179,15
0.455627,0.198262,-0.204479,13
0.462014,0.200245,-0.20622,13
0.458834,0.199254,-0.203824,14
0.4649,0.201138,-0.205396,14
0.460488,0.199764,-0.202485,15
0.459631,0.199495,-0.201099,12
0.457076,0.198698,-0.199003,16
0.453457,0.19757,-0.196472,17
0.465785,0.201401,-0.200604,17
0.457417,0.198797,-0.196104,21
0.456511,0.198513,-0.194718,13
0.459723,0.199509,-0.195026,20
0.455876,0.198311,-0.19244,17
0.460924,0.199878,-0.193484,16
0.459152,0.199324,-0.191752,18
0.461071,0.199918,-0.191511,16
0.46022,0.199652,-0.190156,19
0.465357,0.201246,-0.191187,18
0.462421,0.200331,-0.189004,19
0.46243,0.200332,-0.187992,21
0.458552,0.199123,-0.185461,21
0.463716,0.200726,-0.186465,22
0.460872,0.19984,-0.18435,23
0.465546,0.201291,-0.185141,22
0.46083,0.199822,-0.182318,18
0.463627,0.200689,-0.182376,20
0.462774,0.200422,-0.181042,23
0.462389,0.2003,-0.179889,25
0.461081,0.199891,-0.178392,28
0.461096,0.199893,-0.177394,19
0.463029,0.200491,-0.177107,27
0.464243,0.200866,-0.176548,24
0.463792,0.200724,-0.175375,25
0.464075,0.200809,-0.174472,21
0.461243,0.199927,-0.172442,25
0.463975,0.200774,-0.172427,24
0.467616,0.201903,-0.172725,31
0.465012,0.201091,-0.170789,26
0.464898,0.201053,-0.169744,29
0.468347,0.202123,-0.169953,21
0.464004,0.200771,-0.167426,23
0.465693,0.201293,-0.167013,22
0.464979,0.201069,-0.165764,21
0.469718,0.20254,-0.16639,31
0.4694,0.202438,-0.165272,28
0.46854,0.202169,-0.163973,26
0.470944,0.202913,-0.163778,26
0.466096,0.201404,-0.161146,27
0.468882,0.202268,-0.161074,32
0.472248,0.203311,-0.161184,28
0.472067,0.203253,-0.160115,27
0.468822,0.202242,-0.158047,32
0.47205,0.203243,-0.158093,34
0.472763,0.203462,-0.157316,36
0.470329,0.202703,-0.155529,31
0.474889,0.204118,-0.155979,36
0.472161,0.203268,-0.154106,33
0.470824,0.20285,-0.152682,36
0.475392,0.204267,-0.153107,40
0.475422,0.204274,-0.152107,36
0.476636,0.204649,-0.151473,35
0.474654,0.20403,-0.149856,38
0.47441,0.203952,-0.148776,37
0.47757,0.204932,-0.148726,37
0.478444,0.205201,-0.147979,38
0.476313,0.204536,-0.146333,36
0.474753,0.204049,-0.144866,44
0.48045,0.205817,-0.145537,36
0.478444,0.205191,-0.14394,43
0.479465,0.205506,-0.143227,42
0.480914,0.205954,-0.142635,35
0.479752,0.20559,-0.141291,39
0.479017,0.20536,-0.140074,40
0.480324,0.205763,-0.139436,41
0.477767,0.204967,-0.137713,40
0.479349,0.205456,-0.13715,40
0.47792,0.205009,-0.135751,41
0.482473,0.206421,-0.135995,42
0.482374,0.206388,-0.134958,37
0.481708,0.206179,-0.13377,46
0.481966,0.206257,-0.132832,42
0.483006,0.206577,-0.132101,46
0.483337,0.206678,-0.13118,48
0.482743,0.206491,-0.130017,46
0.484719,0.207102,-0.129522,47
0.484767,0.207115,-0.128525,43
0.488063,0.208136,-0.128357,48
0.486088,0.20752,-0.126842,42
0.484989,0.207177,-0.125556,46
0.485687,0.207391,-0.124722,45
0.487616,0.207987,-0.12419,52
0.487235,0.207867,-0.123085,49
0.486206,0.207545,-0.121825,50
0.490253,0.208799,-0.121793,49
0.486389,0.207597,-0.119855,49
0.490073,0.208739,-0.119721,52
0.487947,0.208076,-0.118208,53
0.490481,0.208861,-0.11779,50
0.490613,0.208899,-0.116808,55
0.490162,0.208757,-0.115692,53
0.491688,0.209228,-0.115027,52
0.492338,0.209428,-0.11416,54
0.492843,0.209582,-0.113258,53
0.494016,0.209944,-0.112503,56
0.494972,0.210238,-0.111696,52
0.494369,0.210048,-0.110547,60
0.49399,0.209928,-0.10945,53
0.494799,0.210177,-0.108608,50
0.496732,0.210775,-0.108,50
0.497026,0.210864,-0.107042,55
0.498298,0.211256,-0.106287,58
0.498822,0.211417,-0.105373,57
0.49664,0.210737,-0.103909,58
0.498364,0.21127,-0.103239,55
0.49957,0.211642,-0.102459,56
0.499872,0.211733,-0.101498,55
0.499948,0.211754,-0.100491,62
0.499118,0.211494,-0.0993099,64
0.499573,0.211633,-0.0983781,60
0.503154,0.212742,-0.0980358,66
0.501401,0.212195,-0.0966822,66
0.502856,0.212645,-0.0959297,69
0.501184,0.212123,-0.0945995,60
0.502945,0.212667,-0.0938981,64
0.504026,0.213001,-0.0930685,69
0.506118,0.213647,-0.0924141,68
0.505122,0.213336,-0.0912112,70
0.505673,0.213504,-0.0902805,70
0.505994,0.213602,-0.0893087,65
0.506471,0.213747,-0.0883625,69
0.508117,0.214256,-0.0876105,73
0.507897,0.214185,-0.0865441,66
0.508849,0.214478,-0.0856703,72
0.508944,0.214505,-0.0846549,73
0.508414,0.214338,-0.0835401,77
0.510155,0.214876,-0.0827852,74
0.511119,0.215173,-0.0819031,75
0.511455,0.215275,-0.0809213,78
0.513457,0.215893,-0.0801911,79
0.513003,0.21575,-0.079086,78
0.512947,0.21573,-0.078042,77
0.51313,0.215785,-0.0770334,75
0.51587,0.216632,-0.0763916,77
0.516137,0.216713,-0.0753893,76
0.515523,0.21652,-0.0742633,78
0.516756,0.2169,-0.0733944,83
0.51832,0.217383,-0.072566,87
0.518513,0.21744,-0.0715484,87
0.518221,0.217347,-0.0704665,88
0.519796,0.217833,-0.0696286,92
0.52253,0.218679,-0.0689331,94
0.520844,0.218154,-0.0676707,93
0.522274,0.218595,-0.0668013,91
0.524207,0.219192,-0.0659883,105
0.524329,0.219227,-0.0649506,98
0.525115,0.219469,-0.0639912,100
0.525489,0.219582,-0.0629811,102
0.52745,0.220188,-0.0621511,104
0.526825,0.219992,-0.0610237,104
0.526703,0.219952,-0.0599545,101
0.527585,0.220223,-0.0589948,103
0.529482,0.220808,-0.0581397,109
0.53029,0.221057,-0.0571641,106
0.531697,0.221491,-0.0562468,104
0.529885,0.220926,-0.0550011,110
0.530022,0.220966,-0.0539547,112
0.529992,0.220954,-0.0528918,116
0.530554,0.221126,-0.0518855,115
0.531203,0.221325,-0.0508853,115
0.530498,0.221104,-0.04976,116
0.530726,0.221172,-0.0487206,118
0.530448,0.221083,-0.0476365,124
0.529834,0.22089,-0.0465254,125
0.52998,0.220933,-0.0454799,132
0.530382,0.221055,-0.0444547,131
0.529603,0.220811,-0.043335,134
0.530259,0.221012,-0.0423291,136
0.530242,0.221004,-0.0412703,137
0.531496,0.221391,-0.0403046,137
0.529706,0.220833,-0.0391178,138
0.530621,0.221114,-0.0381253,135
0.531795,0.221476,-0.0371469,139
0.532549,0.221707,-0.0361367,142
0.533051,0.22186,-0.0351077,141
0.532361,0.221644,-0.0340038,141
0.532183,0.221586,-0.0329333,140
0.532517,0.221687,-0.031893,141
0.532172,0.221578,-0.0308139,144
0.532169,0.221574,-0.0297546,142
0.532592,0.221703,-0.0287175,146
0.533358,0.221938,-0.027696,143
0.533358,0.221936,-0.026635,141
0.534044,0.222146,-0.0256056,139
0.534389,0.22225,-0.0245587,141
0.534479,0.222276,-0.0234999,139
0.53457,0.222301,-0.0224409,145
0.536383,0.222861,-0.0214471,141
0.535185,0.222487,-0.0203379,138
0.535969,0.222727,-0.0193009,140
0.535205,0.222488,-0.0182113,139
0.536422,0.222863,-0.0171845,136
0.53704,0.223052,-0.0161362,142
0.537574,0.223215,-0.0150834,143
0.53733,0.223137,-0.0140096,150
0.538649,0.223543,-0.0129718,143
0.538146,0.223385,-0.0118917,141
0.537818,0.223281,-0.0108168,144
0.539405,0.22377,-0.00977505,147
0.539166,0.223693,-0.00870041,148
0.538928,0.223617,-0.00762676,142
0.538953,0.223622,-0.00655689,143
0.540027,0.223953,-0.00549619,145
0.540931,0.22423,-0.00443016,147
0.540346,0.224047,-0.00335332,150
0.541869,0.224516,-0.00228502,147
0.541022,0.224251,-0.00120838,143
0.541406,0.224368,-0.000133889,144
0.542586,0.224731,0.000944388,147
0.542181,0.224603,0.00201963,147
0.544342,0.22527,0.00311068,151
0.542345,0.224648,0.00417395,151
0.542385,0.224658,0.00525118,145
0.543487,0.224997,0.006342,142
0.543618,0.225035,0.00742302,140
0.54553,0.225625,0.00853398,145
0.545398,0.225582,0.00961474,139
0.54491,0.225428,0.0106878,141
0.544781,0.225385,0.011767,152
0.545454,0.225592,0.0128653,151
0.544971,0.225439,0.013936,149
0.544934,0.225425,0.0150175,147
0.544365,0.225246,0.0160828,148
0.544776,0.225371,0.0171775,152
0.544121,0.225166,0.0182376,146
0.545069,0.225457,0.019353,147
0.545307,0.225528,0.0204452,149
0.544833,0.225379,0.0215101,143
0.545519,0.225589,0.0226218,137
0.544691,0.22533,0.02367,139
0.5444,0.225237,0.0247397,136
0.543933,0.225089,0.0258001,136
0.544089,0.225135,0.0268896,137
0.545404,0.22554,0.0280397,138
0.545563,0.225587,0.0291333,139
0.545635,0.225607,0.0302228,141
0.546783,0.22596,0.0313745,142
0.544534,0.22526,0.0323293,139
0.544699,0.225309,0.0334234,139
0.54531,0.225496,0.0345467,145
0.545032,0.225407,0.0356145,143
0.545201,0.225457,0.0367115,147
0.545997,0.225701,0.0378527,146
0.544562,0.225254,0.0388387,144
0.544734,0.225305,0.0399367,151
0.545623,0.225577,0.0410892,145
0.543749,0.224994,0.042033,140
0.544103,0.225101,0.0431455,146
0.543038,0.224769,0.0441448,143
0.544282,0.225152,0.0453315,150
0.54464,0.22526,0.0464482,152
0.542956,0.224736,0.0473895,149
0.54102,0.224133,0.048302,151
0.531944,0.22132,0.0485605,144
0.524898,0.219134,0.0489717,132
0.517388,0.216806,0.049312,132
0.509775,0.214445,0.0496132,144
0.505668,0.213171,0.0502301,157
0.501779,0.211964,0.0508529,160
0.498921,0.211077,0.0515664,168
0.497286,0.210568,0.0523963,168
0.492497,0.209082,0.0528855,170
0.489961,0.208294,0.0535997,171
0.488384,0.207804,0.0544099,172
0.484612,0.206633,0.0549683,168
0.484341,0.206547,0.0559114,168
0.480909,0.205482,0.0564873,169
0.477732,0.204495,0.05708,178
0.476303,0.204051,0.0578702,176
0.475565,0.20382,0.0587393,170
0.474694,0.203548,0.0595893,176
0.472743,0.202942,0.0603006,172
0.469473,0.201927,0.060836,174
0.468492,0.201621,0.0616558,177
0.467582,0.201337,0.0624815,176
0.465625,0.200728,0.063164,182
0.464075,0.200246,0.0638944,181
0.46429,0.20031,0.0648617,191
0.463788,0.200153,0.0657303,193
0.4629,0.199876,0.0665426,194
0.460404,0.199101,0.0671214,191
0.459657,0.198867,0.0679449,191
0.458594,0.198536,0.0687192,195
0.456523,0.197893,0.0693395,192
0.456547,0.197898,0.0702686,190
0.456634,0.197923,0.0712079,192
0.456406,0.19785,0.0720992,196
0.453857,0.197058,0.0726251,198
0.453445,0.196929,0.0734816,191
0.452849,0.196742,0.0743071,197
0.453374,0.196902,0.0753135,194
0.449874,0.195816,0.0756581,197
0.449717,0.195766,0.0765478,195
0.449561,0.195716,0.0774373,198
0.449284,0.195627,0.0783059,195
0.449375,0.195653,0.0792376,196
0.449283,0.195623,0.080138,193
0.446934,0.194894,0.0806394,194
0.449346,0.195638,0.0819834,195
0.445968,0.19459,0.0822903,195
0.44594,0.194579,0.0831968,200
0.445671,0.194494,0.0840591,196
0.445402,0.194409,0.084921,196
0.444774,0.194212,0.0857142,191
0.445291,0.19437,0.086724,193
0.444905,0.194248,0.0875622,189
0.444039,0.193978,0.088306,195
0.44252,0.193506,0.0889184,188
0.441782,0.193275,0.0896805,187
0.441879,0.193303,0.0906076,184
0.441264,0.193111,0.0913912,184
0.441184,0.193084,0.0922825,182
0.440986,0.19302,0.0931496,182
0.44365,0.193843,0.0946136,183
0.441838,0.19328,0.095146,187
0.441761,0.193254,0.0960404,178
0.441743,0.193246,0.0969479,181
0.442442,0.19346,0.0980111,176
0.442665,0.193527,0.0989735,182
0.442351,0.193428,0.0998189,177
0.443714,0.193847,0.101037,177
0.445269,0.194326,0.102304,174
0.444772,0.19417,0.103113,166
0.445607,0.194426,0.104225,165
0.445838,0.194496,0.105202,166
0.446313,0.194641,0.106237,164
0.447829,0.195108,0.107519,166
0.449111,0.195502,0.108752,167
0.449102,0.195497,0.109683,161
0.448602,0.19534,0.110496,164
0.451069,0.196101,0.112028,161
0.451685,0.19629,0.113118,157
0.45218,0.19644,0.11418,157
0.453618,0.196883,0.11548,155
0.456145,0.197663,0.11706,158
0.46116,0.199212,0.119281,157
0.462268,0.199552,0.120525,161
0.463644,0.199976,0.121844,158
0.46649,0.200854,0.12355,154
0.469574,0.201806,0.125331,133
0.472359,0.202665,0.127046,90
0.564299,0.231103,0.152458,103
0.563172,0.230752,0.153332,109
0.561666,0.230283,0.1541,116
0.561508,0.230232,0.155229,113
0.562988,0.230686,0.156808,111
0.560814,0.230011,0.157384,114
0.562678,0.230585,0.159075,115
0.559266,0.229527,0.159297,116
0.558544,0.229301,0.160265,117
0.557067,0.228841,0.161016,124
0.557108,0.228851,0.162196,120
0.556394,0.228627,0.16316,120
0.5554,0.228317,0.16404,118
0.554222,0.22795,0.164864,115
0.555112,0.228223,0.166292,118
0.553189,0.227625,0.166891,122
0.554265,0.227955,0.168378,116
0.553283,0.227649,0.169251,118
0.552584,0.22743,0.170208,118
0.551144,0.226982,0.170936,116
0.551008,0.226937,0.172059,115
0.549761,0.226549,0.17284,113
0.549258,0.22639,0.173848,118
0.549773,0.226547,0.175172,120
0.547982,0.22599,0.175774,115
0.54776,0.225919,0.176867,116
0.547539,0.225848,0.17796,114
0.546494,0.225522,0.178788,114
0.545363,0.225169,0.179585,114
0.544782,0.224987,0.180557,110
0.545295,0.225143,0.181886,107
0.545171,0.225102,0.183008,102
0.54296,0.224416,0.183438,107
0.54311,0.224459,0.184648,109
0.542808,0.224363,0.185708,101
0.541786,0.224044,0.186524,110
0.541037,0.22381,0.18743,112
0.5411,0.223827,0.188611,112
0.540624,0.223677,0.189608,106
0.539701,0.223389,0.190449,109
0.539229,0.22324,0.191444,110
0.538758,0.223092,0.192439,113
0.537487,0.222696,0.193151,107
0.536931,0.222522,0.194112,104
0.538422,0.22298,0.195801,101
0.536888,0.222503,0.196413,96
0.53501,0.221919,0.196894,93
0.533144,0.22134,0.197374,95
0.534707,0.22182,0.199098,98
0.53337,0.221404,0.199765,92
0.533265,0.221369,0.200882,93
0.532635,0.221172,0.201805,98
0.532269,0.221056,0.202825,87
0.530771,0.22059,0.203419,86
0.530495,0.220502,0.20447,86
0.529874,0.220307,0.205389,89
0.52986,0.2203,0.206539,86
0.528722,0.219946,0.207257,91
0.528106,0.219753,0.208173,86
0.526975,0.219401,0.208888,78
0.526107,0.219129,0.209702,80
0.525583,0.218965,0.210648,76
0.524719,0.218695,0.211459,75
0.525736,0.219007,0.213014,82
0.524447,0.218606,0.213653,78
0.525893,0.21905,0.215386,78
0.526488,0.219231,0.216782,82
0.522134,0.217883,0.216176,85
0.522721,0.218061,0.217566,84
0.5217,0.217743,0.218301,86
0.523222,0.218211,0.220079,84
0.521777,0.217762,0.220637,83
0.521859,0.217784,0.221825,83
0.521181,0.217572,0.222697,85
0.520673,0.217412,0.223639,79
0.519494,0.217045,0.224296,77
0.518655,0.216783,0.225093,80
0.518488,0.216729,0.226174,89
0.519495,0.217038,0.22776,87
0.517654,0.216466,0.228123,81
0.518576,0.216748,0.229676,79
0.518161,0.216617,0.230652,77
0.51783,0.216512,0.231665,77
0.517082,0.216278,0.232493,80
0.518509,0.216716,0.234281,74
0.516426,0.21607,0.234517,74
0.517015,0.216249,0.235938,70
0.517357,0.216352,0.237252,72
0.51837,0.216662,0.23887,66
0.516621,0.216119,0.239244,66
0.51588,0.215888,0.24007,69
0.517728,0.216456,0.242077,71
0.514985,0.215606,0.241985,68
0.515744,0.215838,0.243498,66
0.515091,0.215633,0.24436,73
0.513859,0.21525,0.244952,74
0.515199,0.215661,0.246743,91
0.515963,0.215894,0.24827,59
0.513816,0.215228,0.248427,67
0.514577,0.215461,0.249955,63
0.586199,0.244165,-0.301709,6
0.463841,0.205034,-0.239275,11
0.529326,0.225972,-0.27074,8
0.47662,0.209115,-0.243457,6
0.454701,0.202104,-0.231579,10
0.848829,0.328128,-0.424115,9
0.45188,0.201197,-0.228116,7
0.532105,0.226846,-0.266042,7
1.48696,0.532153,-0.728334,8
0.455044,0.202201,-0.226533,8
0.452105,0.201259,-0.224087,8
0.140687,0.101694,-0.076928,8
0.459914,0.203751,-0.225726,10
0.453187,0.201597,-0.221503,8
0.241222,0.13383,-0.121511,7
0.463183,0.204788,-0.224116,13
0.460348,0.20388,-0.221745,11
0.713232,0.284723,-0.338137,8
0.366289,0.173805,-0.176361,8
2.30438,0.793387,-1.06939,8
0.458526,0.203287,-0.216742,9
0.458125,0.203157,-0.215523,12
0.462862,0.204668,-0.216632,12
0.453731,0.201747,-0.211478,14
0.452115,0.201228,-0.209731,12
0.459969,0.203736,-0.212214,10
0.461167,0.204117,-0.211711,11
0.460497,0.2039,-0.210379,14
0.452309,0.201281,-0.205749,9
0.458636,0.2033,-0.207499,11
0.458834,0.203361,-0.206558,10
0.454641,0.202019,-0.203716,13
0.458505,0.203251,-0.204363,9
0.456536,0.202619,-0.202494,19
0.460163,0.203776,-0.203022,17
0.458182,0.203141,-0.201155,11
0.462972,0.204669,-0.202156,11
0.45786,0.203033,-0.198979,17
0.457864,0.203032,-0.197962,13
0.454867,0.202072,-0.195699,14
0.456565,0.202612,-0.19539,15
0.456832,0.202695,-0.194487,15
0.457361,0.202862,-0.193691,13
0.462128,0.204383,-0.194619,18
0.459083,0.203407,-0.192363,19
0.457776,0.202987,-0.190822,18
0.459494,0.203534,-0.190499,18
0.460825,0.203957,-0.190016,13
0.45813,0.203093,-0.187932,20
0.461839,0.204276,-0.188385,21
0.463318,0.204746,-0.187949,19
0.468198,0.206303,-0.188835,13
0.459223,0.203432,-0.184324,16
0.468557,0.206413,-0.186919,17
0.460896,0.203962,-0.182951,19
0.462036,0.204324,-0.182376,15
0.461849,0.204262,-0.181294,26
0.463997,0.204946,-0.181095,25
0.466503,0.205744,-0.181022,21
0.465233,0.205336,-0.179529,21
0.463704,0.204845,-0.177947,25
0.463986,0.204933,-0.177041,29
0.465613,0.20545,-0.176627,22
0.464419,0.205066,-0.175179,21
0.463099,0.204642,-0.17369,20
0.465729,0.20548,-0.173633,27
0.468047,0.206218,-0.173453,23
0.466438,0.205702,-0.171865,25
0.468218,0.206268,-0.171485,22
0.468782,0.206446,-0.17067,22
0.466023,0.205562,-0.16869,26
0.468004,0.206192,-0.168373,23
0.471925,0.207442,-0.168719,30
0.468453,0.206331,-0.166507,23
0.469974,0.206815,-0.166017,26
0.469518,0.206666,-0.16485,28
0.471321,0.20724,-0.164449,27
0.468882,0.206458,-0.162617,26
0.470339,0.206921,-0.162095,31
0.469611,0.206687,-0.160844,25
0.471966,0.207436,-0.160612,24
0.473234,0.207839,-0.160016,27
0.475834,0.208667,-0.159848,27
0.474048,0.208094,-0.158253,33
0.476166,0.208768,-0.157919,26
0.472719,0.207665,-0.155802,31
0.47427,0.208158,-0.155285,33
0.480129,0.210026,-0.156119,33
0.476279,0.208794,-0.153891,31
0.476589,0.208891,-0.152973,30
0.47335,0.207854,-0.150959,33
0.477211,0.209085,-0.151136,29
0.477033,0.209025,-0.150068,36
0.47833,0.209437,-0.149448,33
0.478222,0.209401,-0.148401,37
0.478186,0.209387,-0.147376,35
0.47808,0.20935,-0.146332,37
0.477763,0.209247,-0.145226,37
0.478151,0.209368,-0.144329,36
0.481159,0.210326,-0.144192,37
0.480769,0.210199,-0.143063,39
0.480098,0.209983,-0.141857,41
0.480917,0.210242,-0.141077,40
0.482453,0.21073,-0.140497,37
0.483066,0.210923,-0.139652,41
0.483106,0.210934,-0.138647,35
0.48179,0.210511,-0.137268,39
0.48362,0.211093,-0.136757,38
0.48352,0.211058,-0.135714,37
0.486449,0.211991,-0.135491,42
0.484758,0.211449,-0.134018,42
0.483581,0.211071,-0.132689,38
0.485932,0.211819,-0.132297,47
0.485184,0.211578,-0.131084,45
0.484728,0.211429,-0.129951,45
0.486365,0.21195,-0.12936,44
0.490136,0.213151,-0.129309,46
0.488281,0.212557,-0.127816,47
0.48877,0.21271,-0.126921,47
0.487146,0.212189,-0.125497,48
0.490488,0.213254,-0.12531,48
0.490762,0.213339,-0.124356,45
0.48964,0.212978,-0.123063,49
0.489622,0.21297,-0.12204,51
0.49159,0.213596,-0.121495,49
0.491868,0.213682,-0.120541,47
0.493186,0.2141,-0.119831,51
0.493467,0.214188,-0.118874,50
0.494345,0.214465,-0.118055,52
0.49277,0.21396,-0.11667,43
0.493796,0.214285,-0.115884,45
0.493635,0.214231,-0.114827,48
0.494293,0.214439,-0.113954,57
0.495178,0.214719,-0.113129,55
0.495842,0.214928,-0.112252,53
0.497034,0.215307,-0.111489,58
0.497704,0.215518,-0.110609,59
0.497093,0.21532,-0.109453,55
0.497991,0.215605,-0.108619,62
0.497532,0.215456,-0.107498,58
0.500255,0.216322,-0.10704,58
0.498429,0.215737,-0.105636,54
0.501163,0.216607,-0.105169,58
0.498953,0.215899,-0.103695,56
0.501616,0.216747,-0.103202,56
0.501768,0.216793,-0.102203,54
0.502843,0.217133,-0.101385,62
0.503382,0.217303,-0.100459,58
0.504619,0.217695,-0.0996657,73
0.50408,0.217521,-0.098531,68
0.505245,0.21789,-0.0977184,73
0.504784,0.21774,-0.0966002,71
0.505409,0.217937,-0.0956837,69
0.506192,0.218185,-0.0947938,64
0.505888,0.218085,-0.0937062,65
0.508552,0.218933,-0.0931473,71
0.507308,0.218533,-0.091892,68
0.508022,0.218759,-0.0909822,73
0.508739,0.218985,-0.0900705,73
0.508594,0.218936,-0.0890102,77
0.509472,0.219214,-0.0881224,79
0.510748,0.219619,-0.0872978,79
0.510447,0.21952,-0.0862102,85
0.511096,0.219724,-0.0852779,87
0.511985,0.220006,-0.084382,87
0.513517,0.220492,-0.0835845,84
0.512579,0.22019,-0.0823964,82
0.512838,0.22027,-0.0813966,79
0.513258,0.220402,-0.0804207,80
0.515364,0.221071,-0.0796962,76
0.51773,0.221823,-0.0790024,73
0.516863,0.221544,-0.0778278,70
0.516484,0.221421,-0.0767273,72
0.517725,0.221814,-0.0758587,77
0.51759,0.221769,-0.074793,76
0.52039,0.222659,-0.0741334,80
0.519684,0.222431,-0.072986,82
0.520042,0.222543,-0.0719845,89
0.52188,0.223127,-0.0711776,91
0.522573,0.223345,-0.0702148,85
0.523683,0.223697,-0.0693031,89
0.525383,0.224236,-0.0684618,90
0.525002,0.224113,-0.0673557,87
0.524791,0.224043,-0.0662721,91
0.529194,0.225444,-0.0657451,93
0.527884,0.225024,-0.0645248,87
0.526749,0.22466,-0.0633304,96
0.528221,0.225126,-0.0624391,100
0.529787,0.225623,-0.0615529,107
0.529663,0.225581,-0.0604742,111
0.53158,0.22619,-0.0596178,115
0.531799,0.226257,-0.0585732,112
0.530825,0.225944,-0.0574034,108
0.530111,0.225714,-0.0562642,104
0.530672,0.22589,-0.0552566,108
0.531235,0.226067,-0.0542474,104
0.530524,0.225838,-0.0531128,110
0.530155,0.225718,-0.0520138,110
0.529957,0.225652,-0.0509324,112
0.528999,0.225344,-0.049783,113
0.530922,0.225955,-0.0488939,118
0.530472,0.225809,-0.0477911,121
0.530704,0.22588,-0.0467482,127
0.530851,0.225925,-0.0456977,131
0.530406,0.22578,-0.0445987,133
0.529201,0.225393,-0.0434417,128
0.529098,0.225358,-0.0423746,134
0.529419,0.225458,-0.0413401,137
0.530419,0.225774,-0.0403543,140
0.529303,0.225416,-0.039214,139
0.530475,0.225787,-0.0382368,140
0.531313,0.226052,-0.0372327,139
0.530877,0.22591,-0.0361422,134
0.531377,0.226067,-0.0351131,137
0.531368,0.226062,-0.0340509,141
0.531702,0.226166,-0.0330093,141
0.531696,0.226161,-0.031947,140
0.531861,0.226211,-0.0308944,142
0.533397,0.226698,-0.0299149,142
0.53288,0.226531,-0.0288234,137
0.531854,0.226202,-0.0277087,138
0.53408,0.226909,-0.0267538,146
0.533138,0.226606,-0.0256448,139
0.533312,0.226659,-0.0245888,143
0.534174,0.226931,-0.0235611,143
0.533836,0.226821,-0.0224821,139
0.533756,0.226793,-0.0214144,141
0.53385,0.22682,-0.0203534,139
0.534978,0.227177,-0.0193274,136
0.534902,0.22715,-0.0182584,136
0.535172,0.227234,-0.0172002,135
0.535531,0.227346,-0.0161436,137
0.535977,0.227485,-0.0150879,138
0.536686,0.227709,-0.0140371,137
0.536877,0.227767,-0.0129718,139
0.536548,0.22766,-0.0118952,136
0.537349,0.227912,-0.010841,141
0.537196,0.227861,-0.00976782,135
0.539225,0.228505,-0.00872731,142
0.538899,0.228398,-0.00764895,143
0.537963,0.228098,-0.00656533,142
0.539475,0.228577,-0.00550699,146
0.540117,0.228779,-0.00443679,145
0.540234,0.228814,-0.00336152,144
0.542117,0.229411,-0.00229105,142
0.542503,0.229532,-0.00121171,146
0.541563,0.22923,-0.000132092,149
0.542305,0.229463,0.00094871,149
0.543495,0.22984,0.00203458,153
0.542733,0.229595,0.00311189,145
0.543483,0.229831,0.00419944,146
0.543879,0.229955,0.00528617,140
0.544367,0.230107,0.00637565,138
0.545662,0.230517,0.00747885,138
0.544544,0.230159,0.00854725,142
0.545305,0.230399,0.00964609,139
0.544905,0.230269,0.0107242,136
0.545401,0.230424,0.0118209,141
0.544914,0.230266,0.0128957,143
0.54443,0.23011,0.0139688,144
0.546004,0.230608,0.0150982,149
0.546059,0.230623,0.0161879,149
0.545756,0.230524,0.0172665,141
0.546172,0.230654,0.0183685,143
0.54632,0.230699,0.0194625,131
0.545842,0.230544,0.0205335,138
0.546892,0.230876,0.0216638,135
0.545607,0.230464,0.0227004,137
0.545223,0.230339,0.0237717,139
0.545557,0.230443,0.0248746,135
0.546342,0.23069,0.0260004,134
0.54614,0.230623,0.0270804,140
0.546839,0.230843,0.0282064,138
0.547091,0.230921,0.0293112,137
0.546893,0.230855,0.0303922,133
0.547508,0.231049,0.0315194,134
0.547223,0.230955,0.0325955,134
0.546849,0.230833,0.0336654,129
0.546927,0.230856,0.0347626,130
0.547909,0.231166,0.0359195,129
0.547087,0.230902,0.0369589,132
0.547169,0.230925,0.0380579,134
0.546712,0.230777,0.0391191,138
0.547067,0.230887,0.0402382,137
0.547153,0.230912,0.0413387,137
0.54679,0.230794,0.0424051,139
0.547872,0.231136,0.0435847,142
0.547692,0.231076,0.0446664,140
0.54607,0.230557,0.045628,136
0.545983,0.230527,0.046714,142
0.544731,0.230126,0.0476986,141
0.544737,0.230125,0.0487904,130
0.537413,0.22779,0.0492166,135
0.527074,0.224496,0.0493348,121
0.513908,0.220302,0.0491451,120
0.505281,0.217553,0.0493432,130
0.50138,0.216309,0.0499739,146
0.496717,0.214822,0.0505128,155
0.493535,0.213806,0.0511857,162
0.491122,0.213036,0.0519268,164
0.486573,0.211585,0.0524314,166
0.486153,0.211449,0.0533659,168
0.482821,0.210386,0.0539779,168
0.479256,0.209249,0.0545509,172
0.478018,0.208853,0.055376,171
0.474659,0.207781,0.0559502,171
0.474672,0.207783,0.05691,176
0.470753,0.206534,0.0573979,174
0.469895,0.206258,0.0582443,182
0.467376,0.205454,0.0588818,179
0.466531,0.205183,0.0597205,185
0.46536,0.204808,0.0605146,190
0.46302,0.204061,0.0611525,186
0.460768,0.203342,0.0617932,185
0.460205,0.203161,0.0626515,182
0.4583,0.202552,0.0633256,185
0.457171,0.202191,0.0640997,188
0.456873,0.202093,0.0649856,192
0.455437,0.201634,0.0657095,192
0.453071,0.200879,0.0662945,192
0.45447,0.201322,0.067419,188
0.451929,0.200511,0.0679676,197
0.449353,0.199689,0.0685015,191
0.449437,0.199714,0.0694287,196
0.450632,0.200092,0.0705272,198
0.447888,0.199217,0.0710184,198
0.447485,0.199086,0.0718676,198
0.447693,0.19915,0.0728131,200
0.447657,0.199136,0.0737206,196
0.446951,0.19891,0.0745188,192
0.446917,0.198897,0.0754257,192
0.447799,0.199175,0.0764863,197
0.444186,0.198023,0.0767897,197
0.443553,0.19782,0.0775896,194
0.444183,0.198018,0.0786064,196
0.444393,0.198083,0.0795525,196
0.443701,0.19786,0.08034,188
0.440152,0.196729,0.0806132,195
0.440538,0.19685,0.0815858,196
0.440629,0.196877,0.0825062,195
0.439832,0.196621,0.0832631,197
0.440041,0.196685,0.0842058,195
0.439483,0.196506,0.0850045,192
0.438221,0.196102,0.0856668,191
0.43685,0.195663,0.0863035,194
0.437234,0.195784,0.087278,188
0.43651,0.195551,0.0880358,190
0.436196,0.195449,0.0888729,188
0.435127,0.195107,0.0895576,186
0.435744,0.195301,0.0905809,186
0.435898,0.195348,0.091512,183
0.435645,0.195265,0.09236,180
0.436149,0.195423,0.093366,187
