ply
format ascii 1.0
comment Created by CloudCompare v2.11 alpha (Anoia)
comment Created 2025/12/9 15:24
obj_info Generated by CloudCompare!
element vertex 1423
property float x
property float y
property float z
property float scalar_Scalar_field
end_header
0.460036 0.037483 -0.193383 187 
0.461009 0.0374515 -0.192467 188 
0.460763 0.037457 -0.191623 187 
0.460634 0.037459 -0.190773 186 
0.461671 0.0374255 -0.189846 185 
0.461309 0.0374346 -0.189009 190 
0.46124 0.0374347 -0.188154 187 
0.461347 0.0374295 -0.187285 188 
0.461221 0.0374314 -0.186434 189 
0.461387 0.0374244 -0.18556 187 
0.461496 0.0374192 -0.184691 188 
0.460906 0.0374352 -0.183875 184 
0.461191 0.0374246 -0.182991 184 
0.461302 0.0374192 -0.182121 187 
0.461706 0.037405 -0.181224 186 
0.461877 0.0373978 -0.180347 187 
0.461114 0.0374191 -0.17955 184 
0.461988 0.0373906 -0.178609 189 
0.461693 0.0373976 -0.177772 189 
0.461692 0.0373957 -0.176908 194 
0.462043 0.037383 -0.17601 192 
0.462629 0.0373632 -0.175088 195 
0.462983 0.0373505 -0.174186 195 
0.461928 0.0373807 -0.173425 196 
0.461462 0.0373929 -0.172608 192 
0.461816 0.0373802 -0.171705 192 
0.461468 0.0373888 -0.170876 192 
0.461531 0.037385 -0.170004 193 
0.461243 0.0373918 -0.169169 191 
0.46084 0.0374021 -0.168349 186 
0.459741 0.0374337 -0.167609 194 
0.46062 0.0374049 -0.166643 189 
0.460336 0.0374116 -0.165811 188 
0.460636 0.0374005 -0.164909 190 
0.460237 0.0374107 -0.164092 192 
0.460538 0.0373996 -0.163188 189 
0.45985 0.0374187 -0.162408 187 
0.459396 0.0374305 -0.1616 193 
0.45935 0.03743 -0.160741 193 
0.459885 0.0374117 -0.159805 194 
0.458564 0.0374501 -0.159114 189 
0.458635 0.037446 -0.158239 189 
0.45836 0.0374524 -0.157411 195 
0.458259 0.0374536 -0.15656 192 
0.457122 0.0374864 -0.155855 199 
0.457828 0.0374628 -0.15489 198 
0.457903 0.0374586 -0.154014 200 
0.457689 0.0374632 -0.15318 202 
0.457477 0.0374677 -0.152346 195 
0.457437 0.037467 -0.151486 195 
0.457399 0.0374662 -0.150625 202 
0.455697 0.0375163 -0.150021 194 
0.456117 0.0375015 -0.149091 196 
0.456024 0.0375024 -0.148241 199 
0.45553 0.0375155 -0.147455 200 
0.455266 0.0375217 -0.146633 199 
0.454604 0.03754 -0.145877 202 
0.454798 0.0375321 -0.144981 199 
0.454765 0.0375312 -0.144122 197 
0.454504 0.0375372 -0.143301 200 
0.454301 0.0375414 -0.142471 202 
0.454726 0.0375265 -0.141533 204 
0.454638 0.0375272 -0.140682 204 
0.452451 0.0375923 -0.140202 204 
0.453724 0.0375513 -0.139112 200 
0.45398 0.0375415 -0.138201 196 
0.45259 0.0375822 -0.137587 195 
0.451716 0.037607 -0.136884 195 
0.451407 0.0376146 -0.136078 195 
0.451436 0.0376117 -0.13521 200 
0.451185 0.0376175 -0.134394 202 
0.45116 0.0376163 -0.133535 197 
0.450685 0.0376289 -0.132763 202 
0.450325 0.037638 -0.13197 194 
0.449629 0.0376574 -0.131244 196 
0.450895 0.0376166 -0.130129 192 
0.44936 0.0376618 -0.129572 191 
0.448724 0.0376793 -0.128838 193 
0.448926 0.0376712 -0.127935 195 
0.448236 0.0376904 -0.127214 190 
0.447994 0.0376959 -0.126402 187 
0.44753 0.0377082 -0.125638 186 
0.447344 0.037712 -0.124815 186 
0.447769 0.037697 -0.123862 181 
0.447862 0.0376922 -0.122978 180 
0.447733 0.0376942 -0.122142 171 
0.446829 0.03772 -0.121476 170 
0.447255 0.037705 -0.120518 165 
0.447628 0.0376916 -0.11957 171 
0.447557 0.0376918 -0.11872 171 
0.44782 0.0376818 -0.117793 170 
0.448028 0.0376734 -0.116878 174 
0.448181 0.0376667 -0.115974 169 
0.448056 0.0376686 -0.115133 170 
0.448323 0.0376584 -0.114201 172 
0.448032 0.0376654 -0.113399 171 
0.448522 0.0376484 -0.112411 172 
0.448735 0.0376398 -0.111487 171 
0.44878 0.0376365 -0.110602 172 
0.448827 0.0376331 -0.109717 168 
0.449434 0.0376124 -0.108692 166 
0.449425 0.0376107 -0.107818 165 
0.44998 0.0375916 -0.106801 165 
0.449635 0.0376003 -0.10601 164 
0.450134 0.0375829 -0.105003 161 
0.450184 0.0375793 -0.10411 153 
0.450687 0.0375619 -0.103099 156 
0.450908 0.0375531 -0.102159 158 
0.450395 0.0375669 -0.10141 158 
0.451807 0.0375213 -0.100152 155 
0.450783 0.0375509 -0.0995389 161 
0.451801 0.0375175 -0.0983789 158 
0.451231 0.0375331 -0.0976459 165 
0.45174 0.0375154 -0.0966189 156 
0.452366 0.0374941 -0.0955579 162 
0.452309 0.0374938 -0.0946829 159 
0.452937 0.0374724 -0.0936159 156 
0.452652 0.0374792 -0.0928019 151 
0.452482 0.0374824 -0.0919569 162 
0.453342 0.0374538 -0.0908179 150 
0.453977 0.0374322 -0.0897399 154 
0.453577 0.0374425 -0.0889559 151 
0.45456 0.0374101 -0.0877729 154 
0.455607 0.0373757 -0.0865659 150 
0.454396 0.0374111 -0.0860179 151 
0.454517 0.0374053 -0.0850809 151 
0.454754 0.037396 -0.0841069 147 
0.45563 0.0373668 -0.0829399 142 
0.456277 0.0373448 -0.0818379 148 
0.456927 0.0373226 -0.0807309 150 
0.456235 0.037342 -0.0800329 150 
0.456419 0.0373342 -0.0790659 144 
0.456546 0.0373283 -0.0781159 145 
0.456205 0.0373367 -0.0773099 146 
0.456332 0.0373307 -0.0763579 148 
0.456694 0.0373175 -0.0753299 147 
0.457938 0.0372769 -0.0740209 147 
0.458127 0.037269 -0.0730419 143 
0.458317 0.037261 -0.0720619 135 
0.4578 0.037275 -0.0713089 141 
0.458167 0.0372615 -0.0702699 144 
0.45895 0.0372352 -0.0690919 139 
0.458551 0.0372454 -0.0682999 142 
0.458331 0.0372502 -0.0674489 146 
0.458938 0.0372293 -0.0663229 144 
0.459311 0.0372156 -0.0652719 135 
0.459506 0.0372075 -0.0642779 133 
0.459881 0.0371938 -0.0632219 129 
0.460436 0.0371744 -0.0621019 134 
0.4598 0.0371921 -0.0613889 133 
0.459998 0.0371838 -0.0603879 129 
0.459899 0.0371848 -0.0594899 128 
0.460158 0.0371746 -0.0584659 132 
0.461136 0.0371422 -0.0571869 126 
0.461879 0.037117 -0.0559859 122 
0.461962 0.0371123 -0.0550169 124 
0.460844 0.0371449 -0.0544759 126 
0.461769 0.0371141 -0.0532039 116 
0.461793 0.0371112 -0.0522529 122 
0.461036 0.0371326 -0.0515859 124 
0.460341 0.037152 -0.0508979 123 
0.460966 0.0371305 -0.0497259 119 
0.460812 0.0371331 -0.0488389 120 
0.461319 0.0371153 -0.0477059 111 
0.461225 0.037116 -0.0467949 115 
0.461795 0.0370962 -0.0456329 113 
0.46128 0.03711 -0.0448789 112 
0.461128 0.0371126 -0.0439879 109 
0.461337 0.037104 -0.0429589 112 
0.461487 0.0370972 -0.0419509 116 
0.460433 0.0371278 -0.0414059 118 
0.461245 0.0371004 -0.0401399 115 
0.460733 0.0371142 -0.0393869 114 
0.461186 0.0370979 -0.0382559 123 
0.46158 0.0370835 -0.0371459 123 
0.461249 0.0370916 -0.0363209 112 
0.460678 0.0371073 -0.0355919 110 
0.461133 0.0370909 -0.0344529 109 
0.460081 0.0371215 -0.0339189 114 
0.460717 0.0370996 -0.0327039 110 
0.46051 0.0371039 -0.0318299 113 
0.460967 0.0370875 -0.0306829 113 
0.461546 0.0370672 -0.0294829 116 
0.4614 0.0370696 -0.0285799 111 
0.461376 0.0370682 -0.0276259 108 
0.461412 0.0370649 -0.0266449 104 
0.460904 0.0370786 -0.0258929 108 
0.461304 0.0370639 -0.0247579 104 
0.461889 0.0370434 -0.0235419 108 
0.461684 0.0370476 -0.0226589 108 
0.459062 0.0371273 -0.0228099 112 
0.459642 0.037107 -0.0215949 110 
0.459319 0.0371149 -0.0207659 113 
0.459238 0.0371153 -0.0198329 110 
0.459277 0.0371118 -0.0188469 113 
0.458715 0.0371272 -0.0181229 113 
0.458394 0.037135 -0.0172939 122 
0.457894 0.0371485 -0.0165449 128 
0.457215 0.0371675 -0.0158759 122 
0.458456 0.0371265 -0.0143519 126 
0.456043 0.0371998 -0.0144609 115 
0.456382 0.037187 -0.0133389 123 
0.45541 0.0372151 -0.0128069 121 
0.4452 0.0349403 -0.433999 9 
0.432508 0.0354082 -0.427027 9 
0.695799 0.0256545 -0.550813 9 
0.434516 0.0353296 -0.42612 12 
0.436807 0.0352427 -0.426264 11 
0.434695 0.0353188 -0.424349 7 
0.438356 0.035181 -0.425121 7 
0.440462 0.0351009 -0.42516 9 
0.433106 0.0353714 -0.420844 11 
0.434785 0.0353071 -0.420692 9 
1.06355 0.0119946 -0.707532 8 
0.442106 0.0350314 -0.422166 11 
0.436332 0.0352435 -0.418625 9 
0.441344 0.0350555 -0.419952 9 
0.437115 0.0352103 -0.417129 15 
0.434365 0.0353102 -0.414983 10 
0.43692 0.0352134 -0.415198 11 
0.435846 0.0352511 -0.413804 15 
0.433597 0.0353325 -0.4119 11 
0.439857 0.0350981 -0.41372 12 
0.441805 0.0350237 -0.413643 17 
0.43758 0.0351785 -0.410889 13 
0.436669 0.0352102 -0.409579 14 
0.441619 0.0350243 -0.410784 16 
0.44141 0.03503 -0.409771 14 
0.442477 0.0349883 -0.409301 14 
0.437649 0.0351655 -0.406338 11 
0.438646 0.0351265 -0.405843 11 
0.438606 0.0351259 -0.404912 18 
0.443591 0.0349385 -0.406072 16 
0.439074 0.0351044 -0.403279 17 
0.442118 0.0349891 -0.40362 15 
0.439763 0.0350746 -0.401736 13 
0.440768 0.0350352 -0.401234 15 
0.442887 0.0349543 -0.401179 16 
0.440472 0.0350421 -0.399287 15 
0.440544 0.0350373 -0.398404 18 
0.446181 0.0348255 -0.399746 19 
0.443065 0.0349394 -0.397585 20 
0.440928 0.0350169 -0.395825 19 
0.444493 0.0348821 -0.396319 20 
0.440746 0.0350195 -0.393936 23 
0.443249 0.0349243 -0.394004 25 
0.443324 0.0349194 -0.393121 26 
0.441464 0.0349866 -0.391494 31 
0.444476 0.0348724 -0.391742 26 
0.443828 0.0348945 -0.390583 27 
0.443515 0.0349041 -0.389555 25 
0.443647 0.0348971 -0.388696 33 
0.445844 0.0348132 -0.388613 27 
0.444636 0.0348562 -0.387251 27 
0.443935 0.0348803 -0.386083 25 
0.446414 0.0347858 -0.386092 29 
0.445037 0.0348351 -0.384677 26 
0.444447 0.034855 -0.383555 27 
0.445028 0.0348314 -0.382861 32 
0.44494 0.0348326 -0.381924 31 
0.446025 0.0347901 -0.38141 30 
0.446665 0.0347641 -0.380734 33 
0.446074 0.0347842 -0.379618 35 
0.449083 0.0346699 -0.379776 36 
0.446853 0.034751 -0.378084 28 
0.448907 0.0346723 -0.377897 37 
0.448594 0.034682 -0.376881 34 
0.45112 0.0345856 -0.376847 31 
0.447071 0.0347347 -0.374547 34 
0.447828 0.0347044 -0.373904 37 
0.447407 0.0347181 -0.372859 38 
0.448222 0.0346856 -0.372234 38 
0.450003 0.0346171 -0.371929 34 
0.449013 0.034652 -0.370695 41 
0.450516 0.0345938 -0.370291 41 
0.45083 0.0345801 -0.36949 45 
0.450405 0.0345939 -0.368448 38 
0.451345 0.0345567 -0.367852 40 
0.450977 0.0345684 -0.366829 41 
0.451578 0.0345439 -0.366121 44 
0.451895 0.03453 -0.365319 42 
0.451927 0.0345268 -0.364427 46 
0.45196 0.0345236 -0.363536 40 
0.451138 0.0345523 -0.362377 50 
0.451114 0.0345511 -0.361471 43 
0.45246 0.0344988 -0.36099 50 
0.452608 0.0344912 -0.360136 50 
0.453216 0.0344664 -0.359422 52 
0.453653 0.034448 -0.358655 48 
0.453172 0.034464 -0.35761 48 
0.453667 0.0344434 -0.356859 54 
0.453416 0.0344508 -0.355886 54 
0.45397 0.034428 -0.355152 55 
0.453663 0.0344375 -0.354164 59 
0.45416 0.0344168 -0.353412 63 
0.454543 0.0344005 -0.352627 60 
0.454928 0.034384 -0.35184 56 
0.454334 0.0344043 -0.350773 60 
0.455122 0.0343727 -0.350102 59 
0.455567 0.034354 -0.349331 60 
0.455377 0.0343591 -0.348381 63 
0.45588 0.0343382 -0.347626 65 
0.456327 0.0343195 -0.346853 65 
0.455733 0.0343397 -0.345794 65 
0.456007 0.0343274 -0.344975 63 
0.456166 0.0343194 -0.344124 59 
0.457195 0.0342788 -0.343506 63 
0.457704 0.0342577 -0.342747 63 
0.458449 0.0342277 -0.342048 63 
0.457736 0.0342524 -0.340965 68 
0.457317 0.0342662 -0.339961 67 
0.457248 0.0342667 -0.339051 69 
0.459511 0.0341798 -0.33874 65 
0.457865 0.0342395 -0.337424 72 
0.458787 0.0342029 -0.336765 66 
0.459128 0.0341881 -0.335958 73 
0.458885 0.0341952 -0.335004 73 
0.459344 0.034176 -0.334225 78 
0.459628 0.0341633 -0.333402 74 
0.45927 0.0341747 -0.332422 73 
0.458679 0.0341949 -0.331389 68 
0.459256 0.0341712 -0.330637 72 
0.459601 0.0341562 -0.329829 77 
0.459303 0.0341654 -0.328869 84 
0.458774 0.0341833 -0.327856 81 
0.459119 0.0341683 -0.327049 89 
0.458883 0.0341752 -0.326107 92 
0.458647 0.0341821 -0.325167 90 
0.459344 0.0341539 -0.324439 87 
0.459225 0.0341563 -0.323526 89 
0.458933 0.0341653 -0.322575 90 
0.459049 0.034159 -0.321717 94 
0.460334 0.0341086 -0.321113 95 
0.460979 0.0340824 -0.320367 94 
0.460043 0.0341156 -0.319279 96 
0.460161 0.0341091 -0.31842 96 
0.459463 0.0341334 -0.317389 90 
0.459816 0.0341181 -0.31658 101 
0.459878 0.0341138 -0.31571 98 
0.461581 0.0340477 -0.315177 98 
0.460881 0.0340721 -0.31415 93 
0.460359 0.0340897 -0.313163 87 
0.460892 0.0340677 -0.312387 89 
0.461016 0.034061 -0.31153 99 
0.460847 0.0340654 -0.310615 101 
0.460972 0.0340587 -0.309758 96 
0.460395 0.0340784 -0.308767 96 
0.461224 0.0340452 -0.308045 97 
0.460297 0.0340781 -0.306991 94 
0.460833 0.0340559 -0.306213 97 
0.460552 0.0340646 -0.305283 95 
0.461031 0.0340445 -0.304492 106 
0.461102 0.0340399 -0.303627 109 
0.46129 0.0340308 -0.302783 112 
0.461245 0.0340305 -0.301898 112 
0.460382 0.0340611 -0.30087 113 
0.461743 0.0340078 -0.30023 111 
0.461231 0.0340251 -0.299265 110 
0.460662 0.0340446 -0.298294 104 
0.461029 0.0340288 -0.297481 112 
0.461749 0.0339996 -0.296725 107 
0.461006 0.0340257 -0.295729 115 
0.459801 0.0340692 -0.294661 117 
0.460577 0.0340379 -0.293913 121 
0.460888 0.0340242 -0.29309 117 
0.460384 0.0340413 -0.29214 125 
0.458838 0.0340977 -0.291031 122 
0.458976 0.0340905 -0.290185 133 
0.458363 0.0341117 -0.289225 129 
0.459137 0.0340805 -0.288474 129 
0.458525 0.0341017 -0.287518 127 
0.457455 0.0341401 -0.286498 129 
0.457308 0.0341438 -0.285614 128 
0.457162 0.0341473 -0.284731 129 
0.456616 0.034166 -0.283793 126 
0.456986 0.0341501 -0.282984 132 
0.456099 0.0341817 -0.282003 135 
0.455956 0.0341851 -0.281125 135 
0.455473 0.0342015 -0.280204 135 
0.454991 0.0342178 -0.279285 141 
0.454681 0.0342276 -0.278389 153 
0.453694 0.034263 -0.277411 154 
0.454291 0.0342385 -0.276632 150 
0.45325 0.0342759 -0.275652 152 
0.452777 0.0342919 -0.274744 144 
0.453148 0.0342759 -0.273938 146 
0.450775 0.0343638 -0.272812 143 
0.450754 0.0343627 -0.271964 144 
0.4504 0.0343742 -0.271078 147 
0.450269 0.0343772 -0.27022 153 
0.448977 0.0344243 -0.269235 151 
0.44929 0.0344105 -0.268428 155 
0.447346 0.0344822 -0.267382 159 
0.447111 0.0344892 -0.26652 156 
0.447204 0.0344838 -0.265693 149 
0.447299 0.0344783 -0.264865 146 
0.44712 0.0344832 -0.264011 149 
0.446614 0.0345005 -0.263127 150 
0.446819 0.0344908 -0.262311 149 
0.446971 0.0344832 -0.26149 152 
0.447178 0.0344735 -0.260673 156 
0.446838 0.0344845 -0.259808 154 
0.446882 0.0344809 -0.258977 162 
0.447968 0.0344379 -0.258234 163 
0.446753 0.034482 -0.257298 155 
0.446799 0.0344784 -0.256468 154 
0.448051 0.0344291 -0.255733 154 
0.448208 0.0344212 -0.254909 164 
0.447817 0.0344342 -0.254044 157 
0.446771 0.034472 -0.253133 158 
0.446383 0.0344848 -0.252272 157 
0.446705 0.0344707 -0.251463 154 
0.446974 0.0344586 -0.250649 153 
0.447134 0.0344506 -0.249826 158 
0.447569 0.0344322 -0.249022 156 
0.44839 0.0343992 -0.248239 162 
0.447455 0.0344328 -0.247348 162 
0.448002 0.0344102 -0.246547 167 
0.448221 0.0344 -0.245726 164 
0.447892 0.0344106 -0.244874 164 
0.447181 0.0344357 -0.244003 163 
0.447183 0.0344338 -0.243171 169 
0.447294 0.0344277 -0.242345 167 
0.447406 0.0344215 -0.241518 168 
0.447464 0.0344174 -0.240689 168 
0.447687 0.0344071 -0.239867 172 
0.44824 0.0343842 -0.239058 171 
0.448081 0.0343883 -0.238218 171 
0.448087 0.0343862 -0.237386 169 
0.448313 0.0343758 -0.236561 178 
0.448265 0.0343757 -0.235726 172 
0.448109 0.0343798 -0.234889 173 
0.448392 0.0343671 -0.234065 169 
0.448236 0.0343712 -0.233227 171 
0.448191 0.034371 -0.232394 168 
0.448257 0.0343666 -0.231563 168 
0.448763 0.0343455 -0.230742 172 
0.448829 0.0343411 -0.22991 179 
0.448952 0.0343345 -0.229079 175 
0.449351 0.0343174 -0.228253 177 
0.449089 0.0343255 -0.227414 171 
0.448939 0.0343294 -0.226578 180 
0.449229 0.0343164 -0.225748 176 
0.449411 0.0343076 -0.224916 179 
0.449537 0.0343009 -0.224083 177 
0.450717 0.0342541 -0.223256 178 
0.450902 0.0342452 -0.22242 174 
0.451142 0.0342341 -0.221584 179 
0.450995 0.0342378 -0.220746 179 
0.450405 0.0342584 -0.21991 180 
0.450425 0.0342558 -0.219074 178 
0.450447 0.0342531 -0.218237 172 
0.451135 0.034225 -0.217397 173 
0.451714 0.034201 -0.216554 175 
0.451849 0.0341939 -0.215714 171 
0.452041 0.0341847 -0.214873 171 
0.452568 0.0341627 -0.214027 170 
0.453435 0.0341278 -0.213173 170 
0.453181 0.0341356 -0.212335 170 
0.453601 0.0341176 -0.211485 168 
0.453011 0.0341382 -0.210656 171 
0.452815 0.0341438 -0.209819 174 
0.453517 0.0341151 -0.20896 178 
0.45411 0.0340906 -0.208102 178 
0.454931 0.0340573 -0.207235 179 
0.455132 0.0340477 -0.206383 178 
0.454768 0.0340597 -0.20555 174 
0.455481 0.0340306 -0.20468 172 
0.455798 0.0340166 -0.203822 177 
0.456458 0.0339895 -0.20295 180 
0.456664 0.0339797 -0.202093 179 
0.455676 0.0340155 -0.201285 179 
0.456907 0.0339666 -0.200385 182 
0.455863 0.0340045 -0.199582 177 
0.457097 0.0339555 -0.198676 177 
0.457651 0.0339324 -0.197799 182 
0.458034 0.0339158 -0.196928 186 
0.458476 0.033897 -0.196052 189 
0.458518 0.0338935 -0.195196 188 
0.458675 0.0338855 -0.194334 185 
0.458717 0.033882 -0.193478 187 
0.458703 0.0338806 -0.192624 187 
0.459093 0.0338638 -0.191746 186 
0.460004 0.033827 -0.190832 187 
0.46034 0.0338122 -0.189953 186 
0.459807 0.0338306 -0.189131 186 
0.460086 0.033818 -0.188255 191 
0.461063 0.0337787 -0.187327 189 
0.460995 0.0337794 -0.186472 186 
0.460754 0.0337866 -0.18563 185 
0.460746 0.033785 -0.184771 185 
0.460972 0.0337744 -0.183894 191 
0.461606 0.0337482 -0.182982 191 
0.461251 0.0337599 -0.182149 187 
0.461187 0.0337603 -0.181293 178 
0.46066 0.0337786 -0.180477 181 
0.461121 0.033759 -0.179576 184 
0.461585 0.0337393 -0.178672 189 
0.461641 0.0337352 -0.177804 192 
0.461523 0.0337378 -0.176952 194 
0.461639 0.0337314 -0.176077 200 
0.461522 0.0337339 -0.175225 196 
0.461348 0.0337386 -0.174378 196 
0.461758 0.0337209 -0.173473 197 
0.461176 0.0337413 -0.172668 192 
0.461004 0.0337459 -0.171822 194 
0.461591 0.0337215 -0.170895 193 
0.46142 0.0337261 -0.170048 191 
0.461016 0.0337396 -0.169227 191 
0.461313 0.0337263 -0.168329 196 
0.461145 0.0337308 -0.167482 193 
0.460744 0.0337442 -0.166663 188 
0.460868 0.0337375 -0.165783 185 
0.46012 0.0337642 -0.165007 186 
0.460245 0.0337575 -0.164127 188 
0.459442 0.0337864 -0.163361 186 
0.459047 0.0337996 -0.162546 191 
0.458884 0.0338039 -0.161703 197 
0.458895 0.0338015 -0.160838 191 
0.458792 0.0338035 -0.159987 194 
0.45892 0.0337966 -0.159106 194 
0.45876 0.0338008 -0.158262 190 
0.458543 0.0338072 -0.157427 195 
0.458558 0.0338047 -0.15656 193 
0.458515 0.0338044 -0.155701 194 
0.458069 0.0338195 -0.154899 192 
0.456993 0.033859 -0.154189 195 
0.456723 0.0338674 -0.153365 193 
0.456226 0.0338846 -0.152575 193 
0.456129 0.0338863 -0.151727 192 
0.455805 0.0338968 -0.150913 192 
0.45571 0.0338985 -0.150065 191 
0.455445 0.0339068 -0.149243 199 
0.455979 0.0338843 -0.148296 197 
0.454916 0.0339232 -0.147601 199 
0.455166 0.0339117 -0.146698 196 
0.455588 0.0338935 -0.145765 195 
0.45487 0.0339192 -0.145019 198 
0.454552 0.0339294 -0.144208 195 
0.454633 0.0339244 -0.14333 199 
0.454032 0.0339455 -0.142568 199 
0.454911 0.0339098 -0.141553 196 
0.45488 0.033909 -0.140692 202 
0.455021 0.0339016 -0.139801 204 
0.454934 0.033903 -0.13895 203 
0.452579 0.0339917 -0.138507 200 
0.45272 0.0339844 -0.137618 194 
0.452185 0.034003 -0.136853 194 
0.451707 0.0340195 -0.136078 192 
0.451737 0.0340164 -0.13521 193 
0.451429 0.0340263 -0.134404 194 
0.451404 0.0340253 -0.133546 197 
0.451548 0.0340178 -0.132654 200 
0.450289 0.0340644 -0.132036 197 
0.451162 0.0340288 -0.131001 198 
0.450746 0.0340429 -0.130219 195 
0.450499 0.0340504 -0.129404 194 
0.450477 0.0340493 -0.128544 191 
0.450512 0.034046 -0.127671 190 
0.44826 0.034131 -0.127272 194 
0.448295 0.0341277 -0.126402 194 
0.448053 0.0341351 -0.125591 191 
0.447811 0.0341424 -0.12478 188 
0.447349 0.0341583 -0.124016 184 
0.447331 0.0341571 -0.123158 184 
0.447258 0.0341579 -0.122311 183 
0.446854 0.0341716 -0.121537 178 
0.446947 0.034166 -0.120653 174 
0.44754 0.0341412 -0.119657 185 
0.44675 0.0341698 -0.11897 176 
0.447011 0.0341577 -0.118046 173 
0.447384 0.0341413 -0.117095 172 
0.447592 0.0341314 -0.11618 172 
0.44708 0.0341492 -0.115432 171 
0.447178 0.0341434 -0.114542 171 
0.447498 0.0341291 -0.113597 169 
0.447875 0.0341126 -0.112638 169 
0.447809 0.0341132 -0.111783 166 
0.447187 0.0341352 -0.111063 169 
0.447066 0.034138 -0.110223 170 
0.447945 0.034102 -0.109134 168 
0.447992 0.0340982 -0.10825 168 
0.448095 0.0340922 -0.10735 169 
0.448534 0.0340733 -0.106364 159 
0.448471 0.0340738 -0.105504 157 
0.449023 0.0340504 -0.104486 159 
0.449241 0.03404 -0.103551 160 
0.449516 0.0340274 -0.1026 155 
0.449961 0.0340082 -0.101602 150 
0.449507 0.0340237 -0.100841 152 
0.449728 0.0340132 -0.0998999 159 
0.44995 0.0340026 -0.0989569 160 
0.450116 0.0339942 -0.0980279 154 
0.450114 0.0339923 -0.0971439 158 
0.45113 0.0339509 -0.0959799 163 
0.450394 0.0339774 -0.0952949 161 
0.450732 0.0339623 -0.0943129 155 
0.451072 0.0339471 -0.0933289 158 
0.451186 0.0339407 -0.0924069 154 
0.451585 0.0339232 -0.0914019 154 
0.451985 0.0339057 -0.0903949 157 
0.452273 0.0338925 -0.0894189 157 
0.452333 0.0338882 -0.0885059 157 
0.452737 0.0338705 -0.0874919 152 
0.452913 0.0338617 -0.0865429 150 
0.452803 0.0338639 -0.0856769 153 
0.45298 0.033855 -0.0847249 153 
0.452814 0.0338594 -0.0838749 154 
0.453451 0.0338327 -0.0827819 156 
0.453516 0.0338281 -0.0818599 153 
0.453293 0.0338347 -0.0810239 153 
0.455495 0.0337472 -0.0794419 146 
0.45452 0.033783 -0.0788359 150 
0.455398 0.0337469 -0.0776549 138 
0.454597 0.0337759 -0.0769959 140 
0.455302 0.0337465 -0.0758639 142 
0.455487 0.0337372 -0.0748939 136 
0.455383 0.0337393 -0.0740149 134 
0.455744 0.0337232 -0.0729859 141 
0.455582 0.0337274 -0.0721239 133 
0.456411 0.0336931 -0.0709389 140 
0.456776 0.0336769 -0.0699019 142 
0.456089 0.0337015 -0.0692099 145 
0.456279 0.033692 -0.0682289 146 
0.456469 0.0336826 -0.0672459 142 
0.457717 0.033632 -0.0659069 130 
0.456677 0.0336703 -0.0653339 129 
0.457163 0.0336493 -0.0642469 128 
0.458418 0.0335985 -0.0628939 134 
0.457728 0.0336232 -0.0622029 130 
0.457747 0.0336204 -0.0612699 130 
0.458061 0.0336061 -0.0602329 135 
0.45879 0.0335756 -0.0590489 139 
0.458337 0.0335911 -0.0582769 130 
0.45901 0.0335629 -0.0571069 130 
0.458438 0.033583 -0.0563769 122 
0.458638 0.0335731 -0.0553719 122 
0.459313 0.0335447 -0.0541949 119 
0.459753 0.0335255 -0.0530989 129 
0.459836 0.0335201 -0.0521299 125 
0.45998 0.0335124 -0.0511379 126 
0.460064 0.033507 -0.0501669 122 
0.459731 0.0335178 -0.0493489 123 
0.460714 0.0334774 -0.0480409 115 
0.46068 0.0334766 -0.0471089 114 
0.460348 0.0334874 -0.0462889 109 
0.459956 0.0335006 -0.0454919 114 
0.460403 0.033481 -0.0443769 109 
0.459354 0.0335197 -0.0438299 112 
0.458251 0.0335606 -0.0433089 117 
0.459172 0.0335226 -0.0420079 119 
0.459739 0.0334983 -0.0408399 111 
0.460008 0.0334857 -0.0397859 116 
0.460639 0.0334589 -0.0385869 117 
0.46079 0.0334509 -0.0375749 118 
0.460221 0.033471 -0.0368459 113 
0.460252 0.0334676 -0.0358799 121 
0.460645 0.0334501 -0.0347669 114 
0.459777 0.0334818 -0.0341609 111 
0.458434 0.0335321 -0.0337489 111 
0.459004 0.0335076 -0.0325629 108 
0.459997 0.0334667 -0.0312009 104 
0.459551 0.033482 -0.0304249 113 
0.459225 0.0334925 -0.0296009 111 
0.4592 0.0334913 -0.0286519 114 
0.459235 0.0334878 -0.0276769 112 
0.459151 0.0334889 -0.0267519 117 
0.459067 0.03349 -0.0258249 117 
0.459044 0.0334888 -0.0248729 111 
0.45908 0.0334851 -0.0238939 104 
0.458998 0.0334862 -0.0229639 102 
0.459336 0.0334708 -0.0218539 103 
0.458354 0.033507 -0.0213109 105 
0.458512 0.0334986 -0.0202769 107 
0.457832 0.033523 -0.0196059 113 
0.45877 0.0334842 -0.0182279 116 
0.457492 0.033532 -0.0178209 107 
0.45795 0.0335119 -0.0166509 107 
0.456676 0.0335595 -0.0162469 117 
0.455764 0.033593 -0.0156859 127 
0.456518 0.0335613 -0.0143809 117 
0.455904 0.0335831 -0.0136879 114 
0.455885 0.0335817 -0.0127269 118 
0.333864 0.0364057 -0.38095 9 
0.556481 0.0264078 -0.485813 8 
0.426099 0.0322601 -0.422942 11 
0.166603 0.043917 -0.3019 7 
0.433514 0.0319229 -0.424591 8 
0.437096 0.0317599 -0.425336 7 
0.438363 0.0317009 -0.424993 8 
0.43199 0.0319851 -0.421119 11 
0.435653 0.0318185 -0.421884 10 
0.446485 0.0313295 -0.425917 11 
0.441265 0.031562 -0.422592 11 
0.168223 0.0438374 -0.299666 9 
0.431725 0.0319867 -0.416418 12 
0.443634 0.0314492 -0.420855 11 
0.438052 0.0316981 -0.417422 9 
0.438063 0.0316955 -0.416503 9 
0.43873 0.0316634 -0.415875 10 
0.288151 0.0384349 -0.348885 10 
0.441286 0.0315443 -0.415149 9 
0.441186 0.0315467 -0.414179 10 
0.44533 0.0313581 -0.415054 10 
0.43537 0.0318042 -0.409811 13 
0.436788 0.0317383 -0.409509 15 
0.43898 0.0316376 -0.409533 13 
0.436275 0.0317573 -0.407462 18 
0.438515 0.0316544 -0.407501 14 
0.439131 0.0316246 -0.406845 16 
0.440461 0.0315626 -0.406488 13 
0.439927 0.0315846 -0.405347 15 
0.441704 0.0315025 -0.40517 18 
0.440341 0.0315618 -0.403688 14 
0.442509 0.0314621 -0.403666 14 
0.44197 0.0314843 -0.402526 13 
0.439677 0.0315855 -0.400674 21 
0.441065 0.0315209 -0.400326 15 
0.442905 0.031436 -0.400156 15 
0.442977 0.0314306 -0.399269 17 
0.439528 0.031584 -0.396975 18 
0.440038 0.031559 -0.39627 17 
0.440494 0.0315364 -0.395543 17 
0.440239 0.0315458 -0.394535 20 
0.443677 0.0313888 -0.394974 23 
0.441925 0.0314657 -0.393379 26 
0.443603 0.031388 -0.393121 23 
0.443512 0.03139 -0.392175 26 
0.442923 0.0314145 -0.391039 26 
0.441181 0.0314911 -0.389467 25 
0.442246 0.031441 -0.388968 22 
0.442598 0.031423 -0.388195 23 
0.44251 0.031425 -0.387257 23 
0.443803 0.0313646 -0.386836 26 
0.444547 0.031329 -0.386206 32 
0.444569 0.0313259 -0.385308 24 
0.445204 0.0312952 -0.384636 23 
0.446681 0.0312265 -0.384269 23 
0.446592 0.0312284 -0.383328 23 
0.444829 0.031306 -0.381784 23 
0.446415 0.0312323 -0.38145 30 
0.446271 0.0312368 -0.380493 35 
0.446632 0.0312184 -0.379717 34 
0.447274 0.0311874 -0.379039 36 
0.447692 0.0311664 -0.378281 36 
0.44587 0.0312467 -0.37674 37 
0.447183 0.0311854 -0.376295 31 
0.446761 0.0312024 -0.375247 30 
0.44746 0.0311687 -0.374586 35 
0.448218 0.0311325 -0.373943 35 
0.446788 0.0311951 -0.372555 39 
0.447376 0.0311665 -0.371855 39 
0.447404 0.0311631 -0.370965 38 
0.450365 0.0310272 -0.371053 34 
0.449432 0.0310674 -0.36984 38 
0.449631 0.0310563 -0.369005 44 
0.449774 0.0310478 -0.368151 39 
0.449522 0.0310572 -0.367168 40 
0.449949 0.0310359 -0.366407 45 
0.45032 0.0310171 -0.365627 39 
0.449955 0.0310315 -0.364612 40 
0.450554 0.0310024 -0.363904 39 
0.453094 0.0308854 -0.363807 45 
0.45244 0.030913 -0.362699 46 
0.451789 0.0309404 -0.361596 41 
0.45348 0.0308618 -0.36122 44 
0.453113 0.0308764 -0.360206 48 
0.453205 0.0308702 -0.359334 53 
0.453354 0.0308614 -0.358481 55 
0.454021 0.0308292 -0.357783 54 
0.453025 0.0308722 -0.356585 51 
0.453519 0.0308478 -0.355835 50 
0.453728 0.0308363 -0.354999 56 
0.454915 0.0307805 -0.354451 57 
0.454033 0.0308185 -0.353295 56 
0.454416 0.0307991 -0.35251 53 
0.454168 0.0308083 -0.351542 52 
0.454954 0.0307707 -0.350872 57 
0.455743 0.0307329 -0.3502 55 
0.455957 0.0307212 -0.349363 54 
0.455709 0.0307304 -0.348397 53 
0.456443 0.030695 -0.347706 61 
0.456312 0.030699 -0.346773 60 
0.457165 0.0306583 -0.346112 63 
0.457672 0.0306332 -0.345354 59 
0.457193 0.0306529 -0.344327 66 
0.457527 0.0306358 -0.343522 60 
0.456528 0.0306791 -0.34236 67 
0.457094 0.0306514 -0.341617 64 
0.458126 0.0306025 -0.340996 63 
0.458697 0.0305746 -0.34025 65 
0.458743 0.0305705 -0.339367 70 
0.457859 0.0306086 -0.338245 67 
0.458546 0.0305754 -0.337528 65 
0.459411 0.0305341 -0.336854 66 
0.458643 0.030567 -0.335767 72 
0.459801 0.0305123 -0.335164 62 
0.459383 0.0305293 -0.334167 76 
0.458675 0.0305594 -0.333101 77 
0.459426 0.0305233 -0.332394 73 
0.459477 0.030519 -0.331515 71 
0.458771 0.030549 -0.330456 72 
0.458416 0.0305632 -0.329483 76 
0.459985 0.0304899 -0.328965 85 
0.459747 0.0304987 -0.32802 85 
0.459684 0.0304995 -0.327116 80 
0.459389 0.0305109 -0.32616 82 
0.459561 0.0305011 -0.325313 89 
0.459967 0.0304807 -0.324518 91 
0.459673 0.030492 -0.323565 93 
0.459089 0.0305165 -0.32255 95 
0.460255 0.0304615 -0.321922 97 
0.459555 0.0304914 -0.320883 94 
0.459672 0.0304841 -0.320025 101 
0.459965 0.0304688 -0.319204 100 
0.460785 0.0304294 -0.318494 102 
0.460963 0.0304194 -0.317647 100 
0.46079 0.0304252 -0.316726 100 
0.460384 0.0304417 -0.315759 97 
0.459979 0.0304581 -0.314793 99 
0.459984 0.0304559 -0.313913 98 
0.459582 0.0304722 -0.312951 99 
0.460579 0.0304248 -0.312271 95 
0.461405 0.0303852 -0.311553 98 
0.461236 0.0303909 -0.310638 95 
0.46142 0.0303806 -0.309792 99 
0.460667 0.0304129 -0.308767 95 
0.460852 0.0304025 -0.307923 100 
0.461505 0.0303707 -0.307167 86 
0.461456 0.030371 -0.306278 99 
0.461292 0.0303765 -0.305369 105 
0.460777 0.030398 -0.304397 108 
0.460964 0.0303874 -0.303553 104 
0.462149 0.0303315 -0.302888 108 
0.461283 0.030369 -0.301856 112 
0.460072 0.0304222 -0.300768 114 
0.461253 0.0303664 -0.300099 110 
0.460918 0.0303797 -0.299166 119 
0.461109 0.030369 -0.298323 117 
0.461009 0.0303716 -0.297432 115 
0.460793 0.0303794 -0.296522 112 
0.45988 0.0304191 -0.2955 116 
0.460713 0.0303791 -0.294764 118 
0.460499 0.0303869 -0.293858 118 
0.460752 0.0303734 -0.293026 116 
0.460423 0.0303864 -0.292104 126 
0.459863 0.03041 -0.291147 125 
0.459885 0.0304071 -0.290281 130 
0.459155 0.0304384 -0.289303 125 
0.459236 0.0304328 -0.288448 131 
0.457876 0.0304929 -0.287383 121 
0.456982 0.0305317 -0.28639 134 
0.456322 0.0305599 -0.285434 134 
0.457148 0.0305203 -0.284691 137 
0.456603 0.0305432 -0.283754 133 
0.455547 0.0305895 -0.282749 133 
0.455007 0.0306122 -0.281819 130 
0.455092 0.0306064 -0.280974 133 
0.453933 0.0306574 -0.279966 130 
0.454132 0.0306464 -0.279138 137 
0.453429 0.0306766 -0.278195 137 
0.453291 0.030681 -0.277326 140 
0.451921 0.0307417 -0.276305 145 
0.451674 0.030751 -0.275426 146 
0.451427 0.0307604 -0.274549 142 
0.450959 0.0307798 -0.273647 142 
0.450049 0.0308195 -0.272695 140 
0.45025 0.0308084 -0.271875 146 
0.450064 0.0308151 -0.27101 155 
0.448554 0.0308822 -0.27 153 
0.449362 0.0308433 -0.269247 155 
0.447913 0.0309077 -0.268251 153 
0.447512 0.0309242 -0.267371 153 
0.446512 0.030968 -0.26643 158 
0.447206 0.0309344 -0.265665 144 
0.446155 0.0309806 -0.264724 151 
0.446141 0.0309793 -0.263889 155 
0.447108 0.0309332 -0.263148 153 
0.446549 0.0309569 -0.26226 151 
0.4467 0.0309481 -0.261439 154 
0.445981 0.0309791 -0.260541 151 
0.446405 0.0309578 -0.259745 153 
0.446122 0.0309689 -0.258888 155 
0.446276 0.03096 -0.258068 155 
0.446538 0.0309461 -0.257257 155 
0.445768 0.0309794 -0.256362 157 
0.445164 0.0310052 -0.255484 152 
0.446242 0.030954 -0.254737 154 
0.445584 0.0309823 -0.253856 156 
0.445795 0.0309708 -0.253041 151 
0.446169 0.0309517 -0.252237 155 
0.446327 0.0309426 -0.251417 158 
0.445997 0.0309558 -0.250564 160 
0.446156 0.0309467 -0.249744 158 
0.44697 0.0309075 -0.248966 156 
0.446423 0.0309307 -0.2481 156 
0.446476 0.0309264 -0.247272 160 
0.44642 0.0309271 -0.246438 164 
0.446964 0.0309002 -0.245639 164 
0.447729 0.0308633 -0.24485 166 
0.447129 0.0308889 -0.243985 163 
0.447185 0.0308845 -0.243157 169 
0.447405 0.0308725 -0.242337 168 
0.447081 0.0308855 -0.24149 164 
0.446485 0.030911 -0.240632 168 
0.446272 0.0309189 -0.239793 168 
0.448022 0.0308367 -0.239037 163 
0.447371 0.0308647 -0.238179 168 
0.446668 0.0308951 -0.237321 166 
0.44722 0.0308679 -0.236512 167 
0.448102 0.0308255 -0.235711 168 
0.447781 0.0308384 -0.234869 168 
0.448282 0.0308135 -0.234053 169 
0.447744 0.0308363 -0.233205 168 
0.447754 0.030834 -0.232374 167 
0.447929 0.0308241 -0.231548 167 
0.448104 0.0308141 -0.23072 172 
0.448555 0.0307916 -0.229898 176 
0.449833 0.030731 -0.229091 172 
0.44913 0.0307614 -0.228244 174 
0.448429 0.0307917 -0.227399 170 
0.448718 0.0307765 -0.226571 171 
0.448898 0.0307664 -0.225741 171 
0.449134 0.0307537 -0.224911 175 
0.449371 0.0307409 -0.224079 172 
0.449774 0.0307205 -0.223248 178 
0.449902 0.0307127 -0.222414 173 
0.450307 0.0306922 -0.221581 175 
0.450326 0.0306894 -0.220745 179 
0.4509 0.0306612 -0.21991 180 
0.451087 0.0306507 -0.219073 179 
0.450887 0.030658 -0.218237 174 
0.451297 0.0306372 -0.217397 174 
0.451486 0.0306266 -0.216558 180 
0.451565 0.0306211 -0.21572 171 
0.451534 0.0306207 -0.214883 170 
0.452562 0.0305715 -0.21403 175 
0.453259 0.0305375 -0.21318 174 
0.453734 0.0305138 -0.21233 176 
0.452417 0.0305725 -0.211514 171 
0.453004 0.0305436 -0.210662 171 
0.45348 0.0305197 -0.20981 182 
0.453565 0.0305139 -0.208966 178 
0.454101 0.0304874 -0.208109 180 
0.4543 0.0304763 -0.207261 178 
0.453825 0.0304962 -0.206432 176 
0.453857 0.0304929 -0.205588 175 
0.454847 0.0304454 -0.204711 174 
0.454542 0.0304575 -0.203877 170 
0.455028 0.0304332 -0.203015 175 
0.455345 0.0304167 -0.202157 178 
0.455437 0.0304105 -0.201307 180 
0.455078 0.0304252 -0.200476 178 
0.45551 0.0304034 -0.199611 180 
0.456002 0.0303788 -0.198741 181 
0.456552 0.0303515 -0.197866 183 
0.456477 0.0303531 -0.197021 183 
0.457087 0.030323 -0.19614 184 
0.457699 0.0302929 -0.195256 185 
0.457912 0.0302811 -0.194392 187 
0.457955 0.0302773 -0.193538 183 
0.458456 0.0302522 -0.192655 185 
0.458787 0.030235 -0.191781 195 
0.458487 0.0302469 -0.190946 190 
0.458246 0.0302561 -0.190109 186 
0.458406 0.0302468 -0.189244 192 
0.459258 0.0302056 -0.188331 191 
0.45971 0.0301828 -0.187443 186 
0.459297 0.0301999 -0.186616 186 
0.45923 0.030201 -0.185765 190 
0.4609 0.0301221 -0.18478 187 
0.459619 0.0301792 -0.184022 184 
0.45967 0.0301749 -0.18316 188 
0.460185 0.0301492 -0.18226 185 
0.460296 0.0301422 -0.181391 185 
0.460929 0.030111 -0.180477 190 
0.461333 0.0300904 -0.179581 193 
0.461155 0.0300967 -0.178735 190 
0.461095 0.0300975 -0.177879 187 
0.460281 0.0301332 -0.177094 187 
0.461325 0.030083 -0.176133 193 
0.461325 0.030081 -0.17527 192 
0.461326 0.0300791 -0.174407 196 
0.461735 0.0300582 -0.173502 199 
0.461737 0.0300561 -0.172638 197 
0.461332 0.0300729 -0.171816 196 
0.461335 0.0300708 -0.170951 192 
0.460641 0.0301009 -0.170162 188 
0.459718 0.0301416 -0.169401 187 
0.460651 0.0300966 -0.168434 188 
0.459903 0.0301292 -0.167655 187 
0.459852 0.0301296 -0.166798 186 
0.458819 0.0301754 -0.166057 183 
0.459289 0.0301518 -0.165139 189 
0.459413 0.0301441 -0.164261 192 
0.459133 0.0301551 -0.163432 193 
0.458739 0.0301713 -0.162619 194 
0.459154 0.0301502 -0.161703 194 
0.458646 0.0301718 -0.160905 191 
0.458542 0.0301746 -0.160055 190 
0.45844 0.0301774 -0.159206 189 
0.458684 0.0301642 -0.158309 193 
0.458352 0.0301776 -0.15749 191 
0.458309 0.0301776 -0.156632 193 
0.458497 0.030167 -0.155741 192 
0.45834 0.0301723 -0.154899 189 
0.457953 0.0301882 -0.154089 192 
0.457395 0.0302121 -0.153306 196 
0.456611 0.0302465 -0.152558 196 
0.457431 0.0302065 -0.151572 190 
0.457049 0.0302223 -0.150765 191 
0.456324 0.0302539 -0.150012 194 
0.456974 0.0302219 -0.149047 194 
0.455565 0.0302852 -0.148403 193 
0.4557 0.0302769 -0.147519 198 
0.455779 0.0302713 -0.146642 197 
0.456144 0.0302525 -0.145718 197 
0.455084 0.0302997 -0.145028 199 
0.454937 0.0303045 -0.144189 200 
0.455132 0.0302935 -0.143292 203 
0.454986 0.0302984 -0.142452 204 
0.454954 0.0302979 -0.141592 203 
0.454639 0.0303105 -0.140782 202 
0.454666 0.0303073 -0.139912 203 
0.455262 0.0302777 -0.13894 207 
0.452456 0.0304059 -0.138578 204 
0.452541 0.0304 -0.1377 198 
0.451838 0.0304307 -0.136967 199 
0.45181 0.03043 -0.13611 194 
0.45184 0.0304267 -0.135241 192 
0.451757 0.0304286 -0.134394 197 
0.451957 0.0304174 -0.133492 198 
0.451707 0.030427 -0.132676 201 
0.451233 0.030447 -0.131904 197 
0.449422 0.0305292 -0.131398 196 
0.449732 0.0305128 -0.130475 196 
0.451276 0.0304392 -0.129302 198 
0.450302 0.0304825 -0.128634 196 
0.450168 0.0304867 -0.127798 195 
0.450651 0.0304623 -0.126833 194 
0.448401 0.0305649 -0.126437 195 
0.448381 0.0305639 -0.125579 197 
0.44814 0.0305731 -0.124768 196 
0.447844 0.0305849 -0.123969 191 
0.447549 0.0305967 -0.12317 191 
0.447531 0.0305956 -0.122311 184 
0.44641 0.0306457 -0.121695 178 
0.445789 0.0306726 -0.120972 182 
0.44737 0.0305972 -0.119756 180 
0.446141 0.0306524 -0.119169 175 
0.446071 0.0306537 -0.118323 178 
0.445671 0.0306703 -0.117552 174 
0.446483 0.0306306 -0.116501 173 
0.446524 0.0306268 -0.115626 180 
0.446566 0.0306228 -0.11475 172 
0.446996 0.0306009 -0.113782 174 
0.445825 0.0306534 -0.113194 178 
0.44736 0.03058 -0.111957 174 
0.446133 0.0306351 -0.111386 174 
0.446454 0.0306183 -0.11044 177 
0.446113 0.0306322 -0.109655 173 
0.446435 0.0306152 -0.108706 168 
0.446924 0.0305905 -0.107713 164 
0.446694 0.0305992 -0.106899 167 
0.447296 0.0305692 -0.105874 161 
0.447289 0.0305676 -0.105002 157 
0.447616 0.0305504 -0.104043 153 
0.448389 0.0305124 -0.102965 157 
0.448105 0.0305237 -0.102162 157 
0.4481 0.0305219 -0.101285 159 
0.447985 0.0305253 -0.100438 162 
0.447925 0.0305261 -0.0995749 160 
0.448201 0.0305113 -0.0986209 160 
0.448925 0.0304755 -0.0975429 162 
0.448755 0.0304815 -0.0967069 163 
0.449426 0.0304482 -0.0956379 166 
0.449425 0.0304462 -0.0947529 163 
0.449481 0.0304416 -0.0938519 161 
0.449763 0.0304265 -0.0928859 162 
0.449595 0.0304323 -0.0920459 170 
0.450555 0.0303856 -0.0908829 161 
0.450274 0.0303966 -0.0900729 165 
0.451012 0.0303602 -0.0889679 160 
0.450619 0.0303765 -0.0881899 153 
0.451757 0.0303214 -0.0869629 154 
0.452217 0.030298 -0.0859309 157 
0.451141 0.0303461 -0.0853539 155 
0.451714 0.0303173 -0.0842859 154 
0.451265 0.0303363 -0.0835239 150 
0.452011 0.0302994 -0.0823989 154 
0.451562 0.0303183 -0.0816369 157 
0.45174 0.030308 -0.0806829 157 
0.451634 0.0303109 -0.0798149 159 
0.452099 0.0302872 -0.0787689 155 
0.452108 0.0302847 -0.0778629 159 
0.452976 0.0302422 -0.0766849 155 
0.453445 0.0302182 -0.0756289 149 
0.452824 0.0302451 -0.0749199 152 
0.453237 0.0302238 -0.0738799 149 
0.453998 0.0301862 -0.0727249 146 
0.453837 0.0301917 -0.0718659 147 
0.453965 0.0301836 -0.0709129 151 
0.453863 0.0301863 -0.0700339 151 
0.454513 0.0301539 -0.0689049 152 
0.454527 0.0301512 -0.0679849 157 
0.455064 0.030124 -0.0668879 149 
0.455138 0.0301185 -0.0659459 149 
0.45562 0.0300939 -0.0648629 141 
0.455345 0.0301047 -0.0640359 139 
0.455362 0.0301018 -0.0631099 136 
0.455905 0.0300743 -0.0619999 142 
0.45604 0.0300659 -0.0610299 139 
0.45565 0.0300821 -0.0602419 139 
0.455961 0.0300654 -0.0592079 136 
0.456215 0.0300515 -0.0581919 137 
0.456997 0.0300128 -0.0569859 131 
0.456549 0.0300317 -0.0562169 125 
0.45704 0.0300066 -0.0551099 118 
0.457415 0.0299869 -0.0540429 123 
0.457437 0.0299838 -0.0531019 126 
0.458051 0.029953 -0.0519429 128 
0.459498 0.0298831 -0.0504739 124 
0.458988 0.0299049 -0.0497229 116 
0.459965 0.029857 -0.0484199 112 
0.458386 0.0299288 -0.0480689 116 
0.458827 0.029906 -0.0469629 113 
0.458794 0.0299054 -0.0460329 118 
0.459714 0.0298602 -0.0447409 122 
0.459026 0.0298903 -0.0440579 129 
0.458222 0.0299258 -0.0434229 132 
0.458428 0.029914 -0.0423989 135 
0.458398 0.0299133 -0.0414659 130 
0.458308 0.0299154 -0.0405549 127 
0.458694 0.0298952 -0.0394559 119 
0.458664 0.0298944 -0.0385189 135 
0.458992 0.0298769 -0.0374399 123 
0.458785 0.0298845 -0.0365719 118 
0.458757 0.0298836 -0.0356319 114 
0.459266 0.0298576 -0.0344739 113 
0.45894 0.0298707 -0.0336519 108 
0.458973 0.0298671 -0.0326849 109 
0.458827 0.0298717 -0.0317889 112 
0.458264 0.029896 -0.0310649 107 
0.458715 0.0298727 -0.0299219 107 
0.45875 0.0298689 -0.0289499 117 
0.457949 0.0299043 -0.0283259 110 
0.458939 0.0298556 -0.0269529 110 
0.459035 0.029849 -0.0259519 108 
0.458354 0.0298788 -0.0252779 118 
0.458629 0.0298637 -0.0241999 115 
0.458068 0.0298878 -0.0234769 113 
0.45739 0.0299175 -0.0228049 108 
0.457427 0.0299136 -0.0218269 104 
0.457167 0.0299236 -0.0209769 111 
0.457086 0.0299253 -0.0200479 122 
0.456648 0.0299436 -0.0192749 115 
0.456628 0.0299424 -0.0183199 115 
0.458038 0.029874 -0.0167299 113 
0.456706 0.0299344 -0.0163529 114 
0.456508 0.0299415 -0.0154739 125 
0.455716 0.0299765 -0.0148609 118 
0.45475 0.0300197 -0.0143289 117 
0.454142 0.0300461 -0.0136379 121 
0.43957 0.0281709 -0.431062 12 
0.43607 0.0283535 -0.42846 6 
0.429075 0.0287205 -0.424225 7 
0.148787 0.043519 -0.293851 5 
0.433931 0.0284601 -0.424667 8 
0.436969 0.0282976 -0.425159 11 
0.440878 0.0280891 -0.426043 6 
0.428602 0.0287352 -0.419436 8 
0.437375 0.0282698 -0.422559 14 
0.431523 0.0285768 -0.418953 9 
0.437993 0.028233 -0.420986 10 
0.435613 0.0283566 -0.418979 8 
0.437086 0.0282767 -0.418723 11 
0.437804 0.0282367 -0.418122 9 
0.439292 0.028156 -0.417863 9 
0.43859 0.028191 -0.416624 11 
0.435776 0.0283376 -0.414454 13 
0.436437 0.0283006 -0.413828 11 
0.435585 0.0283436 -0.412536 16 
0.439183 0.0281513 -0.413193 10 
0.436151 0.0283095 -0.410953 17 
0.442571 0.027968 -0.412817 12 
0.438074 0.0282037 -0.409953 13 
0.436192 0.0283012 -0.40823 19 
0.43745 0.0282326 -0.407854 14 
0.439863 0.0281029 -0.407965 11 
0.43559 0.0283268 -0.405243 18 
0.439016 0.0281435 -0.405774 13 
0.43914 0.0281349 -0.404912 19 
0.436283 0.028284 -0.402809 14 
0.436623 0.028264 -0.402043 10 
0.44039 0.0280626 -0.402689 13 
0.440516 0.0280538 -0.401826 19 
0.439657 0.0280973 -0.400563 21 
0.441869 0.0279781 -0.40055 16 
0.443879 0.0278696 -0.400448 13 
0.443063 0.0279108 -0.399202 22 
0.444804 0.0278165 -0.398983 17 
0.440674 0.0280331 -0.396423 15 
0.442121 0.0279545 -0.396087 18 
0.439075 0.0281137 -0.393977 21 
0.444095 0.0278458 -0.395039 23 
0.443725 0.0278633 -0.393982 22 
0.441482 0.0279801 -0.392201 28 
0.442713 0.0279128 -0.39177 26 
0.441742 0.0279622 -0.39049 33 
0.44314 0.0278861 -0.390118 29 
0.442774 0.0279034 -0.389072 25 
0.442575 0.0279119 -0.388091 25 
0.44431 0.0278179 -0.387839 22 
0.444054 0.0278294 -0.386836 27 
0.444187 0.0278203 -0.38598 30 
0.444044 0.0278259 -0.385021 27 
0.444066 0.0278227 -0.384126 30 
0.444588 0.0277929 -0.383413 29 
0.446114 0.02771 -0.383064 24 
0.44558 0.0277362 -0.381965 31 
0.44566 0.02773 -0.381089 28 
0.44574 0.0277237 -0.380214 32 
0.444488 0.0277881 -0.378866 29 
0.445902 0.027711 -0.378466 37 
0.44615 0.0276958 -0.377652 30 
0.447799 0.0276063 -0.377326 34 
0.444758 0.0277656 -0.375366 33 
0.446118 0.0276914 -0.374938 33 
0.446201 0.027685 -0.374068 31 
0.447177 0.0276311 -0.373502 34 
0.449171 0.0275232 -0.373279 32 
0.447793 0.0275943 -0.371911 38 
0.449962 0.0274772 -0.371739 36 
0.449539 0.0274976 -0.370695 34 
0.449568 0.027494 -0.369803 33 
0.449315 0.0275054 -0.368819 40 
0.449233 0.0275078 -0.367892 36 
0.448532 0.0275429 -0.366765 39 
0.450707 0.0274254 -0.366572 36 
0.450455 0.0274368 -0.365591 41 
0.45026 0.0274451 -0.36463 37 
0.449841 0.0274653 -0.363598 47 
0.449141 0.0275005 -0.362481 45 
0.450189 0.0274428 -0.361915 47 
0.451411 0.0273758 -0.361401 44 
0.451843 0.0273508 -0.360637 44 
0.452161 0.0273319 -0.359837 44 
0.452481 0.0273128 -0.359038 51 
0.45343 0.0272604 -0.358428 50 
0.452609 0.027302 -0.357282 51 
0.45293 0.0272829 -0.356482 46 
0.452681 0.0272941 -0.355512 46 
0.454779 0.0271805 -0.355237 58 
0.454414 0.0271979 -0.354231 55 
0.453707 0.0272335 -0.353128 52 
0.453117 0.0272628 -0.352062 53 
0.453784 0.0272253 -0.351361 50 
0.455546 0.0271296 -0.350971 56 
0.45501 0.0271561 -0.349922 55 
0.456376 0.0270814 -0.349412 58 
0.456012 0.0270987 -0.348413 57 
0.45565 0.0271159 -0.347417 65 
0.455692 0.0271117 -0.346534 63 
0.457294 0.0270244 -0.34608 64 
0.456758 0.0270509 -0.345038 60 
0.458484 0.026957 -0.34461 61 
0.458353 0.0269619 -0.343678 61 
0.45741 0.0270101 -0.34253 57 
0.45885 0.0269314 -0.342017 57 
0.458139 0.0269673 -0.340934 64 
0.457604 0.0269937 -0.339901 66 
0.459454 0.0268931 -0.339488 67 
0.459034 0.0269135 -0.338484 66 
0.459432 0.0268903 -0.337692 63 
0.458606 0.0269323 -0.336589 62 
0.458887 0.0269153 -0.335767 72 
0.458297 0.0269447 -0.334728 74 
0.458811 0.0269153 -0.333965 79 
0.459561 0.0268733 -0.333259 75 
0.459611 0.0268686 -0.33238 83 
0.459721 0.0268608 -0.331515 73 
0.459715 0.0268591 -0.330623 80 
0.459826 0.0268512 -0.32976 72 
0.460405 0.0268183 -0.329007 78 
0.460517 0.0268103 -0.328143 82 
0.461157 0.0267741 -0.327401 81 
0.462566 0.026697 -0.326835 85 
0.461033 0.0267768 -0.325593 87 
0.460679 0.0267936 -0.324624 88 
0.460151 0.0268198 -0.323617 93 
0.459858 0.0268334 -0.322666 91 
0.460032 0.0268221 -0.321819 97 
0.46009 0.026817 -0.320947 100 
0.46085 0.0267745 -0.320227 102 
0.460793 0.0267755 -0.319329 94 
0.460619 0.0267828 -0.318407 101 
0.461147 0.0267526 -0.317635 97 
0.46039 0.026791 -0.316592 97 
0.460744 0.0267701 -0.315783 89 
0.460165 0.0267991 -0.314781 91 
0.460928 0.0267563 -0.314055 94 
0.46146 0.0267259 -0.31328 94 
0.460706 0.0267642 -0.312247 91 
0.460771 0.0267587 -0.31138 97 
0.461011 0.0267439 -0.310547 95 
0.462543 0.0266601 -0.309963 95 
0.461378 0.0267203 -0.308857 104 
0.461095 0.0267335 -0.307923 106 
0.460637 0.0267559 -0.306958 107 
0.461348 0.026716 -0.306213 109 
0.461125 0.0267259 -0.305293 102 
0.46266 0.0266419 -0.304696 103 
0.461324 0.0267113 -0.303575 106 
0.460637 0.026746 -0.302575 113 
0.460476 0.0267527 -0.301671 105 
0.460781 0.0267344 -0.30085 110 
0.461146 0.0267129 -0.300038 112 
0.460578 0.0267413 -0.299066 118 
0.461177 0.0267073 -0.298294 113 
0.460669 0.0267325 -0.297335 119 
0.460221 0.0267544 -0.296388 110 
0.459081 0.0268135 -0.29533 119 
0.459794 0.0267734 -0.294576 120 
0.459408 0.0267921 -0.293645 124 
0.45937 0.0267921 -0.29277 123 
0.460085 0.0267519 -0.292013 126 
0.459701 0.0267705 -0.291085 124 
0.458338 0.0268415 -0.290009 122 
0.458418 0.0268352 -0.289156 120 
0.457465 0.0268843 -0.28815 127 
0.457489 0.026881 -0.287291 118 
0.457112 0.0268992 -0.286374 121 
0.456338 0.0269387 -0.285402 126 
0.456763 0.026914 -0.284602 129 
0.455594 0.0269747 -0.28358 128 
0.454488 0.0270319 -0.282571 132 
0.454629 0.0270225 -0.281735 130 
0.454149 0.0270462 -0.280816 137 
0.454234 0.0270397 -0.279973 135 
0.453251 0.0270905 -0.278992 141 
0.452944 0.027105 -0.278102 142 
0.451968 0.0271554 -0.277129 146 
0.451776 0.0271637 -0.276257 149 
0.451195 0.0271929 -0.275338 144 
0.449952 0.0272576 -0.274343 141 
0.449764 0.0272658 -0.273477 138 
0.449798 0.027262 -0.272638 142 
0.449005 0.0273026 -0.271704 139 
0.448545 0.0273254 -0.270811 139 
0.449517 0.0272714 -0.270079 147 
0.447904 0.0273559 -0.269062 147 
0.447012 0.0274019 -0.268128 149 
0.446069 0.0274505 -0.267193 150 
0.446379 0.027432 -0.266391 155 
0.445387 0.0274833 -0.265456 154 
0.44521 0.027491 -0.264606 154 
0.44525 0.0274869 -0.263778 149 
0.445453 0.0274742 -0.262965 144 
0.445711 0.0274585 -0.262158 147 
0.446024 0.0274398 -0.261354 149 
0.44547 0.0274676 -0.260472 150 
0.445459 0.0274663 -0.25964 153 
0.445394 0.0274679 -0.258803 153 
0.445763 0.0274462 -0.258004 151 
0.445754 0.0274448 -0.257172 149 
0.445691 0.0274463 -0.256336 152 
0.445413 0.0274594 -0.255484 149 
0.445189 0.0274695 -0.254637 152 
0.445074 0.0274738 -0.253799 151 
0.445285 0.0274607 -0.252985 151 
0.445333 0.0274562 -0.25216 147 
0.445328 0.0274546 -0.25133 151 
0.445486 0.0274442 -0.250512 152 
0.446024 0.0274134 -0.249719 155 
0.446022 0.0274117 -0.248889 156 
0.445748 0.0274245 -0.248042 160 
0.446017 0.0274082 -0.24723 163 
0.446505 0.0273801 -0.246429 165 
0.446939 0.0273549 -0.245623 171 
0.446722 0.0273647 -0.244781 174 
0.44656 0.0273716 -0.243942 172 
0.44667 0.0273638 -0.243118 172 
0.446455 0.0273735 -0.242278 170 
0.446403 0.0273744 -0.241446 173 
0.446515 0.0273665 -0.240622 171 
0.44739 0.0273176 -0.239831 172 
0.447558 0.0273066 -0.239007 170 
0.446692 0.0273513 -0.238142 169 
0.447024 0.0273316 -0.237325 173 
0.448068 0.0272736 -0.236533 171 
0.446386 0.0273622 -0.235644 177 
0.44634 0.0273628 -0.234814 176 
0.446728 0.02734 -0.233998 170 
0.446955 0.0273259 -0.233175 170 
0.446856 0.0273294 -0.232344 173 
0.448012 0.0272654 -0.231544 174 
0.448351 0.0272452 -0.23072 176 
0.448582 0.0272309 -0.229894 177 
0.44832 0.0272431 -0.229057 169 
0.448224 0.0272464 -0.228223 175 
0.448457 0.027232 -0.227396 171 
0.448581 0.0272235 -0.226566 175 
0.448706 0.0272149 -0.225736 172 
0.448721 0.0272121 -0.224904 174 
0.448573 0.0272182 -0.224071 178 
0.449799 0.0271504 -0.223247 177 
0.448718 0.0272067 -0.222408 178 
0.449065 0.0271861 -0.221577 176 
0.449524 0.0271595 -0.220744 179 
0.449764 0.0271447 -0.219911 179 
0.449729 0.0271447 -0.219077 175 
0.450578 0.0270971 -0.218239 182 
0.450158 0.0271178 -0.217406 181 
0.450512 0.0270969 -0.216569 188 
0.450978 0.0270699 -0.215728 182 
0.451113 0.0270607 -0.21489 181 
0.451082 0.0270605 -0.214054 182 
0.451996 0.0270094 -0.213203 183 
0.452412 0.0269851 -0.212358 180 
0.45255 0.0269757 -0.211516 181 
0.453024 0.0269482 -0.210666 180 
0.452327 0.0269839 -0.209842 181 
0.452579 0.0269685 -0.208997 180 
