0.451506,0.0298511,-0.0316674,151
0.451664,0.0298407,-0.0308494,152
0.452202,0.0298099,-0.0300559,155
0.4522,0.0298082,-0.029226,156
0.451926,0.029821,-0.0283794,160
0.452195,0.0298047,-0.0275667,163
0.452683,0.0297766,-0.026766,165
0.453117,0.0297514,-0.0259605,171
0.4529,0.0297612,-0.0251179,174
0.452738,0.0297681,-0.0242792,172
0.452848,0.0297603,-0.0234551,172
0.452633,0.02977,-0.0226147,170
0.452581,0.0297709,-0.0217829,173
0.452693,0.029763,-0.020959,171
0.453568,0.0297141,-0.020168,172
0.453736,0.0297031,-0.0193443,170
0.45287,0.0297478,-0.0184788,169
0.453202,0.0297281,-0.0176623,173
0.454246,0.0296701,-0.0168703,171
0.452564,0.0297587,-0.015981,177
0.452518,0.0297593,-0.0151511,176
0.452906,0.0297365,-0.0143348,170
0.453133,0.0297224,-0.0135125,170
0.453034,0.0297259,-0.0126806,173
0.45419,0.0296619,-0.0118807,174
0.454529,0.0296417,-0.0110575,176
0.45476,0.0296274,-0.0102308,177
0.454498,0.0296396,-0.00939374,169
0.454402,0.0296429,-0.00856057,175
0.454635,0.0296285,-0.00773301,171
0.454759,0.02962,-0.0069031,175
0.454884,0.0296114,-0.00607277,172
0.454899,0.0296086,-0.00524089,174
0.454751,0.0296147,-0.00440759,178
0.455977,0.0295469,-0.00358386,177
0.454896,0.0296032,-0.00274476,178
0.455243,0.0295826,-0.00191373,176
0.455702,0.029556,-0.00108153,179
0.455942,0.0295412,-0.000247814,179
0.455907,0.0295412,0.000586053,175
0.456756,0.0294936,0.00142385,182
0.456336,0.0295143,0.00225665,181
0.45669,0.0294934,0.00309432,188
0.457156,0.0294664,0.00393448,182
0.457291,0.0294572,0.00477242,181
0.45726,0.029457,0.0056086,182
0.458174,0.0294059,0.00645954,183
0.45859,0.0293816,0.00730518,180
0.458728,0.0293722,0.00814703,181
0.459202,0.0293447,0.00899659,180
0.458505,0.0293804,0.00982087,181
0.458757,0.029365,0.0106664,180
0.458786,0.0293615,0.0115069,178
0.459487,0.0293218,0.0123668,181
0.459518,0.0293182,0.013209,179
0.45955,0.0293146,0.0140514,173
0.459975,0.0292898,0.0149075,173
0.460457,0.0292619,0.0157673,172
0.460379,0.0292642,0.0166078,178
0.461089,0.029224,0.0174794,174
0.460842,0.0292354,0.0183139,178
0.461443,0.0292011,0.0191845,175
0.461479,0.0291972,0.0200319,184
0.4618,0.029178,0.0208929,185
0.461838,0.029174,0.0217414,185
0.463582,0.029078,0.0226771,183
0.462938,0.0291108,0.0234933,180
0.462467,0.0291343,0.0243167,179
0.46359,0.0290718,0.0252286,182
0.46386,0.0290553,0.026095,182
0.463732,0.0290603,0.0269386,188
0.464347,0.0290252,0.0278281,188
0.464277,0.029027,0.0286762,190
0.464895,0.0289917,0.0295695,188
0.465286,0.0289687,0.0304499,186
0.464472,0.0290107,0.0312481,185
0.464806,0.0289907,0.0321255,188
0.464567,0.0290017,0.0329623,188
0.464902,0.0289817,0.0338416,191
0.465757,0.0289335,0.0347624,191
0.466616,0.0288852,0.0356869,189
0.465168,0.0289615,0.0364284,185
0.46545,0.0289444,0.0373078,184
0.465848,0.0289209,0.0381982,185
0.465843,0.0289192,0.0390556,188
0.466591,0.0288769,0.0399796,187
0.465894,0.0289126,0.0407765,187
0.466065,0.0289014,0.0416508,187
0.466006,0.0289027,0.0425043,198
0.467279,0.0288319,0.0434854,196
0.466409,0.028877,0.0442625,195
0.467919,0.0287934,0.0452732,196
0.467979,0.0287882,0.0461429,194
0.467573,0.0288082,0.0469651,192
0.467634,0.0288029,0.0478351,192
0.467172,0.028826,0.0486496,190
0.467234,0.0288207,0.0495198,191
0.466311,0.0288687,0.0502814,188
0.466085,0.0288789,0.0511183,183
0.46586,0.0288892,0.0519548,185
0.465751,0.0288931,0.0528042,185
0.465931,0.0288814,0.0536878,183
0.464958,0.0289321,0.0544339,183
0.46514,0.0289203,0.0553173,183
0.465899,0.0288773,0.0562734,189
0.465159,0.0289154,0.0570441,191
0.464996,0.0289223,0.0578862,195
0.465065,0.0289166,0.0587578,193
0.464904,0.0289233,0.0595999,191
0.46532,0.0288989,0.0605186,191
0.465103,0.0289087,0.0613537,195
0.464829,0.0289216,0.0621805,195
0.464383,0.0289438,0.0629828,194
0.464743,0.0289223,0.0638973,197
0.464414,0.0289382,0.0647151,193
0.464373,0.0289385,0.0655737,189
0.46416,0.028948,0.0664074,190
0.462859,0.0290166,0.0670794,191
0.462763,0.0290198,0.0679277,189
0.463411,0.0289828,0.0688892,193
0.46263,0.0290232,0.0696336,196
0.462421,0.0290325,0.0704646,197
0.462727,0.029014,0.0713764,192
0.463608,0.0289643,0.0723814,192
0.461289,0.029088,0.0728736,192
0.461538,0.0290726,0.073777,191
0.462188,0.0290354,0.0747479,192
0.461073,0.0290939,0.0754268,196
0.460813,0.029106,0.0762464,197
0.461292,0.0290781,0.0771917,196
0.460523,0.0291179,0.0779236,200
0.460719,0.0291053,0.0788216,202
0.459331,0.0291786,0.0794411,206
0.459471,0.0291691,0.0803285,206
0.459216,0.029181,0.0811457,202
0.459018,0.0291897,0.0819728,203
0.460801,0.029091,0.0831643,206
0.459641,0.0291521,0.0838155,203
0.458486,0.0292128,0.0844638,199
0.458291,0.0292214,0.0852905,201
0.458154,0.0292269,0.0861278,202
0.458129,0.0292263,0.0869869,198
0.458498,0.0292043,0.0879236,205
0.458024,0.0292281,0.0886957,200
0.45716,0.029273,0.0893885,201
0.457698,0.0292419,0.0903609,196
0.45762,0.0292442,0.0912106,196
0.456033,0.0293284,0.0917509,190
0.455344,0.0293639,0.0924718,192
0.455268,0.029366,0.0933185,198
0.455248,0.0293652,0.0941773,200
0.455006,0.0293764,0.0949894,199
0.454488,0.0294025,0.0957418,195
0.454525,0.0293986,0.096613,197
0.453292,0.0294637,0.0972071,190
0.453992,0.0294237,0.0982234,186
0.452212,0.0295184,0.0986914,183
0.452141,0.0295204,0.0995364,188
0.45262,0.0294924,0.100506,180
0.451945,0.0295271,0.101215,185
0.45226,0.0295081,0.102149,188
0.452136,0.0295129,0.102984,185
0.452122,0.0295116,0.103844,182
0.451944,0.0295194,0.104666,181
0.453419,0.0294372,0.105881,179
0.452194,0.0295019,0.106456,174
0.452183,0.0295005,0.107319,177
0.452007,0.0295082,0.108142,177
0.451831,0.0295157,0.108966,174
0.452041,0.0295024,0.109885,173
0.452858,0.0294559,0.110957,169
0.452353,0.0294815,0.1117,166
0.4524,0.029477,0.112582,160
0.452557,0.0294664,0.113493,159
0.452881,0.0294468,0.114448,159
0.452709,0.0294542,0.115276,154
0.452703,0.0294526,0.116147,157
0.452752,0.0294479,0.117034,153
0.453023,0.0294312,0.11798,157
0.452964,0.0294324,0.11884,164
0.453458,0.0294035,0.119849,160
0.453566,0.0293957,0.120756,165
0.453896,0.0293757,0.121725,163
0.453727,0.0293829,0.122558,163
0.45417,0.0293568,0.123561,162
0.45339,0.0293973,0.124225,172
0.45389,0.0293681,0.125246,167
0.45428,0.0293449,0.126239,169
0.454391,0.0293368,0.127155,166
0.454839,0.0293104,0.128168,162
0.454673,0.0293174,0.129006,163
0.455684,0.0292603,0.130187,165
0.455406,0.0292735,0.130995,155
0.455128,0.0292866,0.131803,161
0.455806,0.0292476,0.132893,155
0.455697,0.0292515,0.133753,160
0.455758,0.0292462,0.134663,162
0.456384,0.0292101,0.135745,160
0.456164,0.0292201,0.136573,157
0.456001,0.0292269,0.137419,154
0.457195,0.0291597,0.138683,156
0.456919,0.0291728,0.139496,152
0.457324,0.0291486,0.140521,147
0.457503,0.0291368,0.141478,152
0.457569,0.0291312,0.1424,154
0.457749,0.0291193,0.14336,148
0.457873,0.0291105,0.144303,144
0.45874,0.0290612,0.145487,151
0.459439,0.0290209,0.146621,153
0.45905,0.0290402,0.147403,151
0.458776,0.0290531,0.148222,156
0.459305,0.0290221,0.149306,152
0.459031,0.029035,0.150127,151
0.458987,0.0290353,0.151023,153
0.460037,0.0289759,0.152288,149
0.460457,0.028951,0.153345,149
0.459895,0.0289796,0.154071,147
0.459853,0.0289798,0.154973,149
0.460621,0.0289358,0.156154,148
0.461508,0.0288852,0.15738,148
0.46112,0.0289044,0.158167,149
0.46108,0.0289045,0.159075,140
0.461738,0.0288664,0.160229,133
0.461234,0.0288919,0.160975,131
0.461545,0.0288728,0.162011,135
0.462207,0.0288345,0.163174,137
0.462052,0.0288409,0.164046,131
0.462308,0.0288248,0.165067,131
0.462622,0.0288055,0.166112,125
0.462938,0.0287861,0.167159,132
0.46302,0.0287796,0.168122,128
0.463455,0.0287536,0.169217,125
0.463597,0.0287438,0.170206,119
0.462974,0.0287757,0.170909,112
0.463883,0.0287239,0.172188,107
0.463496,0.0287429,0.17298,121
0.463699,0.0287297,0.173997,120
0.463784,0.0287229,0.17497,122
0.46334,0.0287451,0.17574,126
0.464135,0.0286995,0.176989,135
0.463926,0.0287088,0.177852,123
0.46431,0.0286856,0.178946,123
0.464398,0.0286786,0.179927,121
0.463717,0.0287138,0.180605,124
0.463924,0.0287003,0.181634,117
0.464014,0.0286933,0.182617,121
0.464876,0.0286439,0.183912,117
0.464491,0.0286628,0.184708,117
0.464404,0.0286654,0.185625,120
0.463251,0.0287265,0.186107,123
0.463994,0.0286836,0.187362,116
0.463908,0.0286861,0.188281,115
0.464477,0.0286529,0.18947,112
0.463679,0.0286944,0.190094,113
0.464724,0.028635,0.191486,112
0.464401,0.0286505,0.192309,113
0.464914,0.0286202,0.193484,114
0.465129,0.0286063,0.194537,117
0.464389,0.0286446,0.195184,116
0.464784,0.0286208,0.196314,119
0.463213,0.0287048,0.196602,114
0.462894,0.0287201,0.197425,113
0.46305,0.0287094,0.198454,111
0.462969,0.0287117,0.199381,115
0.461704,0.0287788,0.19979,111
0.461683,0.0287778,0.200743,115
0.461898,0.0287638,0.201801,110
0.461346,0.0287919,0.202519,114
0.461444,0.0287844,0.203527,126
0.460187,0.0288512,0.203928,117
0.459991,0.0288597,0.204803,119
0.460031,0.0288554,0.205785,121
0.439555,0.0274549,-0.208337,6
0.446809,0.0270128,-0.210855,9
0.449376,0.0268549,-0.211128,8
0.435651,0.0276854,-0.203724,9
0.447103,0.0269886,-0.208173,7
0.444411,0.0271498,-0.205979,9
0.38967,0.0304694,-0.179666,7
0.442793,0.0272438,-0.203368,9
0.442856,0.0272379,-0.20247,10
0.443245,0.0272121,-0.201723,14
0.335799,0.0337322,-0.151967,6
0.343981,0.0332338,-0.154955,8
0.439453,0.0274361,-0.197236,9
0.445521,0.0270656,-0.199049,8
0.439584,0.027424,-0.195465,9
0.44309,0.0272091,-0.196113,9
0.439875,0.0274022,-0.193768,15
0.441387,0.0273083,-0.193523,10
0.440435,0.0273641,-0.19219,14
0.442219,0.0272536,-0.192058,8
0.444998,0.0270828,-0.192352,11
0.445885,0.0270268,-0.191817,8
0.446446,0.0269906,-0.191138,12
0.442867,0.027206,-0.188682,10
0.445487,0.0270447,-0.188888,12
0.441551,0.0272818,-0.1863,16
0.443451,0.0271643,-0.186194,14
0.442226,0.0272367,-0.184768,12
0.445381,0.0270429,-0.185181,17
0.443984,0.0271258,-0.183686,15
0.44465,0.0270832,-0.183052,16
0.447893,0.026884,-0.183479,14
0.447249,0.0269211,-0.182298,16
0.446607,0.026958,-0.181123,18
0.446788,0.026945,-0.180285,17
0.447793,0.0268818,-0.179779,18
0.444644,0.0270712,-0.177601,17
0.447607,0.026889,-0.177881,19
0.44664,0.0269458,-0.176586,19
0.445786,0.0269957,-0.17534,20
0.447992,0.0268594,-0.175304,24
0.446969,0.0269196,-0.173994,23
0.447646,0.0268764,-0.173352,26
0.447009,0.0269131,-0.172199,27
0.447521,0.0268798,-0.171492,23
0.446231,0.0269563,-0.170093,25
0.449155,0.0267763,-0.170307,27
0.448791,0.0267964,-0.169263,24
0.448647,0.0268031,-0.168304,24
0.450656,0.0266788,-0.168155,26
0.448471,0.0268098,-0.166431,24
0.450146,0.0267057,-0.166152,30
0.451388,0.0266281,-0.165707,28
0.450523,0.0266787,-0.164483,28
0.45038,0.0266853,-0.163527,26
0.450791,0.0266583,-0.162774,29
0.449931,0.0267086,-0.16156,34
0.44968,0.0267219,-0.16057,28
0.451252,0.0266241,-0.160233,32
0.450447,0.0266711,-0.159046,31
0.452191,0.0265628,-0.158764,35
0.452774,0.0265252,-0.158067,34
0.451465,0.0266029,-0.156708,34
0.451658,0.0265892,-0.155876,28
0.451685,0.0265855,-0.154987,33
0.451823,0.026575,-0.154137,33
0.451907,0.0265679,-0.153269,33
0.451657,0.0265811,-0.152288,36
0.453075,0.0264926,-0.151871,37
0.45316,0.0264854,-0.151002,30
0.454195,0.0264203,-0.15045,39
0.45456,0.026396,-0.149674,32
0.456448,0.0262788,-0.149398,38
0.454228,0.0264122,-0.147769,41
0.456848,0.0262504,-0.147726,38
0.457275,0.0262223,-0.146964,33
0.455724,0.0263148,-0.145565,41
0.457565,0.0262005,-0.145256,42
0.456578,0.0262587,-0.144043,45
0.455653,0.0263131,-0.142854,41
0.456136,0.0262816,-0.142111,45
0.457129,0.026219,-0.141526,45
0.457956,0.0261665,-0.140886,49
0.458445,0.0261346,-0.140139,45
0.45848,0.0261305,-0.139253,49
0.459369,0.0260742,-0.138626,52
0.46032,0.0260141,-0.138016,54
0.459156,0.0260831,-0.136768,43
0.460163,0.0260196,-0.136172,56
0.459514,0.0260572,-0.135083,53
0.460008,0.026025,-0.134333,56
0.459362,0.0260625,-0.133248,57
0.460657,0.0259813,-0.13273,51
0.459838,0.0260293,-0.131599,49
0.461309,0.0259375,-0.131127,57
0.461004,0.0259541,-0.130145,54
0.461389,0.0259285,-0.129359,53
0.461717,0.0259065,-0.128557,53
0.461758,0.0259019,-0.127674,59
0.462145,0.0258763,-0.126887,55
0.462995,0.0258223,-0.126227,55
0.462518,0.0258494,-0.125202,60
0.462965,0.0258201,-0.12443,64
0.463182,0.0258048,-0.123594,62
0.4634,0.0257895,-0.122759,60
0.464488,0.025721,-0.122154,61
0.464011,0.0257481,-0.121134,65
0.46423,0.0257326,-0.120298,61
0.464799,0.0256958,-0.119553,71
0.464208,0.02573,-0.118508,71
0.465126,0.0256718,-0.11785,68
0.464014,0.0257378,-0.116676,68
0.465165,0.0256654,-0.116075,71
0.465971,0.0256141,-0.115385,80
0.466196,0.0255983,-0.114548,77
0.465255,0.0256538,-0.113424,76
0.464435,0.025702,-0.112334,78
0.465648,0.0256258,-0.11174,69
0.465817,0.0256134,-0.11089,78
0.466044,0.0255975,-0.110055,78
0.466214,0.0255851,-0.109206,83
0.465801,0.0256084,-0.10822,80
0.465506,0.0256244,-0.107264,85
0.465735,0.0256084,-0.106431,78
0.466081,0.0255852,-0.105623,84
0.466779,0.0255405,-0.104895,81
0.466777,0.0255386,-0.104007,84
0.467888,0.0254686,-0.103367,85
0.467418,0.0254953,-0.102375,93
0.466367,0.0255577,-0.101259,95
0.467301,0.0254985,-0.100577,94
0.468064,0.0254498,-0.0998548,90
0.467889,0.0254585,-0.0989312,98
0.467657,0.0254707,-0.0979965,94
0.467309,0.02549,-0.097039,94
0.466903,0.0255129,-0.0960716,94
0.466499,0.0255356,-0.0951065,92
0.466388,0.0255405,-0.0942028,92
0.467618,0.0254631,-0.0935703,102
0.466515,0.0255287,-0.0924683,96
0.466115,0.0255512,-0.0915097,99
0.467229,0.025481,-0.0908493,98
0.467236,0.0254785,-0.0899709,96
0.46777,0.0254438,-0.089194,96
0.467487,0.0254592,-0.0882602,105
0.46738,0.0254637,-0.0873611,104
0.466807,0.0254969,-0.0863763,110
0.466702,0.0255013,-0.0854802,107
0.46683,0.0254915,-0.0846274,113
0.4669,0.0254852,-0.0837643,110
0.466564,0.0255039,-0.0828287,116
0.466636,0.0254975,-0.0819669,112
0.466243,0.0255196,-0.0810243,115
0.46591,0.025538,-0.0800938,113
0.466448,0.0255031,-0.0793137,108
0.466,0.0255286,-0.0783655,109
0.465496,0.0255575,-0.0774101,110
0.464879,0.0255934,-0.0764382,114
0.464724,0.025601,-0.0755447,117
0.465435,0.0255554,-0.0747919,117
0.46505,0.025577,-0.073862,121
0.46507,0.0255739,-0.0729978,120
0.465148,0.0255671,-0.072143,128
0.465054,0.0255709,-0.0712617,122
0.464616,0.0255959,-0.0703289,120
0.463149,0.025684,-0.0692436,120
0.462602,0.0257156,-0.0683006,127
0.461886,0.0257576,-0.0673354,127
0.462138,0.0257402,-0.0665131,123
0.461936,0.0257507,-0.0656254,123
0.460829,0.0258167,-0.0646116,124
0.460799,0.0258166,-0.0637517,115
0.461109,0.0257956,-0.0629389,128
0.459784,0.0258751,-0.0619043,128
0.459026,0.0259197,-0.0609508,137
0.458496,0.0259503,-0.0600302,134
0.458247,0.0259637,-0.0591483,136
0.457775,0.0259908,-0.0582394,135
0.457806,0.025987,-0.0573957,142
0.457448,0.0260071,-0.056504,136
0.457314,0.0260134,-0.0556412,145
0.455796,0.0261047,-0.0546133,144
0.455059,0.0261482,-0.0536834,145
0.454708,0.0261678,-0.0528017,144
0.455843,0.0260961,-0.0520915,146
0.454175,0.0261968,-0.0510618,147
0.453992,0.0262062,-0.0502031,148
0.453373,0.0262423,-0.0492978,150
0.452213,0.0263117,-0.0483374,148
0.451493,0.0263542,-0.0474277,147
0.451801,0.0263333,-0.0466271,150
0.451083,0.0263756,-0.0457216,150
0.451123,0.0263713,-0.0448944,149
0.450354,0.0264166,-0.0439885,147
0.450556,0.0264024,-0.0431785,143
0.45049,0.0264046,-0.0423428,142
0.450531,0.0264001,-0.0415176,149
0.450735,0.0263857,-0.040707,148
0.45067,0.0263878,-0.0398722,151
0.451091,0.0263601,-0.0390798,145
0.451027,0.0263621,-0.0382451,152
0.450319,0.0264039,-0.0373575,147
0.450364,0.0263992,-0.0365337,150
0.450948,0.0263614,-0.0357525,153
0.450349,0.0263964,-0.0348781,156
0.450665,0.0263751,-0.0340749,153
0.451197,0.0263404,-0.0332867,156
0.451084,0.0263455,-0.0324504,156
0.450972,0.0263506,-0.0316148,160
0.451237,0.0263324,-0.0308054,156
0.451233,0.0263307,-0.0299775,159
0.451608,0.0263058,-0.029174,161
0.452147,0.0262707,-0.0283794,159
0.45182,0.0262889,-0.0275308,161
0.451873,0.0262838,-0.0267057,165
0.451279,0.0263185,-0.025844,161
0.451657,0.0262934,-0.0250378,169
0.451496,0.0263014,-0.0242018,170
0.451876,0.0262762,-0.0233942,169
0.451932,0.0262708,-0.0225694,169
0.452693,0.0262221,-0.0217778,168
0.4521,0.0262567,-0.020922,173
0.452158,0.0262513,-0.0200969,176
0.452379,0.0262358,-0.0192784,168
0.451952,0.0262603,-0.0184334,167
0.452282,0.026238,-0.0176189,173
0.452397,0.0262291,-0.0167954,172
0.452188,0.0262401,-0.0159605,172
0.453607,0.0261507,-0.0151794,172
0.4528,0.0261986,-0.0143248,177
0.454006,0.0261224,-0.0135313,176
0.452982,0.0261836,-0.0126733,176
0.453155,0.0261711,-0.0118492,179
0.453166,0.0261685,-0.0110208,175
0.45345,0.0261492,-0.0101981,174
0.453735,0.0261297,-0.00937455,177
0.454238,0.0260968,-0.00855381,181
0.454689,0.0260671,-0.00773041,178
0.454594,0.0260711,-0.00689775,178
0.454938,0.026048,-0.00607078,178
0.454789,0.0260553,-0.00523752,178
0.454641,0.0260625,-0.00440484,175
0.454932,0.0260427,-0.00357559,179
0.455333,0.026016,-0.00274579,179
0.455516,0.0260029,-0.00191389,176
0.455371,0.02601,-0.00108099,178
0.455885,0.0259764,-0.000248053,176
0.456842,0.0259154,0.000588006,182
0.456147,0.0259564,0.00142006,181
0.456003,0.0259634,0.0022531,182
0.45586,0.0259703,0.00308564,182
0.456104,0.0259534,0.0039216,180
0.456679,0.025916,0.00476246,184
0.456979,0.0258956,0.0056017,184
0.457558,0.0258579,0.00644646,185
0.457362,0.0258681,0.00727982,178
0.458221,0.0258132,0.00813297,178
0.458082,0.0258199,0.00896814,176
0.458499,0.0257922,0.00981572,178
0.458862,0.0257679,0.0106636,176
0.459729,0.0257124,0.0115264,175
0.459033,0.0257536,0.0123476,175
0.458952,0.0257566,0.0131851,176
0.459542,0.0257183,0.0140442,175
0.459239,0.0257351,0.0148749,175
0.459663,0.025707,0.0157309,175
0.459865,0.0256926,0.0165801,174
0.460067,0.0256782,0.0174301,178
0.45999,0.0256811,0.0182694,177
0.460981,0.0256179,0.0191551,181
0.460512,0.025645,0.0199782,178
0.461111,0.025606,0.0208502,182
0.461037,0.0256087,0.0216915,183
0.462035,0.0255451,0.0225873,185
0.463665,0.0254424,0.0235204,187
0.463762,0.0254344,0.0243758,185
0.463519,0.0254476,0.0252124,186
0.464131,0.0254078,0.0260984,185
0.463603,0.0254385,0.026918,190
0.463191,0.025462,0.027743,186
0.463691,0.0254292,0.028625,188
0.464536,0.025375,0.0295317,192
0.464639,0.0253667,0.0303916,189
0.464571,0.025369,0.0312401,189
0.46479,0.0253535,0.0321091,188
0.464838,0.0253486,0.0329665,192
0.464657,0.0253579,0.0338071,191
0.464993,0.0253351,0.0346871,184
0.464699,0.0253514,0.0355188,190
0.464922,0.0253357,0.0363913,187
0.465088,0.0253235,0.0372603,189
0.464968,0.025329,0.0381059,187
0.46548,0.0252953,0.0390059,191
0.465304,0.0253043,0.0398473,187
0.465358,0.025299,0.040709,191
0.465011,0.0253185,0.0415342,193
0.464952,0.0253203,0.0423855,193
0.465871,0.0252614,0.0433304,191
0.465756,0.0252666,0.044178,193
0.466102,0.0252432,0.0450714,194
0.466392,0.0252233,0.0459606,197
0.466451,0.0252177,0.0468275,196
0.466454,0.0252156,0.0476888,190
0.46588,0.0252492,0.0484887,190
0.465883,0.025247,0.0493497,194
0.46583,0.0252484,0.0502047,193
0.466413,0.0252103,0.0511313,192
0.465957,0.0252366,0.0519415,195
0.466425,0.0252056,0.052858,194
0.466722,0.0251853,0.0537561,190
0.465978,0.0252294,0.0545308,189
0.465583,0.025252,0.0553455,188
0.46669,0.0251814,0.0563451,189
0.465544,0.0252505,0.0570659,188
0.465728,0.0252371,0.0579524,191
0.465509,0.0252488,0.0587877,196
0.465232,0.025264,0.0596151,194
0.465475,0.025247,0.060511,194
0.465546,0.0252406,0.0613849,195
0.465618,0.0252342,0.0622595,197
0.465517,0.0252385,0.0631108,195
0.465071,0.0252642,0.0639135,192
0.464914,0.025272,0.0647561,193
0.463668,0.0253474,0.065441,194
0.464718,0.0252803,0.0664579,192
0.463702,0.0253414,0.0671727,194
0.463205,0.0253703,0.0679621,191
0.462197,0.0254309,0.0686722,190
0.462216,0.0254277,0.069537,188
0.462407,0.025414,0.0704291,189
0.462427,0.0254107,0.0712954,191
0.461993,0.0254358,0.0720896,196
0.462185,0.0254219,0.0729838,187
0.461525,0.0254609,0.0737399,189
0.461605,0.025454,0.0746161,186
0.461344,0.0254682,0.0754363,194
0.461482,0.0254577,0.0763232,200
0.461791,0.0254366,0.0772403,199
0.461703,0.0254401,0.0780904,199
0.46048,0.0255141,0.0787424,199
0.461414,0.0254541,0.0797711,200
0.459968,0.025542,0.0803789,197
0.459037,0.0255979,0.0810745,200
0.459065,0.0255942,0.081942,201
0.458924,0.025601,0.082779,201
0.458897,0.0256008,0.0836371,205
0.458814,0.025604,0.084485,203
0.458563,0.0256176,0.0853012,197
0.458425,0.0256242,0.0861386,199
0.458232,0.0256343,0.0869652,199
0.458544,0.0256129,0.0878906,206
0.458296,0.0256264,0.0887068,202
0.458329,0.0256224,0.0895787,202
0.458026,0.0256393,0.0903835,200
0.458116,0.0256317,0.0912676,201
0.455915,0.0257666,0.0916824,198
0.455616,0.0257833,0.0924833,198
0.455151,0.0258102,0.0932489,199
0.454854,0.0258268,0.0940486,199
0.454558,0.0258432,0.0948479,198
0.454982,0.0258149,0.0958013,197
0.454853,0.025821,0.096637,198
0.453179,0.0259232,0.0971349,197
0.454099,0.025864,0.098199,190
0.45298,0.0259317,0.0988136,191
0.451976,0.0259922,0.0994503,192
0.451467,0.0260219,0.100196,185
0.451397,0.0260244,0.10104,185
0.451328,0.0260267,0.101885,184
0.451587,0.0260087,0.102806,183
0.451792,0.025994,0.103716,185
0.451614,0.0260031,0.104537,187
0.451985,0.025978,0.105489,193
0.452137,0.0259666,0.10639,188
0.451523,0.0260029,0.107107,183
0.451238,0.0260187,0.107902,179
0.451665,0.0259901,0.108872,176
0.452369,0.0259443,0.109912,174
0.4517,0.025984,0.110614,169
0.451856,0.0259723,0.111521,173
0.452287,0.0259435,0.112498,168
0.452334,0.0259386,0.11338,168
0.452272,0.0259405,0.114235,166
0.453867,0.0258392,0.11552,161
0.452479,0.0259237,0.116032,163
0.452804,0.0259015,0.116991,163
0.452357,0.0259273,0.117746,160
0.452352,0.0259256,0.118619,161
0.452183,0.0259342,0.119448,168
0.452952,0.0258843,0.120531,168
0.452838,0.0258894,0.121377,169
0.452669,0.025898,0.122208,167
0.452888,0.0258823,0.123146,169
0.453053,0.0258701,0.124071,165
0.45283,0.025882,0.124888,169
0.453106,0.0258628,0.125846,170
0.453273,0.0258504,0.126775,167
0.452996,0.0258657,0.127578,170
0.454052,0.0257978,0.128765,165
0.453998,0.0257991,0.129634,166
0.454112,0.0257901,0.130553,165
0.454114,0.0257879,0.13144,167
0.45434,0.0257718,0.132395,159
0.4544,0.0257661,0.133301,168
0.454684,0.0257463,0.134276,163
0.453962,0.0257894,0.134948,172
0.454861,0.0257312,0.136111,163
0.455878,0.0256657,0.137315,168
0.456561,0.0256211,0.138421,156
0.456738,0.025608,0.139373,154
0.456068,0.0256478,0.140062,157
0.456528,0.0256171,0.141104,162
0.457102,0.0255792,0.142185,159
0.457282,0.0255659,0.143143,165
0.457462,0.0255526,0.144103,159
0.457415,0.0255535,0.144991,158
0.457199,0.0255649,0.145825,150
0.457551,0.0255409,0.146844,154
0.457962,0.0255132,0.147885,152
0.458088,0.0255033,0.148834,161
0.458443,0.025479,0.14986,164
0.458629,0.0254654,0.150832,160
0.45979,0.0253907,0.152134,152
0.45969,0.0253949,0.153014,153
0.45936,0.0254135,0.153816,147
0.459664,0.0253924,0.154835,148
0.460198,0.0253569,0.155935,147
0.460389,0.025343,0.156919,140
0.460753,0.0253181,0.157965,138
0.460771,0.0253149,0.158892,144
0.461834,0.0252463,0.160188,139
0.461912,0.0252394,0.16114,135
0.461176,0.0252833,0.161803,132
0.461661,0.0252509,0.162902,135
0.461856,0.0252366,0.163899,123
0.461296,0.0252696,0.164624,132
0.462191,0.0252115,0.165878,128
0.462564,0.025186,0.166944,127
0.462938,0.0251605,0.168014,123
0.463079,0.0251496,0.168999,120
0.463397,0.0251276,0.170052,111
0.463774,0.0251019,0.17113,108
0.462742,0.0251644,0.171678,114
0.462943,0.0251496,0.172691,117
0.462969,0.0251459,0.173638,111
0.46276,0.0251569,0.174497,119
0.463139,0.025131,0.175581,127
0.463107,0.0251309,0.17651,126
0.463724,0.0250901,0.177691,129
0.463457,0.0251047,0.17853,132
0.463309,0.0251118,0.179416,131
0.463161,0.025119,0.180302,129
0.46384,0.0250743,0.181516,119
0.465115,0.0249923,0.182972,120
0.464434,0.0250328,0.18365,117
0.46405,0.0250547,0.184445,116
0.463726,0.0250729,0.185264,113
0.463285,0.0250984,0.186035,111
0.463494,0.0250831,0.187071,107
0.463409,0.0250863,0.187988,109
0.463382,0.0250858,0.18893,104
0.464008,0.0250444,0.190144,113
0.464756,0.0249954,0.191412,119
0.46378,0.0250544,0.19196,121
0.463815,0.02505,0.192932,112
0.463198,0.0250865,0.193628,111
0.462642,0.0251192,0.194349,114
0.462264,0.0251408,0.195145,115
0.462891,0.0250993,0.196372,115
0.463639,0.0250502,0.197656,115
0.462669,0.0251089,0.198197,117
0.462765,0.0251007,0.1992,125
0.461739,0.0251629,0.199713,120
0.461777,0.0251583,0.200691,118
0.46152,0.0251723,0.201539,120
0.460264,0.0252489,0.201944,125
0.460068,0.025259,0.202817,135
0.459637,0.0252838,0.203586,121
0.460733,0.0252129,0.205042,115
0.460067,0.0252525,0.205705,115
0.435513,0.0242927,-0.206313,11
0.520498,0.0184657,-0.245814,8
0.440308,0.0239598,-0.206746,8
0.440638,0.0239351,-0.205976,8
0.213173,0.0395297,-0.0995544,7
0.175662,0.0421022,-0.0823158,7
0.4339,0.0243909,-0.200073,7
0.434276,0.0243631,-0.199338,7
0.438335,0.0240826,-0.200298,13
0.437869,0.0241125,-0.199168,8
0.438675,0.0240552,-0.198622,12
0.437363,0.0241431,-0.197112,12
0.448302,0.0233907,-0.201143,7
0.440094,0.0239516,-0.196518,11
0.444256,0.023664,-0.197466,10
0.441886,0.0238245,-0.195487,12
0.445314,0.0235873,-0.196091,11
0.438813,0.0240312,-0.192298,8
0.440904,0.0238857,-0.192307,10
0.445785,0.0235486,-0.19353,12
0.448383,0.0233683,-0.193739,9
0.442985,0.0237367,-0.190475,16
0.441494,0.023837,-0.188918,14
0.443283,0.0237121,-0.188775,16
0.44222,0.023783,-0.187408,14
0.444611,0.0236168,-0.187514,14
0.44166,0.0238173,-0.185353,19
0.444315,0.023633,-0.185563,18
0.443303,0.0237004,-0.184228,21
0.444454,0.0236193,-0.183798,16
0.445121,0.0235715,-0.183165,18
0.440568,0.0238821,-0.180376,15
0.445915,0.0235128,-0.18167,20
0.443655,0.023666,-0.179836,19
0.447973,0.0233673,-0.180686,18
0.447167,0.0234206,-0.179447,15
0.445223,0.0235521,-0.177754,19
0.448574,0.0233198,-0.178189,14
0.446728,0.0234446,-0.176542,21
0.447731,0.0233736,-0.176032,22
0.447421,0.0233929,-0.175001,23
0.446676,0.023442,-0.173802,23
0.446205,0.0234723,-0.172713,24
0.445574,0.0235137,-0.171565,23
0.445053,0.0235475,-0.170463,25
0.448781,0.0232891,-0.170995,21
0.449517,0.0232365,-0.170371,25
0.445495,0.0235109,-0.167936,24
0.448734,0.0232862,-0.168262,21
0.447769,0.0233505,-0.166996,26
0.448997,0.023264,-0.166555,27
0.448197,0.023317,-0.165355,30
0.448823,0.023272,-0.164686,24
0.448846,0.0232683,-0.163794,23
0.451351,0.0230939,-0.163811,29
0.450931,0.0231208,-0.162754,32
0.452789,0.0229909,-0.162523,36
0.449107,0.0232422,-0.160293,36
0.449901,0.0231856,-0.15968,32
0.449706,0.0231969,-0.158713,33
0.454117,0.0228914,-0.159376,28
0.449428,0.023212,-0.156822,27
0.45166,0.0230564,-0.156708,34
0.451631,0.0230563,-0.155799,33
0.451658,0.0230524,-0.154911,35
0.454247,0.0228722,-0.154904,37
0.453157,0.0229452,-0.15363,34
0.452963,0.0229565,-0.152665,34
0.453939,0.0228873,-0.152097,33
0.452242,0.0230021,-0.150629,39
0.453327,0.0229254,-0.150096,35
0.454754,0.0228251,-0.149674,30
0.454839,0.0228172,-0.148804,37
0.455599,0.0227628,-0.148155,38
0.453392,0.0229128,-0.146538,41
0.454819,0.0228125,-0.146107,39
0.455299,0.0227774,-0.145366,41
0.456287,0.0227073,-0.144786,36
0.455475,0.0227612,-0.143632,39
0.455228,0.0227762,-0.142659,35
0.458478,0.0225502,-0.142786,45
0.456024,0.0227173,-0.141121,46
0.455777,0.0227323,-0.140151,49
0.458239,0.0225606,-0.140017,46
0.458387,0.0225484,-0.139166,48
0.458082,0.0225674,-0.138177,49
0.458855,0.0225121,-0.137516,48
0.457757,0.0225857,-0.136291,46
0.458473,0.0225343,-0.135611,49
0.45851,0.0225297,-0.134729,55
0.460142,0.0224153,-0.134316,57
0.459552,0.0224539,-0.133248,55
0.46188,0.0222913,-0.13303,53
0.460828,0.0223618,-0.13183,50
0.460868,0.0223571,-0.130946,51
0.460965,0.0223484,-0.130079,51
0.461062,0.0223396,-0.129213,56
0.460874,0.0223506,-0.128267,59
0.462292,0.0222507,-0.12777,60
0.461358,0.0223132,-0.126617,54
0.461629,0.0222924,-0.1258,57
0.461959,0.0222677,-0.124998,55
0.463038,0.0221912,-0.124398,57
0.462909,0.0221981,-0.12347,60
0.463993,0.0221212,-0.122867,58
0.464617,0.0220761,-0.122139,65
0.464025,0.022115,-0.121088,68
0.464244,0.0220978,-0.120253,62
0.465103,0.0220365,-0.119583,66
0.463067,0.0221751,-0.118166,66
0.463633,0.022134,-0.117421,65
0.46345,0.0221446,-0.116486,66
0.465178,0.0220233,-0.116031,76
0.464299,0.022082,-0.114921,76
0.465567,0.0219924,-0.114346,83
0.465152,0.022019,-0.113353,78
0.465203,0.0220135,-0.112476,75
0.466476,0.0219235,-0.111895,73
0.465422,0.0219944,-0.110751,77
0.465416,0.0219927,-0.109861,72
0.465818,0.021963,-0.109068,77
0.465406,0.0219894,-0.108084,74
0.465113,0.0220077,-0.10713,81
0.466213,0.0219297,-0.106497,83
0.465803,0.021956,-0.105517,86
0.466324,0.021918,-0.104749,80
0.465741,0.0219563,-0.103732,81
0.466263,0.0219182,-0.102964,83
0.466378,0.0219082,-0.102105,87
0.467019,0.0218619,-0.10136,90
0.46778,0.0218073,-0.10064,92
0.467371,0.0218336,-0.0996662,89
0.466615,0.0218839,-0.0986202,95
0.467316,0.0218334,-0.0978855,100
0.467203,0.0218392,-0.096978,95
0.46674,0.0218692,-0.0959991,96
0.467327,0.0218267,-0.0952381,95
0.467682,0.0218001,-0.0944281,92
0.466754,0.0218623,-0.0933588,89
0.466818,0.0218559,-0.0924915,88
0.466418,0.0218816,-0.0915327,84
0.467239,0.0218227,-0.0908151,87
0.466665,0.0218605,-0.0898242,89
0.466615,0.0218619,-0.0889367,89
0.466508,0.0218673,-0.088039,100
0.466983,0.0218325,-0.0872515,100
0.46618,0.0218861,-0.0862249,107
0.466249,0.0218793,-0.0853624,112
0.466609,0.0218525,-0.0845532,107
0.467028,0.0218215,-0.0837538,106
0.465823,0.0219029,-0.0826631,114
0.466241,0.0218719,-0.0818644,110
0.465966,0.021889,-0.0809433,109
0.464884,0.0219619,-0.0798841,109
0.466112,0.021875,-0.0792245,109
0.464801,0.0219638,-0.0781313,109
0.465451,0.0219168,-0.0773715,108
0.465123,0.0219376,-0.0764477,110
0.463477,0.0220496,-0.0753103,115
0.463839,0.0220226,-0.074504,115
0.463058,0.0220747,-0.0735142,112
0.462793,0.0220911,-0.0726091,113
0.462302,0.0221232,-0.0716702,121
0.461812,0.0221551,-0.0707337,120
0.462061,0.0221359,-0.0699119,122
0.462084,0.0221324,-0.0690555,117
0.46188,0.0221446,-0.0681657,117
0.460434,0.0222428,-0.0670953,121
0.460684,0.0222235,-0.0662758,129
0.459978,0.0222706,-0.0653192,128
0.459667,0.0222902,-0.0644214,132
0.459077,0.0223292,-0.0634863,127
0.458768,0.0223486,-0.0625923,127
0.458126,0.0223912,-0.0616548,131
0.457654,0.022422,-0.0607427,135
0.458072,0.0223911,-0.0599497,133
0.458213,0.0223794,-0.0591195,137
0.456412,0.0225023,-0.0580412,139
0.455616,0.0225556,-0.0570964,144
0.455207,0.0225821,-0.0562029,145
0.454964,0.022597,-0.0553315,148
0.45423,0.022646,-0.0544022,152
0.454209,0.0226456,-0.0535603,148
0.453914,0.0226641,-0.052687,150
0.453186,0.0227128,-0.0517654,156
0.453493,0.0226895,-0.0509634,149
0.452496,0.0227568,-0.0500161,155
0.452315,0.0227675,-0.0491618,156
0.451756,0.0228043,-0.0482679,153
0.450877,0.0228635,-0.0473426,155
0.450162,0.0229112,-0.046438,148
0.450577,0.0228806,-0.0456507,139
0.450025,0.0229169,-0.044766,137
0.450548,0.0228788,-0.0439885,139
0.450642,0.0228704,-0.0431682,141
0.450522,0.0228768,-0.0423277,134
0.45051,0.0228758,-0.0414978,141
0.450445,0.0228785,-0.0406634,141
0.451133,0.0228288,-0.039896,143
0.450316,0.0228836,-0.0389961,147
0.449824,0.0229159,-0.038127,147
0.45019,0.0228886,-0.0373309,152
0.450182,0.0228874,-0.0365034,159
0.449906,0.0229046,-0.035655,155
0.449792,0.0229107,-0.0348202,161
0.449732,0.022913,-0.0339902,156
0.449833,0.0229041,-0.0331724,161
0.450739,0.0228393,-0.0324119,158
0.450305,0.0228676,-0.0315549,157
0.451161,0.0228063,-0.0307872,157
0.45062,0.022842,-0.0299243,165
0.450939,0.0228179,-0.0291187,159
0.451961,0.0227451,-0.0283559,166
0.451097,0.0228032,-0.0274755,163
0.451904,0.0227453,-0.0266963,171
0.451472,0.0227734,-0.025844,171
0.450827,0.0228164,-0.0249817,174
0.45115,0.022792,-0.0241733,173
0.451798,0.0227451,-0.0233804,175
0.451746,0.0227469,-0.0225508,167
0.451749,0.0227448,-0.021724,171
0.451752,0.0227427,-0.0208974,170
0.451972,0.0227256,-0.0200803,178
0.451815,0.0227346,-0.0192468,173
0.45182,0.0227324,-0.0184204,170
0.45188,0.0227263,-0.0175962,169
0.452319,0.022694,-0.0167856,171
0.452542,0.0226766,-0.0159661,171
0.452334,0.0226892,-0.0151318,173
0.452559,0.0226717,-0.0143116,173
0.453925,0.0225748,-0.0135235,174
0.45274,0.0226553,-0.0126616,172
0.452534,0.0226678,-0.0118288,177
0.453032,0.0226312,-0.0110132,175
0.454404,0.0225339,-0.0102145,180
0.453111,0.022622,-0.00935862,178
0.453232,0.0226117,-0.00853265,178
0.453626,0.0225824,-0.00771057,182
0.453803,0.0225682,-0.00688404,186
0.454363,0.0225274,-0.00606151,179
0.454816,0.022494,-0.00523584,181
0.454941,0.0224834,-0.00440576,182
0.455068,0.0224727,-0.00357523,185
0.455031,0.0224734,-0.00274347,186
0.455323,0.0224512,-0.0019128,184
0.455506,0.0224365,-0.00108094,183
0.455142,0.02246,-0.000248865,185
0.455382,0.0224414,0.000583509,181
0.455403,0.0224381,0.00141578,177
0.455479,0.0224309,0.00224851,179
0.455501,0.0224275,0.00308109,181
0.455634,0.0224163,0.00391491,178
0.455548,0.0224205,0.00474662,180
0.457003,0.0223172,0.00559941,175
0.457304,0.0222944,0.00643951,176
0.457773,0.0222598,0.00728371,181
0.458132,0.0222329,0.00812758,183
0.457882,0.0222484,0.00895987,180
0.457965,0.0222407,0.00979902,180
0.457495,0.0222716,0.0106247,182
0.458968,0.0221671,0.0115009,183
0.459277,0.0221437,0.0123492,179
0.458806,0.0221746,0.0131749,181
0.45906,0.022155,0.0140224,179
0.46049,0.0220534,0.0149113,177
0.459795,0.0220999,0.0157288,175
0.460277,0.0220645,0.0165886,176
0.460087,0.0220758,0.0174234,184
0.459451,0.0221182,0.0182391,179
0.460158,0.0220671,0.019111,178
0.460811,0.0220196,0.0199833,176
0.460736,0.0220229,0.0208236,175
0.461449,0.0219713,0.0217025,183
0.46177,0.021947,0.0225643,184
0.461583,0.0219581,0.0234005,189
0.461962,0.0219298,0.0242671,187
0.463932,0.0217905,0.0252253,192
0.46261,0.0218807,0.0259986,185
0.464074,0.0217767,0.0269352,190
0.463889,0.0217877,0.0277748,184
0.463706,0.0217986,0.028614,183
0.463352,0.0218213,0.0294415,185
0.463682,0.0217964,0.0303142,183
0.464127,0.0217634,0.0311963,186
0.465089,0.0216943,0.0321173,191
0.464908,0.021705,0.0329581,189
0.464499,0.0217317,0.0337813,186
0.464719,0.0217143,0.0346517,191
0.464655,0.0217169,0.0355007,189
0.465221,0.0216754,0.0364006,191
0.464699,0.0217099,0.0372129,192
0.464809,0.0217004,0.0380768,186
0.465263,0.0216667,0.0389711,186
0.465259,0.0216651,0.039827,180
0.464969,0.0216834,0.0406572,184
0.46531,0.0216576,0.0415448,189
0.465309,0.0216558,0.0424016,191
0.465308,0.0216539,0.0432588,191
0.465767,0.0216199,0.0441611,193
0.465595,0.02163,0.0450026,198
0.46814,0.0214502,0.0461193,195
0.466751,0.0215453,0.0468394,198
0.466407,0.0215674,0.0476645,193
0.466179,0.0215814,0.0485011,190
0.465492,0.0216275,0.049287,193
0.465611,0.0216172,0.05016,197
0.465616,0.0216149,0.0510209,194
0.466083,0.0215803,0.0519349,193
0.466147,0.0215739,0.0528042,192
0.468008,0.0214418,0.0538866,191
0.468249,0.021423,0.0547816,196
0.467967,0.0214408,0.0556139,198
0.466411,0.0215476,0.0562877,196
0.466363,0.021549,0.0571457,193
0.465509,0.0216068,0.0579009,192
0.465174,0.0216282,0.0587206,199
0.465416,0.0216093,0.0596151,200
0.465544,0.0215984,0.0604956,196
0.4655,0.0215996,0.0613537,195
0.464881,0.0216409,0.0621332,195
0.46547,0.0215977,0.0630787,197
0.465198,0.0216148,0.0639054,199
0.464868,0.0216359,0.0647233,196
0.464311,0.021673,0.0655073,190
0.464959,0.0216256,0.0664663,193
0.464116,0.0216827,0.0672067,189
0.46339,0.0217315,0.0679621,183
0.463352,0.0217322,0.0688196,188
0.463657,0.0217089,0.0697304,191
0.462535,0.0217855,0.0704202,195
0.462556,0.0217821,0.0712864,195
0.462406,0.0217906,0.0721259,194
0.462257,0.0217991,0.0729654,192
0.461881,0.0218234,0.0737677,188
0.46162,0.0218397,0.074588,187
0.461416,0.021852,0.0754173,191
0.461668,0.0218325,0.0763232,193
0.461806,0.0218209,0.0772112,197
0.461718,0.0218251,0.0780609,196
0.461346,0.0218491,0.0788613,196
0.461373,0.0218453,0.079731,201
0.460437,0.0219089,0.0804293,197
0.459787,0.0219525,0.0811762,197
0.459702,0.0219565,0.0820242,196
0.459392,0.0219762,0.0828309,195
0.459196,0.021988,0.083658,196
0.458664,0.0220233,0.0844216,199
0.458638,0.0220232,0.0852798,198
0.458668,0.0220191,0.0861493,206
0.458812,0.0220071,0.0870414,205
0.457387,0.0221049,0.0876273,209
0.457978,0.0220615,0.088607,203
0.457563,0.0220887,0.0893885,204
0.457821,0.0220687,0.0903044,202
0.456069,0.0221895,0.0908132,203
0.455604,0.0222201,0.0915798,197
0.455916,0.0221963,0.0925063,200
0.455951,0.0221919,0.0933766,204
0.45582,0.0221992,0.0942125,196
0.455578,0.0222141,0.0950249,195
0.455393,0.0222252,0.095849,194
0.454931,0.0222556,0.096613,193
0.455024,0.0222471,0.097497,194
0.453186,0.022374,0.0979559,193
0.452785,0.0224002,0.0987281,192
0.452604,0.0224109,0.0995487,190
0.452314,0.0224293,0.100344,188
0.451861,0.0224592,0.101102,185
0.451791,0.0224621,0.101948,184
0.451941,0.0224496,0.102844,182
0.451872,0.0224525,0.10369,183
0.45164,0.0224668,0.104498,183
0.451792,0.0224543,0.105397,182
0.451451,0.0224762,0.10618,182
0.451276,0.0224866,0.107001,180
0.451155,0.0224931,0.107835,181
0.451472,0.0224689,0.108778,184
0.451189,0.0224868,0.109573,177
0.451398,0.0224702,0.110491,175
0.451498,0.0224612,0.111383,173
0.45138,0.0224675,0.11222,169
0.451317,0.0224699,0.113072,165
0.451857,0.0224301,0.11408,164
0.451576,0.0224478,0.114877,165
0.451844,0.0224271,0.115817,165
0.452112,0.0224062,0.116759,166
0.452052,0.0224085,0.117615,163
0.452212,0.0223953,0.118531,162
0.452483,0.0223743,0.119477,162
0.452314,0.0223842,0.120307,162
0.452531,0.022367,0.121241,163
0.452307,0.0223807,0.122056,163
0.45236,0.022375,0.122947,157
0.452524,0.0223615,0.12387,162
0.453407,0.0222975,0.124997,168
0.453185,0.0223111,0.125815,162
0.453018,0.0223208,0.126648,161
0.452797,0.0223343,0.127466,171
0.453352,0.0222934,0.128508,170
0.453853,0.0222562,0.129537,167
0.45391,0.0222501,0.130439,168
0.454136,0.0222323,0.131391,170
0.45425,0.0222222,0.132312,166
0.454031,0.0222356,0.133135,167
0.454425,0.0222059,0.134141,166
0.454876,0.0221722,0.135167,164
0.455891,0.0220988,0.136368,160
0.455335,0.0221359,0.137091,164
0.45641,0.0220583,0.138316,160
0.455292,0.0221348,0.138866,160
0.455805,0.0220968,0.139921,159
0.455982,0.0220823,0.140873,160
0.456723,0.0220281,0.142006,159
0.45645,0.0220453,0.142819,161
0.456742,0.0220227,0.143813,161
0.456922,0.022008,0.144772,161
0.456706,0.0220212,0.145605,160
0.45734,0.0219745,0.146715,160
0.457465,0.0219637,0.147661,152
0.458274,0.0219047,0.148834,153
0.458744,0.0218696,0.149898,154
0.458586,0.0218787,0.150756,154
0.458428,0.0218877,0.151613,152
0.458728,0.0218645,0.152626,143
0.459144,0.0218332,0.153679,141
0.459102,0.0218341,0.154579,143
0.459405,0.0218107,0.155598,142
0.459307,0.0218155,0.15648,144
0.460591,0.021723,0.157844,144
0.460782,0.0217075,0.158831,147
0.460223,0.0217448,0.159555,142
0.460242,0.0217414,0.160483,138
0.460897,0.0216932,0.161638,134
0.46028,0.0217345,0.162341,135
0.460647,0.0217066,0.163397,135
0.461131,0.0216704,0.164497,133
0.461734,0.0216258,0.165644,129
0.461349,0.0216509,0.166431,131
0.462245,0.0215856,0.167691,119
0.462268,0.0215819,0.168631,118
0.462583,0.0215575,0.169681,117
0.463252,0.0215083,0.170865,111
0.462866,0.0215334,0.171656,112
0.461956,0.0215954,0.172247,118
0.461806,0.0216039,0.173125,120
0.462182,0.0215753,0.174205,122
0.462033,0.0215837,0.175085,119
0.462469,0.0215508,0.176192,130
0.46273,0.0215302,0.177233,132
0.462993,0.0215096,0.178277,132
0.463374,0.0214806,0.179369,123
0.463639,0.0214598,0.180418,125
0.463432,0.0214722,0.181282,119
0.463875,0.0214388,0.182405,112
0.463493,0.0214637,0.183199,108
0.463405,0.0214677,0.184111,113
0.463495,0.0214592,0.185097,109
0.464296,0.0214006,0.186373,106
0.464091,0.0214129,0.187241,103
0.464065,0.0214126,0.188183,106
0.463211,0.0214707,0.188783,111
0.463303,0.021462,0.189774,119
0.46381,0.0214241,0.19094,120
0.463726,0.0214279,0.191861,119
0.463523,0.02144,0.192732,113
0.463263,0.0214562,0.193578,119
0.464484,0.0213678,0.195057,115
0.462683,0.0214928,0.195246,114
0.463074,0.021463,0.196372,111
0.461989,0.0215375,0.196863,113
0.461907,0.021541,0.197786,113
0.462003,0.0215321,0.198788,114
0.461628,0.0215564,0.199583,113
0.460549,0.0216304,0.200069,124
0.461762,0.0215426,0.201566,120
0.460214,0.0216498,0.201839,116
0.460076,0.0216573,0.202739,120
0.460232,0.0216442,0.20377,113
0.459626,0.0216847,0.204459,117
0.458033,0.0217951,0.204699,129
0.445959,0.0200866,-0.211214,9
0.435594,0.0208768,-0.20535,10
0.462704,0.0188024,-0.217264,7
0.439474,0.020576,-0.205345,8
0.439483,0.0205732,-0.204427,9
0.441744,0.0203983,-0.20456,10
0.238752,0.0359189,-0.110079,8
0.4385,0.0206421,-0.20121,10
0.43577,0.0208488,-0.199036,11
0.441189,0.0204324,-0.200609,9
0.439222,0.0205807,-0.198792,10
0.440459,0.020484,-0.198438,9
0.445882,0.0200672,-0.199972,15
0.442144,0.0203509,-0.197362,8
0.440013,0.0205119,-0.195489,14
0.44276,0.0202997,-0.1958,12
0.444613,0.0201558,-0.195704,11
0.440637,0.0204579,-0.193026,12
0.440971,0.0204304,-0.19226,11
0.439122,0.0205698,-0.190539,15
0.44767,0.0199136,-0.193354,9
0.439893,0.0205067,-0.18906,12
0.441293,0.0203975,-0.188756,13
0.437021,0.0207224,-0.186014,10
0.442769,0.0202803,-0.187569,14
0.447074,0.0199488,-0.188488,16
0.445721,0.0200502,-0.186997,14
0.446117,0.0200178,-0.186249,20
0.445153,0.0200896,-0.18493,20
0.444085,0.0201693,-0.183573,15
0.446163,0.0200081,-0.183526,14
0.444441,0.0201379,-0.181903,18
0.443918,0.0201759,-0.18078,13
0.4448,0.0201064,-0.180234,20
0.442556,0.0202761,-0.178414,17
0.445376,0.0200581,-0.178653,18
0.44534,0.0200588,-0.177732,15
0.445141,0.020072,-0.176747,15
0.448926,0.0197799,-0.17735,19
0.44572,0.0200235,-0.175168,20
0.446554,0.0199576,-0.174592,22
0.444246,0.0201324,-0.172782,21
0.447356,0.019892,-0.173096,31
0.445907,0.020001,-0.171628,22
0.44937,0.0197336,-0.172064,27
0.445894,0.0199979,-0.169822,25
0.446078,0.0199818,-0.168992,24
0.447077,0.0199032,-0.168473,21
0.447317,0.0198828,-0.167663,26
0.447775,0.0198456,-0.166935,25
0.449771,0.0196906,-0.166781,25
0.447275,0.0198799,-0.164949,25
0.445996,0.0199759,-0.163578,29
0.447594,0.0198514,-0.163271,26
0.449862,0.0196754,-0.163204,29
0.451542,0.0195445,-0.162915,33
0.449141,0.0197266,-0.161143,35
0.451812,0.0195198,-0.161206,30
0.449465,0.0196977,-0.159464,29
0.450039,0.0196516,-0.158772,31
0.4499,0.0196603,-0.157825,34
0.449597,0.0196815,-0.156822,28
0.451385,0.0195423,-0.156553,36
0.451632,0.0195213,-0.155741,28
0.451438,0.0195341,-0.154777,32
0.450914,0.0195723,-0.1537,31
0.451549,0.0195216,-0.153023,35
0.450805,0.0195767,-0.151875,30
0.452491,0.0194453,-0.151552,31
0.453576,0.01936,-0.151021,33
0.452383,0.0194495,-0.149726,38
0.452911,0.0194069,-0.149007,36
0.453608,0.0193514,-0.148343,41
0.453194,0.0193812,-0.147313,39
0.454227,0.0192998,-0.146756,43
0.455433,0.0192052,-0.146252,34
0.454457,0.0192781,-0.145042,40
0.45488,0.0192436,-0.144283,43
0.456146,0.0191444,-0.143792,46
0.455449,0.0191959,-0.142676,41
0.456324,0.0191267,-0.142058,44
0.457994,0.0189964,-0.141685,41
0.457123,0.0190612,-0.140518,45
0.456594,0.0190998,-0.13946,44
0.457813,0.0190041,-0.13894,49
0.457453,0.0190298,-0.137936,49
0.458394,0.0189555,-0.137327,51
0.458373,0.0189551,-0.136427,51
0.460058,0.0188236,-0.136036,54
0.458277,0.0189584,-0.134611,54
0.458088,0.0189709,-0.133664,68
0.458352,0.0189486,-0.13285,73
0.460151,0.0188083,-0.132482,62
0.460761,0.0187594,-0.131764,55
0.459603,0.0188464,-0.130537,58
0.462043,0.0186568,-0.130341,51
0.462544,0.0186163,-0.129586,56
0.46115,0.0187215,-0.128299,59
0.461878,0.0186634,-0.12761,60
0.463301,0.018552,-0.12711,61
0.46317,0.0185601,-0.126179,65
0.462809,0.0185858,-0.125186,62
0.462278,0.0186246,-0.124149,63
0.462666,0.0185927,-0.123362,58
0.463286,0.018543,-0.122636,61
0.46287,0.018573,-0.121633,57
0.463376,0.0185321,-0.120876,66
0.464172,0.0184688,-0.120193,63
0.464566,0.0184365,-0.119403,69
0.46415,0.0184665,-0.118403,65
0.464428,0.0184431,-0.117584,72
0.465288,0.0183749,-0.116911,67
0.464698,0.0184182,-0.115871,76
0.464574,0.0184258,-0.11495,69
0.465783,0.0183307,-0.11436,74
0.465775,0.0183293,-0.113467,71
0.465187,0.0183726,-0.112433,77
0.465819,0.0183219,-0.111697,75
0.465,0.0183829,-0.110612,81
0.465981,0.0183054,-0.109958,79
0.465221,0.0183619,-0.10889,92
0.464928,0.0183825,-0.107935,92
0.465155,0.018363,-0.107103,86
0.465615,0.0183256,-0.106324,85
0.465787,0.0183104,-0.105477,84
0.466017,0.0182907,-0.104644,84
0.466829,0.0182261,-0.103941,92
0.466653,0.0182376,-0.103016,90
0.466536,0.0182446,-0.102105,91
0.466711,0.0182292,-0.101259,90
0.466246,0.018263,-0.100273,96
0.466479,0.018243,-0.0994407,93
0.466656,0.0182274,-0.0985954,96
0.467182,0.0181849,-0.0978239,92
0.466835,0.0182096,-0.0968683,91
0.467246,0.0181759,-0.0960716,92
0.466727,0.018214,-0.0950826,98
0.467313,0.0181668,-0.0943212,94
0.466737,0.0182092,-0.0933237,94
0.466278,0.0182425,-0.0923524,89
0.467098,0.0181774,-0.0916361,92
0.466408,0.0182286,-0.0906215,93
0.465374,0.0183062,-0.0895434,93
0.465441,0.0182992,-0.088681,94
0.466956,0.0181804,-0.0880942,99
0.466096,0.0182447,-0.087055,102
0.46599,0.0182508,-0.0861602,101
0.465135,0.0183148,-0.085128,102
0.465262,0.018303,-0.0842788,109
0.465332,0.0182956,-0.0834192,108
0.46477,0.0183371,-0.0824467,118
0.464668,0.0183429,-0.0815585,112
0.464683,0.0183398,-0.0806912,111
0.464124,0.018381,-0.0797252,108
0.464369,0.0183601,-0.0788992,111
0.464902,0.018317,-0.0781215,111
0.464172,0.0183713,-0.077131,112
0.463732,0.0184033,-0.0761915,108
0.462268,0.0185143,-0.0750867,110
0.462401,0.0185021,-0.0742459,108
0.461287,0.0185861,-0.0732058,118
0.460912,0.0186131,-0.072287,117
0.461611,0.0185572,-0.0715375,123
0.461462,0.0185667,-0.0706552,120
0.460244,0.0186588,-0.069611,123
0.459985,0.0186768,-0.0687161,124
0.460009,0.0186731,-0.0678643,126
0.459808,0.0186866,-0.06698,119
0.459552,0.0187045,-0.0660889,126
0.458292,0.0187998,-0.0650557,124
0.45843,0.0187873,-0.0642244,125
0.458623,0.0187704,-0.0634009,129
0.457039,0.0188908,-0.0623331,131
0.457122,0.0188825,-0.0614971,130
0.456597,0.0189211,-0.0605801,135
0.456129,0.0189553,-0.0596729,135
0.456269,0.0189426,-0.0588466,140
0.455913,0.0189681,-0.0579567,148
0.455559,0.0189936,-0.0570687,149
0.454877,0.0190444,-0.0561417,147
0.454525,0.0190696,-0.0552579,155
0.453575,0.0191411,-0.0543038,152
0.453336,0.0191576,-0.0534377,153
0.453316,0.0191573,-0.0525982,145
0.45259,0.0192115,-0.0516783,146
0.452191,0.0192404,-0.0507983,140
0.451849,0.019265,-0.0499262,148
0.450807,0.0193436,-0.0489796,150
0.451328,0.0193015,-0.0482044,154
0.450559,0.019359,-0.0472918,149
0.450114,0.0193915,-0.0464158,153
0.449885,0.0194074,-0.0455637,151
0.44987,0.0194066,-0.044734,152
0.449429,0.0194389,-0.0438629,149
0.449416,0.019438,-0.0430348,151
0.450151,0.0193792,-0.0422773,147
0.449391,0.0194362,-0.0413795,147
0.449273,0.0194434,-0.0405427,147
0.449422,0.01943,-0.0397302,147
0.449199,0.0194454,-0.0388852,148
0.449029,0.0194566,-0.0380457,156
0.449981,0.0193812,-0.0372999,147
0.449545,0.019413,-0.0364385,153
0.448951,0.0194571,-0.0355664,154
0.449905,0.0193815,-0.0348161,153
0.449845,0.0193843,-0.0339862,149
0.449732,0.0193911,-0.0331527,152
0.449727,0.0193896,-0.0323276,155
0.449936,0.0193716,-0.0315176,160
0.450199,0.0193494,-0.0307107,159
0.450463,0.0193271,-0.0299031,167
0.450836,0.0192964,-0.0291015,164
0.450566,0.0193154,-0.0282587,168
0.450564,0.0193137,-0.0274333,166
0.451207,0.019262,-0.0266458,170
0.450992,0.0192768,-0.0258074,169
0.450777,0.0192915,-0.02497,173
0.450564,0.0193062,-0.0241335,173
0.450298,0.0193249,-0.0232953,171
0.450996,0.019269,-0.0225057,167
0.451214,0.0192503,-0.0216908,174
0.450895,0.0192731,-0.0208509,169
0.451544,0.019221,-0.0200545,174
0.451549,0.0192188,-0.0192288,169
0.451446,0.0192248,-0.0183989,169
0.451237,0.0192391,-0.0175655,169
0.451836,0.0191909,-0.0167622,174
0.451681,0.019201,-0.0159308,171
0.452498,0.0191359,-0.0151318,169
0.453102,0.0190873,-0.0143232,166
0.452516,0.0191308,-0.0134781,173
0.451986,0.01917,-0.0126369,172
0.45232,0.0191422,-0.0118193,178
0.452385,0.0191353,-0.0109943,176
0.452073,0.0191576,-0.0101611,172
0.453058,0.0190795,-0.00935439,175
0.452908,0.0190892,-0.00852402,177
0.453247,0.0190611,-0.00770197,180
0.453207,0.0190623,-0.00687342,186
0.453005,0.019076,-0.00604307,176
0.454215,0.0189804,-0.005228,178
0.45282,0.0190866,-0.00438655,186
0.454575,0.0189487,-0.00357093,180
0.454647,0.0189413,-0.00274091,179
0.455048,0.0189084,-0.00191156,188
0.455395,0.0188796,-0.00108067,188
0.455469,0.0188719,-0.000248722,185
