ply
format ascii 1.0
comment Created by CloudCompare v2.11 alpha (Anoia)
comment Created 2025/12/9 15:24
obj_info Generated by CloudCompare!
element vertex 1417
property float x
property float y
property float z
property float scalar_Scalar_field
end_header
0.297697 -0.57527 -0.337851 40 
0.296067 -0.574794 -0.336455 47 
0.296468 -0.574913 -0.335763 45 
0.295811 -0.574723 -0.334709 47 
0.294518 -0.574345 -0.333444 48 
0.294871 -0.574451 -0.332737 48 
0.294859 -0.574449 -0.331909 47 
0.293847 -0.574154 -0.330748 49 
0.293157 -0.573954 -0.329699 44 
0.29238 -0.573728 -0.328625 48 
0.29237 -0.573727 -0.327805 51 
0.292992 -0.573911 -0.32719 59 
0.292712 -0.573831 -0.326283 53 
0.291223 -0.573396 -0.324991 58 
0.290724 -0.573252 -0.32402 56 
0.291073 -0.573356 -0.323319 52 
0.290932 -0.573317 -0.322465 51 
0.290836 -0.573291 -0.321625 50 
0.289807 -0.572991 -0.320498 54 
0.288433 -0.572589 -0.319269 55 
0.288252 -0.572538 -0.318411 59 
0.288291 -0.572552 -0.317621 64 
0.287935 -0.572449 -0.316712 70 
0.285838 -0.571836 -0.315286 68 
0.286139 -0.571926 -0.31458 67 
0.285442 -0.571724 -0.313579 65 
0.286264 -0.571966 -0.313027 66 
0.284575 -0.571473 -0.311741 69 
0.285307 -0.571689 -0.311163 76 
0.284874 -0.571564 -0.310247 81 
0.284658 -0.571503 -0.309395 77 
0.285002 -0.571606 -0.308704 76 
0.28397 -0.571305 -0.307626 76 
0.284228 -0.571382 -0.306912 81 
0.284701 -0.571523 -0.306257 83 
0.284659 -0.571512 -0.305459 84 
0.285047 -0.571628 -0.304779 77 
0.28449 -0.571466 -0.303842 81 
0.28462 -0.571507 -0.303092 84 
0.28458 -0.571497 -0.302297 87 
0.285227 -0.571688 -0.301684 84 
0.284929 -0.571603 -0.300822 88 
0.284717 -0.571542 -0.299984 84 
0.284592 -0.571508 -0.29917 85 
0.284725 -0.571548 -0.298422 86 
0.284429 -0.571463 -0.297565 92 
0.284905 -0.571605 -0.296906 89 
0.284781 -0.57157 -0.296094 94 
0.284958 -0.571624 -0.295358 103 
0.28505 -0.571653 -0.294601 98 
0.28467 -0.571543 -0.293729 94 
0.285492 -0.571786 -0.293151 99 
0.285197 -0.571702 -0.292301 104 
0.285505 -0.571794 -0.291596 108 
0.284997 -0.571647 -0.290698 108 
0.285219 -0.571714 -0.289973 111 
0.285013 -0.571655 -0.289149 109 
0.285536 -0.57181 -0.288494 111 
0.285803 -0.57189 -0.287778 112 
0.286243 -0.572021 -0.287102 114 
0.285564 -0.571824 -0.286172 119 
0.286607 -0.572132 -0.28563 118 
0.286833 -0.5722 -0.284903 126 
0.286671 -0.572154 -0.284091 128 
0.286552 -0.572121 -0.28329 121 
0.286434 -0.572088 -0.282489 120 
0.286575 -0.572132 -0.281745 118 
0.286889 -0.572226 -0.281037 120 
0.28634 -0.572066 -0.280148 119 
0.286914 -0.572236 -0.279494 116 
0.287143 -0.572306 -0.278768 118 
0.287156 -0.572311 -0.277997 126 
0.287083 -0.572292 -0.277209 124 
0.286968 -0.57226 -0.276413 130 
0.287112 -0.572304 -0.27567 124 
0.28717 -0.572323 -0.274909 124 
0.287358 -0.57238 -0.274174 128 
0.287937 -0.572551 -0.273513 134 
0.288126 -0.572609 -0.272777 129 
0.288143 -0.572615 -0.272008 139 
0.287769 -0.572508 -0.271167 144 
0.28809 -0.572604 -0.270455 145 
0.288281 -0.572661 -0.269719 146 
0.288256 -0.572656 -0.268944 141 
0.289361 -0.572982 -0.268369 143 
0.288553 -0.572747 -0.267455 142 
0.288964 -0.572869 -0.266756 139 
0.289114 -0.572915 -0.266011 145 
0.289177 -0.572935 -0.265251 144 
0.289503 -0.573033 -0.264536 134 
0.289873 -0.573143 -0.263826 140 
0.290025 -0.57319 -0.26308 146 
0.290265 -0.573262 -0.262348 139 
0.28985 -0.573142 -0.261511 147 
0.290178 -0.57324 -0.260792 147 
0.29042 -0.573313 -0.26006 153 
0.290399 -0.573309 -0.259286 150 
0.290204 -0.573253 -0.258487 150 
0.290228 -0.573262 -0.257721 149 
0.290778 -0.573425 -0.257034 147 
0.291154 -0.573538 -0.256319 147 
0.290784 -0.573431 -0.255495 150 
0.291909 -0.573763 -0.254886 148 
0.291495 -0.573643 -0.254057 152 
0.291346 -0.573601 -0.253267 154 
0.291593 -0.573676 -0.252531 159 
0.29206 -0.573815 -0.251824 161 
0.292221 -0.573864 -0.251075 162 
0.291808 -0.573744 -0.250252 164 
0.29219 -0.573858 -0.249532 163 
0.292616 -0.573985 -0.248816 167 
0.292646 -0.573996 -0.24805 172 
0.292676 -0.574006 -0.247284 169 
0.292839 -0.574056 -0.246534 166 
0.292826 -0.574054 -0.245763 170 
0.293655 -0.574299 -0.24509 171 
0.293421 -0.574232 -0.244292 174 
0.293542 -0.57427 -0.243536 171 
0.293708 -0.57432 -0.242784 170 
0.293963 -0.574397 -0.242042 170 
0.294041 -0.574422 -0.24128 170 
0.294387 -0.574525 -0.240546 172 
0.294422 -0.574537 -0.239779 171 
0.294635 -0.574602 -0.23903 173 
0.29552 -0.574864 -0.238348 173 
0.295243 -0.574784 -0.237548 175 
0.295011 -0.574718 -0.236755 173 
0.295899 -0.57498 -0.236067 172 
0.295667 -0.574914 -0.235274 174 
0.295124 -0.574756 -0.234453 171 
0.295431 -0.574848 -0.23371 167 
0.295917 -0.574993 -0.232981 169 
0.296002 -0.57502 -0.232216 171 
0.296311 -0.575112 -0.23147 173 
0.295455 -0.574863 -0.23063 174 
0.296078 -0.575048 -0.229908 174 
0.296434 -0.575154 -0.229164 173 
0.296746 -0.575247 -0.228416 179 
0.297013 -0.575328 -0.227663 179 
0.297643 -0.575515 -0.226935 178 
0.297641 -0.575516 -0.226161 181 
0.29841 -0.575744 -0.225439 179 
0.298636 -0.575812 -0.224679 180 
0.298636 -0.575814 -0.223904 182 
0.298954 -0.575909 -0.223149 182 
0.298773 -0.575858 -0.222363 178 
0.29932 -0.57602 -0.221619 185 
0.299231 -0.575996 -0.220838 180 
0.299051 -0.575945 -0.220053 186 
0.29919 -0.575987 -0.219285 184 
0.299284 -0.576017 -0.218515 183 
0.299333 -0.576033 -0.217742 185 
0.299474 -0.576076 -0.216973 183 
0.299524 -0.576093 -0.2162 186 
0.30026 -0.576311 -0.215455 188 
0.301137 -0.576571 -0.214713 185 
0.300821 -0.57648 -0.213923 186 
0.301195 -0.576592 -0.213158 190 
0.301202 -0.576595 -0.21238 188 
0.302363 -0.576938 -0.211639 188 
0.301678 -0.576739 -0.210838 185 
0.301917 -0.576811 -0.210066 186 
0.302203 -0.576897 -0.209294 187 
0.302537 -0.576997 -0.208522 188 
0.302778 -0.57707 -0.207747 191 
0.302141 -0.576884 -0.206953 186 
0.30331 -0.57723 -0.206195 188 
0.303182 -0.577194 -0.205411 190 
0.303799 -0.577377 -0.204638 191 
0.304091 -0.577465 -0.203859 190 
0.304245 -0.577512 -0.203077 187 
0.304258 -0.577518 -0.202294 186 
0.304833 -0.577689 -0.201514 191 
0.305129 -0.577777 -0.200731 194 
0.305051 -0.577756 -0.199945 193 
0.305583 -0.577915 -0.199161 193 
0.306636 -0.578226 -0.198374 190 
0.306747 -0.578261 -0.197585 190 
0.306434 -0.57817 -0.196798 186 
0.306688 -0.578247 -0.196009 186 
0.306943 -0.578324 -0.195218 186 
0.307152 -0.578387 -0.194427 185 
0.307693 -0.578548 -0.193631 180 
0.308427 -0.578766 -0.19283 182 
0.308305 -0.578732 -0.19204 183 
0.309521 -0.579091 -0.191227 180 
0.308825 -0.578888 -0.190447 185 
0.309565 -0.579108 -0.189638 189 
0.310357 -0.579342 -0.188824 186 
0.310814 -0.579479 -0.188017 188 
0.311177 -0.579587 -0.18721 190 
0.311105 -0.579568 -0.186414 187 
0.311905 -0.579805 -0.185591 186 
0.312222 -0.5799 -0.184782 189 
0.312298 -0.579925 -0.183979 184 
0.312131 -0.579877 -0.183185 183 
0.312645 -0.58003 -0.182365 185 
0.312966 -0.580127 -0.181551 183 
0.312362 -0.579951 -0.180776 184 
0.312149 -0.57989 -0.179985 183 
0.312617 -0.58003 -0.179162 186 
0.312842 -0.580098 -0.17835 190 
0.313606 -0.580324 -0.177509 189 
0.313834 -0.580393 -0.176694 189 
0.314406 -0.580564 -0.175858 194 
0.314981 -0.580734 -0.17502 196 
0.315705 -0.580949 -0.174171 193 
0.315296 -0.580831 -0.173388 191 
0.315874 -0.581003 -0.172544 187 
0.316059 -0.581059 -0.171723 194 
0.316641 -0.581232 -0.170875 195 
0.316182 -0.581099 -0.170096 192 
0.317513 -0.581493 -0.169193 194 
0.318051 -0.581653 -0.168341 187 
0.31819 -0.581696 -0.167517 198 
0.31838 -0.581754 -0.166688 195 
0.318321 -0.581738 -0.165878 192 
0.318512 -0.581796 -0.165048 195 
0.318504 -0.581796 -0.164233 194 
0.317995 -0.581648 -0.16346 196 
0.318589 -0.581825 -0.162594 198 
0.318282 -0.581736 -0.161805 197 
0.319582 -0.582121 -0.160872 195 
0.319023 -0.581958 -0.160105 191 
0.318968 -0.581944 -0.159292 191 
0.319014 -0.581959 -0.15847 190 
0.319262 -0.582034 -0.157627 196 
0.319057 -0.581976 -0.156829 195 
0.319055 -0.581977 -0.15601 200 
0.319204 -0.582023 -0.155176 197 
0.3188 -0.581906 -0.154399 196 
0.318899 -0.581937 -0.153569 197 
0.318849 -0.581924 -0.152755 196 
0.318698 -0.581882 -0.151952 195 
0.31885 -0.581928 -0.151115 193 
0.3186 -0.581857 -0.150324 194 
0.318451 -0.581815 -0.149521 196 
0.318504 -0.581832 -0.148695 197 
0.318456 -0.58182 -0.14788 194 
0.31851 -0.581838 -0.147053 190 
0.318213 -0.581752 -0.146269 193 
0.318368 -0.5818 -0.145428 196 
0.318122 -0.58173 -0.144638 194 
0.318379 -0.581807 -0.143784 200 
0.319241 -0.582063 -0.142847 204 
0.318744 -0.581918 -0.14209 196 
0.318701 -0.581908 -0.141272 197 
0.318709 -0.581912 -0.140448 196 
0.318316 -0.581798 -0.139679 197 
0.318677 -0.581906 -0.138804 196 
0.318334 -0.581807 -0.138028 197 
0.317091 -0.581444 -0.137386 196 
0.317452 -0.581552 -0.13651 195 
0.317663 -0.581616 -0.135655 195 
0.317074 -0.581444 -0.134921 196 
0.316288 -0.581215 -0.134218 195 
0.3176 -0.581603 -0.133191 200 
0.316164 -0.581182 -0.132593 198 
0.316726 -0.58135 -0.131681 195 
0.316142 -0.581179 -0.130951 194 
0.316057 -0.581156 -0.130142 197 
0.316072 -0.581163 -0.129315 197 
0.315789 -0.581081 -0.128539 196 
0.315357 -0.580956 -0.127788 196 
0.315374 -0.580963 -0.126962 194 
0.315689 -0.581058 -0.126083 196 
0.315408 -0.580977 -0.125308 196 
0.315377 -0.58097 -0.124488 197 
0.314552 -0.580729 -0.123811 198 
0.314077 -0.580591 -0.123074 193 
0.313455 -0.58041 -0.122364 192 
0.313327 -0.580374 -0.121565 198 
0.313494 -0.580425 -0.120711 194 
0.312974 -0.580274 -0.119986 200 
0.312847 -0.580238 -0.119187 195 
0.31277 -0.580218 -0.118379 202 
0.312596 -0.580168 -0.117589 192 
0.312422 -0.580119 -0.1168 191 
0.312249 -0.58007 -0.116011 192 
0.311635 -0.579891 -0.11531 194 
0.31161 -0.579886 -0.114492 193 
0.310658 -0.579607 -0.113864 191 
0.31039 -0.57953 -0.113097 191 
0.31061 -0.579597 -0.112229 195 
0.310976 -0.579707 -0.111329 199 
0.310077 -0.579444 -0.110696 191 
0.309812 -0.579368 -0.10993 194 
0.309838 -0.579377 -0.109102 194 
0.310011 -0.57943 -0.10824 197 
0.308392 -0.578955 -0.107774 197 
0.309048 -0.57915 -0.106806 190 
0.308834 -0.579089 -0.106031 198 
0.308476 -0.578986 -0.105288 193 
0.307781 -0.578783 -0.104624 194 
0.308003 -0.578851 -0.10375 192 
0.307599 -0.578734 -0.103021 196 
0.307389 -0.578673 -0.102247 190 
0.307179 -0.578614 -0.101474 196 
0.307162 -0.57861 -0.100655 195 
0.306809 -0.578508 -0.0999157 196 
0.306744 -0.578491 -0.0991076 199 
0.306632 -0.57846 -0.0983109 196 
0.306856 -0.578528 -0.0974305 196 
0.307177 -0.578625 -0.0965255 200 
0.305725 -0.578199 -0.0960635 198 
0.305186 -0.578042 -0.0953755 197 
0.305267 -0.578068 -0.0945305 195 
0.304967 -0.577981 -0.0937835 191 
0.304907 -0.577965 -0.0929745 186 
0.304561 -0.577865 -0.0922395 186 
0.304596 -0.577878 -0.0914055 185 
0.304298 -0.577792 -0.0906595 183 
0.303765 -0.577637 -0.0899765 181 
0.3038 -0.577649 -0.0891415 179 
0.303505 -0.577564 -0.0883955 179 
0.303589 -0.577591 -0.0875475 177 
0.302351 -0.577228 -0.0870615 183 
0.30234 -0.577227 -0.0862395 181 
0.302048 -0.577143 -0.0854965 183 
0.301757 -0.577059 -0.0847535 176 
0.301607 -0.577016 -0.0839705 180 
0.301504 -0.576988 -0.0831745 181 
0.301308 -0.576932 -0.0824045 178 
0.301488 -0.576987 -0.0815265 175 
0.301527 -0.577001 -0.0806875 176 
0.301661 -0.577042 -0.0798205 179 
0.301701 -0.577056 -0.0789795 178 
0.302213 -0.577209 -0.0779975 177 
0.301783 -0.577084 -0.0772955 176 
0.301589 -0.577029 -0.0765235 173 
0.301254 -0.576932 -0.0757935 173 
0.301767 -0.577085 -0.0748055 170 
0.301669 -0.577058 -0.0740025 173 
0.301806 -0.5771 -0.0731265 169 
0.302275 -0.577241 -0.0721465 171 
0.302082 -0.577186 -0.0713705 165 
0.302079 -0.577187 -0.0705355 165 
0.301557 -0.577035 -0.0698645 166 
0.301838 -0.57712 -0.0689385 168 
0.302215 -0.577233 -0.0679785 172 
0.301929 -0.577151 -0.0672325 166 
0.302118 -0.577208 -0.0663315 170 
0.302401 -0.577294 -0.0653975 165 
0.302543 -0.577338 -0.0645095 166 
0.302639 -0.577368 -0.0636345 163 
0.302354 -0.577286 -0.0628865 164 
0.302688 -0.577386 -0.0619305 163 
0.302451 -0.577318 -0.0611655 158 
0.302358 -0.577293 -0.0603525 160 
0.302597 -0.577365 -0.0594245 158 
0.302647 -0.577382 -0.0585595 166 
0.302697 -0.577399 -0.0576945 167 
0.302987 -0.577486 -0.0567455 159 
0.302752 -0.577419 -0.0559775 156 
0.303328 -0.577591 -0.0549235 152 
0.30338 -0.577608 -0.0540525 157 
0.303624 -0.577682 -0.0531125 154 
0.303534 -0.577658 -0.0522905 153 
0.304259 -0.577873 -0.0511735 148 
0.303689 -0.577707 -0.0505235 152 
0.303887 -0.577768 -0.0495945 150 
0.304423 -0.577928 -0.0485395 146 
0.303948 -0.57779 -0.0478555 138 
0.304437 -0.577936 -0.0468145 140 
0.304397 -0.577926 -0.0459685 143 
0.304308 -0.577902 -0.0451395 144 
0.304124 -0.57785 -0.0443465 145 
0.30447 -0.577954 -0.0433515 138 
0.305642 -0.578301 -0.0420385 124 
0.305652 -0.578306 -0.0411675 125 
0.305856 -0.578369 -0.0402195 125 
0.306794 -0.578647 -0.0389845 119 
0.305343 -0.578221 -0.0386805 120 
0.305694 -0.578327 -0.0376725 124 
0.305511 -0.578275 -0.0368725 133 
0.305474 -0.578266 -0.0360155 139 
0.306756 -0.578646 -0.0346295 136 
0.306622 -0.578609 -0.0338075 131 
0.307076 -0.578745 -0.0327465 132 
0.307139 -0.578766 -0.0318425 131 
0.307596 -0.578902 -0.0307765 127 
0.307709 -0.578938 -0.0298485 127 
0.307921 -0.579003 -0.0288785 126 
0.30769 -0.578936 -0.0280905 120 
0.307952 -0.579016 -0.0270965 123 
0.308364 -0.579139 -0.0260385 123 
0.309324 -0.579425 -0.0247475 120 
0.309291 -0.579417 -0.0238705 116 
0.309309 -0.579424 -0.0229725 116 
0.310075 -0.579653 -0.0217525 117 
0.309644 -0.579528 -0.0210435 118 
0.310513 -0.579786 -0.0197735 123 
0.309782 -0.579572 -0.0191945 117 
0.310352 -0.579743 -0.0180495 114 
0.310071 -0.579662 -0.0172735 116 
0.310845 -0.579892 -0.0160345 111 
0.311168 -0.57999 -0.0149895 101 
0.310786 -0.579879 -0.0142565 100 
0.311211 -0.580007 -0.0131645 108 
0.311182 -0.58 -0.0122725 103 
0.311508 -0.580099 -0.0112195 107 
0.311885 -0.580212 -0.0101415 106 
0.312111 -0.580281 -0.00912948 103 
0.311476 -0.580096 -0.00850949 105 
0.311855 -0.58021 -0.00742549 112 
0.31112 -0.579995 -0.00685349 105 
0.312005 -0.580258 -0.00553149 128 
0.311828 -0.580208 -0.00470048 105 
0.31165 -0.580158 -0.00386949 113 
0.312184 -0.580317 -0.00270349 119 
0.136646 -0.530026 -0.318913 8 
0.316083 -0.584111 -0.406568 9 
0.734826 -0.710325 -0.612889 7 
0.136807 -0.530078 -0.317382 8 
0.31332 -0.583285 -0.402432 9 
0.315954 -0.584081 -0.402791 10 
0.310744 -0.582513 -0.399344 9 
0.316229 -0.584169 -0.401073 13 
0.309456 -0.582129 -0.3969 11 
0.314184 -0.583556 -0.398248 13 
0.311493 -0.582747 -0.396051 8 
0.313027 -0.583212 -0.395865 7 
0.31106 -0.582621 -0.394025 11 
0.31484 -0.583763 -0.394888 14 
0.310629 -0.582496 -0.392008 10 
0.315015 -0.58382 -0.393138 12 
0.314462 -0.583655 -0.391968 10 
0.310365 -0.582423 -0.389171 9 
0.313413 -0.583344 -0.389663 12 
0.310192 -0.582374 -0.387287 12 
0.31446 -0.583663 -0.388321 10 
0.316065 -0.584149 -0.388137 19 
0.309734 -0.582243 -0.384382 12 
0.313276 -0.583313 -0.385068 18 
0.315641 -0.584028 -0.385216 17 
0.311938 -0.582914 -0.382668 14 
0.312004 -0.582936 -0.381798 18 
0.310913 -0.582609 -0.380421 19 
0.313605 -0.583423 -0.3807 15 
0.314997 -0.583845 -0.380404 18 
0.313586 -0.583421 -0.378892 15 
0.314467 -0.583689 -0.378372 19 
0.311046 -0.58266 -0.376009 19 
0.314042 -0.583565 -0.376392 21 
0.313501 -0.583404 -0.375266 23 
0.312558 -0.583122 -0.373973 24 
0.314247 -0.583633 -0.373789 17 
0.314571 -0.583733 -0.373028 24 
0.311207 -0.582721 -0.370738 23 
0.311427 -0.582789 -0.369942 20 
0.311798 -0.582903 -0.369207 18 
0.310767 -0.582594 -0.367899 19 
0.311637 -0.582859 -0.367369 26 
0.312612 -0.583155 -0.366877 27 
0.31073 -0.582589 -0.365234 26 
0.30941 -0.582193 -0.363826 23 
0.309283 -0.582157 -0.362898 28 
0.308319 -0.581868 -0.361639 25 
0.307311 -0.581566 -0.360369 23 
0.308759 -0.582005 -0.360065 24 
0.307407 -0.581599 -0.358665 26 
0.306844 -0.581432 -0.357577 30 
0.306235 -0.58125 -0.356475 28 
0.305338 -0.580981 -0.355265 26 
0.303916 -0.580554 -0.35386 26 
0.306214 -0.58125 -0.353872 30 
0.304594 -0.580763 -0.352398 26 
0.304139 -0.580628 -0.351368 33 
0.303255 -0.580363 -0.350181 32 
0.301757 -0.579913 -0.348772 35 
0.301121 -0.579723 -0.347686 36 
0.301055 -0.579705 -0.346813 35 
0.299858 -0.579346 -0.345529 31 
0.299512 -0.579244 -0.344558 34 
0.298979 -0.579085 -0.343523 42 
0.298495 -0.578941 -0.342508 40 
0.298852 -0.579051 -0.341794 40 
0.298836 -0.579048 -0.340948 40 
0.298447 -0.578932 -0.339972 43 
0.296301 -0.578287 -0.338383 38 
0.295597 -0.578076 -0.337306 35 
0.296411 -0.578324 -0.336757 40 
0.296351 -0.578308 -0.335905 41 
0.29597 -0.578195 -0.334944 48 
0.295315 -0.577999 -0.333892 45 
0.295349 -0.578011 -0.333076 46 
0.294333 -0.577706 -0.331909 46 
0.293595 -0.577486 -0.330839 54 
0.292589 -0.577184 -0.329684 52 
0.292895 -0.577278 -0.328966 55 
0.292705 -0.577223 -0.328084 49 
0.291706 -0.576923 -0.326942 46 
0.292011 -0.577017 -0.326225 55 
0.291554 -0.576881 -0.325263 55 
0.29186 -0.576976 -0.324546 56 
0.290778 -0.576651 -0.32339 53 
0.290593 -0.576597 -0.32252 55 
0.290052 -0.576436 -0.321542 61 
0.289337 -0.576222 -0.320512 59 
0.288978 -0.576115 -0.319595 59 
0.288663 -0.576022 -0.318694 68 
0.288087 -0.57585 -0.317715 67 
0.2876 -0.575705 -0.316766 67 
0.288078 -0.575851 -0.316109 70 
0.286327 -0.575324 -0.314786 73 
0.285716 -0.575142 -0.31381 68 
0.285194 -0.574986 -0.312862 70 
0.285365 -0.57504 -0.312118 73 
0.284329 -0.574729 -0.311025 74 
0.28437 -0.574743 -0.310247 75 
0.284585 -0.57481 -0.309519 78 
0.283726 -0.574552 -0.308486 82 
0.284369 -0.574748 -0.30788 85 
0.284069 -0.57466 -0.307007 85 
0.284369 -0.574752 -0.306304 80 
0.284714 -0.574858 -0.305611 80 
0.284887 -0.574912 -0.304873 83 
0.284631 -0.574837 -0.304016 80 
0.284761 -0.574878 -0.303266 85 
0.283564 -0.574518 -0.30216 86 
0.28468 -0.574857 -0.301674 87 
0.283783 -0.574588 -0.300653 92 
0.284 -0.574655 -0.299928 88 
0.283832 -0.574607 -0.299103 88 
0.284435 -0.574791 -0.298477 85 
0.284611 -0.574846 -0.29774 90 
0.284401 -0.574784 -0.296906 93 
0.284835 -0.574917 -0.296234 95 
0.284411 -0.574791 -0.295348 101 
0.284503 -0.57482 -0.294591 104 
0.284766 -0.574901 -0.293876 109 
0.284472 -0.574815 -0.293025 106 
0.284522 -0.574831 -0.292259 106 
0.284486 -0.574822 -0.291473 107 
0.285479 -0.575124 -0.290932 106 
0.284715 -0.574895 -0.289973 102 
0.284808 -0.574925 -0.289219 112 
0.28486 -0.574943 -0.288454 115 
0.284569 -0.574857 -0.287612 113 
0.284535 -0.574848 -0.286829 118 
0.285058 -0.575008 -0.286172 117 
0.285884 -0.575259 -0.285582 116 
0.285851 -0.575251 -0.284799 122 
0.285603 -0.575178 -0.283969 123 
0.285829 -0.575248 -0.283243 123 
0.285969 -0.575292 -0.282499 129 
0.286024 -0.575311 -0.281736 122 
0.28595 -0.57529 -0.280946 121 
0.285962 -0.575296 -0.280175 118 
0.285717 -0.575223 -0.279351 119 
0.286676 -0.575515 -0.278776 118 
0.286001 -0.575313 -0.277865 118 
0.286273 -0.575397 -0.277148 116 
0.287063 -0.575637 -0.276534 122 
0.286689 -0.575526 -0.275687 121 
0.287006 -0.575624 -0.274977 123 
0.286892 -0.575591 -0.274183 130 
0.286994 -0.575624 -0.273431 132 
0.28701 -0.57563 -0.272662 129 
0.287112 -0.575663 -0.271911 135 
0.287345 -0.575735 -0.271183 138 
0.287492 -0.575782 -0.270439 140 
0.287423 -0.575763 -0.269656 139 
0.287484 -0.575783 -0.268897 140 
0.287935 -0.575921 -0.268207 141 
0.288127 -0.575981 -0.267471 138 
0.288537 -0.576106 -0.266771 138 
0.288773 -0.57618 -0.266041 146 
0.288837 -0.576201 -0.265281 150 
0.288076 -0.575973 -0.264383 147 
0.288443 -0.576085 -0.263675 145 
0.288465 -0.576094 -0.262909 148 
0.288964 -0.576246 -0.262221 153 
0.288768 -0.576189 -0.26142 154 
0.288791 -0.576198 -0.260655 154 
0.289379 -0.576377 -0.259978 155 
0.289489 -0.576412 -0.259226 148 
0.289687 -0.576474 -0.258487 152 
0.28958 -0.576444 -0.257702 157 
0.289867 -0.576532 -0.256975 152 
0.290022 -0.576581 -0.256229 153 
0.289873 -0.576537 -0.255439 149 
0.29003 -0.576587 -0.254692 155 
0.290274 -0.576662 -0.253959 158 
0.290826 -0.576831 -0.253267 160 
0.290853 -0.576841 -0.252501 157 
0.290661 -0.576785 -0.251706 163 
0.290645 -0.576782 -0.250936 162 
0.291331 -0.576991 -0.250257 166 
0.29158 -0.577068 -0.24952 167 
0.291301 -0.576985 -0.248716 168 
0.291243 -0.57697 -0.24794 176 
0.291801 -0.57714 -0.24724 172 
0.291963 -0.577191 -0.246491 167 
0.292038 -0.577215 -0.245731 166 
0.292202 -0.577267 -0.244981 169 
0.292013 -0.577211 -0.244191 165 
0.292178 -0.577263 -0.243441 173 
0.292475 -0.577355 -0.242706 169 
0.292685 -0.57742 -0.24196 169 
0.293338 -0.577619 -0.241261 165 
0.293195 -0.577578 -0.240476 169 
0.293362 -0.57763 -0.239724 172 
0.293397 -0.577643 -0.238958 170 
0.293832 -0.577776 -0.238232 172 
0.293912 -0.577802 -0.23747 171 
0.293904 -0.577801 -0.2367 172 
0.293719 -0.577747 -0.235913 172 
0.293579 -0.577707 -0.235131 168 
0.294061 -0.577854 -0.234405 171 
0.295303 -0.578232 -0.233745 174 
0.294316 -0.577935 -0.232889 170 
0.294311 -0.577935 -0.232119 170 
0.294662 -0.578043 -0.231378 173 
0.294435 -0.577976 -0.23059 172 
0.295279 -0.578233 -0.229887 172 
0.295409 -0.578275 -0.229127 173 
0.295451 -0.578289 -0.228359 173 
0.295896 -0.578425 -0.227621 175 
0.296029 -0.578467 -0.226859 181 
0.296206 -0.578523 -0.2261 181 
0.296026 -0.57847 -0.225316 180 
0.296519 -0.578621 -0.224577 175 
0.297059 -0.578786 -0.223839 178 
0.296924 -0.578747 -0.223058 180 
0.29697 -0.578763 -0.222288 184 
0.297286 -0.57886 -0.221534 186 
0.298011 -0.579082 -0.220801 182 
0.298603 -0.579262 -0.220058 185 
0.298515 -0.579237 -0.219278 189 
0.298745 -0.579309 -0.218515 190 
0.298703 -0.579298 -0.217738 189 
0.298889 -0.579356 -0.216971 187 
0.298757 -0.579318 -0.21619 189 
0.298626 -0.57928 -0.215409 186 
0.298631 -0.579284 -0.214635 189 
0.299001 -0.579397 -0.213874 190 
0.300011 -0.579705 -0.213135 187 
0.299515 -0.579556 -0.212341 185 
0.300208 -0.579768 -0.211588 187 
0.300583 -0.579883 -0.210822 190 
0.299676 -0.579611 -0.210018 190 
0.300692 -0.57992 -0.209268 189 
0.300793 -0.579952 -0.208493 191 
0.30117 -0.580068 -0.207723 188 
0.301089 -0.580045 -0.206943 187 
0.302114 -0.580357 -0.206183 186 
0.303284 -0.580713 -0.205421 194 
0.303575 -0.580803 -0.204643 188 
0.302566 -0.5805 -0.203847 191 
0.303461 -0.580772 -0.203075 195 
0.303661 -0.580835 -0.202293 193 
0.303908 -0.580911 -0.201512 188 
0.30369 -0.580847 -0.200727 189 
0.303798 -0.580882 -0.199943 185 
0.303767 -0.580874 -0.19916 189 
0.304483 -0.581093 -0.198375 188 
0.305437 -0.581383 -0.197587 188 
0.304424 -0.581078 -0.196805 188 
0.304816 -0.581199 -0.196018 189 
0.305679 -0.581462 -0.195224 191 
0.306028 -0.581569 -0.194433 191 
0.305953 -0.581548 -0.193646 189 
0.308056 -0.582187 -0.192828 185 
0.30822 -0.582238 -0.192033 186 
0.308575 -0.582348 -0.191234 186 
0.307313 -0.581967 -0.190466 184 
0.308572 -0.58235 -0.189647 187 
0.308786 -0.582417 -0.188849 194 
0.309336 -0.582585 -0.18804 191 
0.30936 -0.582594 -0.187245 191 
0.311214 -0.583157 -0.186394 189 
0.30965 -0.582686 -0.185645 181 
0.309628 -0.582681 -0.18485 186 
0.311244 -0.583172 -0.183996 185 
0.311368 -0.583211 -0.183193 185 
0.311735 -0.583324 -0.182379 184 
0.311424 -0.583232 -0.181591 186 
0.31155 -0.583272 -0.180786 184 
0.311773 -0.583342 -0.179976 187 
0.311755 -0.583338 -0.179176 182 
0.312174 -0.583467 -0.178355 187 
0.312448 -0.583552 -0.177539 189 
0.31214 -0.58346 -0.176753 190 
0.31344 -0.583856 -0.17588 195 
0.314552 -0.584194 -0.175012 193 
0.314586 -0.584206 -0.174203 193 
0.31408 -0.584055 -0.173427 193 
0.315 -0.584336 -0.172563 193 
0.314888 -0.584304 -0.171762 193 
0.31527 -0.584421 -0.170928 194 
0.316296 -0.584734 -0.170049 200 
0.315937 -0.584627 -0.169263 199 
0.316025 -0.584655 -0.168446 199 
0.316213 -0.584714 -0.167621 197 
0.317996 -0.585256 -0.166673 203 
0.317138 -0.584998 -0.165925 192 
0.317628 -0.585148 -0.165072 196 
0.317569 -0.585132 -0.164262 196 
0.317262 -0.585041 -0.163473 196 
0.317654 -0.585162 -0.162624 198 
0.317948 -0.585253 -0.161783 194 
0.317791 -0.585207 -0.16098 193 
0.317986 -0.585268 -0.160146 193 
0.317981 -0.585269 -0.15933 197 
0.317727 -0.585194 -0.158537 196 
0.317923 -0.585255 -0.157701 196 
0.31797 -0.585271 -0.156879 197 
0.317767 -0.585212 -0.156082 196 
0.318015 -0.585289 -0.155238 197 
0.318014 -0.58529 -0.15442 194 
0.318013 -0.585292 -0.153601 198 
0.318464 -0.58543 -0.152733 194 
0.318263 -0.585371 -0.151935 196 
0.317963 -0.585283 -0.151149 197 
0.317664 -0.585194 -0.150364 193 
0.317766 -0.585227 -0.149533 200 
0.317818 -0.585244 -0.148707 192 
0.317771 -0.585232 -0.147892 196 
0.317674 -0.585205 -0.147083 200 
0.31668 -0.584905 -0.146387 196 
0.317583 -0.585181 -0.145454 198 
0.317788 -0.585245 -0.144606 199 
0.317194 -0.585067 -0.143862 199 
0.315805 -0.584648 -0.143226 201 
0.316857 -0.584969 -0.142265 199 
0.317915 -0.585291 -0.1413 199 
0.316672 -0.584917 -0.140649 201 
0.315884 -0.58468 -0.139939 199 
0.315347 -0.584519 -0.139195 201 
0.315356 -0.584524 -0.138375 194 
0.315514 -0.584574 -0.137532 198 
0.314881 -0.584384 -0.136806 195 
0.31499 -0.584419 -0.13597 198 
0.314704 -0.584334 -0.135193 195 
0.314914 -0.5844 -0.134341 194 
0.31458 -0.5843 -0.133573 191 
0.314593 -0.584306 -0.13275 195 
0.314211 -0.584192 -0.131991 197 
0.313289 -0.583915 -0.13132 198 
0.313548 -0.583996 -0.130458 194 
0.31317 -0.583883 -0.129702 194 
0.31348 -0.583979 -0.12883 192 
0.313348 -0.583941 -0.128032 192 
0.31435 -0.584246 -0.127039 195 
0.314021 -0.584148 -0.126273 195 
0.312611 -0.583723 -0.125698 194 
0.312237 -0.583612 -0.124945 190 
0.311815 -0.583486 -0.1242 189 
0.312371 -0.583656 -0.123279 192 
0.313718 -0.584066 -0.12221 194 
0.311969 -0.583538 -0.121711 190 
0.311744 -0.583472 -0.120932 192 
0.311666 -0.583451 -0.120126 192 
0.311687 -0.583459 -0.1193 192 
0.311855 -0.583512 -0.118445 193 
0.310365 -0.583062 -0.117914 196 
0.310776 -0.583189 -0.117013 193 
0.309585 -0.582829 -0.116429 192 
0.308834 -0.582604 -0.115761 190 
0.30934 -0.582759 -0.114839 192 
0.309122 -0.582695 -0.114064 193 
0.309146 -0.582704 -0.113238 194 
0.30859 -0.582538 -0.112534 195 
0.308808 -0.582606 -0.111668 188 
0.309124 -0.582703 -0.110779 194 
0.308908 -0.58264 -0.110003 191 
0.307729 -0.582284 -0.109438 189 
0.308767 -0.582601 -0.108389 193 
0.307301 -0.582159 -0.107891 194 
0.307185 -0.582125 -0.107097 192 
0.307068 -0.582092 -0.106302 191 
0.306665 -0.581972 -0.105573 191 
0.307125 -0.582113 -0.104646 191 
0.307154 -0.582123 -0.103817 190 
0.306751 -0.582003 -0.103088 191 
0.306829 -0.582029 -0.102247 186 
0.306811 -0.582026 -0.101428 188 
0.306506 -0.581935 -0.100678 193 
0.306777 -0.582019 -0.0997883 196 
0.305851 -0.58174 -0.0991892 194 
0.305692 -0.581694 -0.0984048 195 
0.304961 -0.581474 -0.0977625 195 
0.304898 -0.581457 -0.0969545 197 
0.305121 -0.581527 -0.0960755 196 
0.305059 -0.58151 -0.0952665 195 
0.305188 -0.581551 -0.0944095 197 
0.304651 -0.58139 -0.0937225 191 
0.30459 -0.581373 -0.0929125 187 
0.304624 -0.581386 -0.0920785 187 
0.304517 -0.581355 -0.0912805 187 
0.304315 -0.581296 -0.0905075 188 
0.30397 -0.581194 -0.0897735 184 
0.303675 -0.581106 -0.0890265 181 
0.303379 -0.581018 -0.0882805 181 
0.303653 -0.581103 -0.0873785 179 
0.303311 -0.581001 -0.0866455 182 
0.302828 -0.580857 -0.0859515 186 
0.302159 -0.580656 -0.0853125 186 
0.30182 -0.580555 -0.0845815 186 
0.30167 -0.580512 -0.0837975 184 
0.301944 -0.580596 -0.0828915 183 
0.30203 -0.580624 -0.0820395 179 
0.301222 -0.580382 -0.0814445 177 
0.301168 -0.580367 -0.0806325 176 
0.301396 -0.580438 -0.0797375 173 
0.301389 -0.580438 -0.0789105 179 
0.30143 -0.580452 -0.0780675 180 
0.301424 -0.580452 -0.0772385 180 
0.301089 -0.580353 -0.0765085 175 
0.301178 -0.580382 -0.0756505 174 
0.301267 -0.580411 -0.0747905 177 
0.301216 -0.580397 -0.0739735 173 
0.300835 -0.580284 -0.0732585 176 
0.300644 -0.580228 -0.0724845 169 
0.300922 -0.580314 -0.0715635 168 
0.301107 -0.580372 -0.0706695 170 
0.30134 -0.580445 -0.0697595 168 
0.301291 -0.580432 -0.0689385 165 
0.300959 -0.580333 -0.0682075 162 
0.301193 -0.580406 -0.0672935 165 
0.30138 -0.580465 -0.0663935 167 
0.301569 -0.580524 -0.0654915 164 
0.301379 -0.580469 -0.0647135 163 
0.301238 -0.580428 -0.0639185 163 
0.301995 -0.580659 -0.0628235 164 
0.301901 -0.580633 -0.0620105 165 
0.301712 -0.580578 -0.0612305 167 
0.301856 -0.580623 -0.0603365 162 
0.301668 -0.580568 -0.0595545 163 
0.301813 -0.580614 -0.0586585 160 
0.30191 -0.580646 -0.0577775 160 
0.302436 -0.580807 -0.0567455 158 
0.302059 -0.580695 -0.0560275 164 
0.302443 -0.580813 -0.0550415 157 
0.302209 -0.580744 -0.0542735 156 
0.302643 -0.580878 -0.0532665 153 
0.302648 -0.580881 -0.0524115 153 
0.303035 -0.581001 -0.0514165 154 
0.302706 -0.580903 -0.0506805 154 
0.302569 -0.580863 -0.0498755 148 
0.303149 -0.581042 -0.0488055 148 
0.303299 -0.581089 -0.0478915 148 
0.303115 -0.581035 -0.0471005 150 
0.303746 -0.581229 -0.0460045 143 
0.304188 -0.581365 -0.0449755 147 
0.303667 -0.581209 -0.0443105 145 
0.30435 -0.581418 -0.0431865 137 
0.304069 -0.581335 -0.0424285 129 
0.305143 -0.581663 -0.0411485 125 
0.304185 -0.581374 -0.0406515 126 
0.304921 -0.5816 -0.0394975 130 
0.304883 -0.58159 -0.0386425 127 
0.305234 -0.581699 -0.0376335 125 
0.305781 -0.581867 -0.0365445 133 
0.305209 -0.581695 -0.0358995 139 
0.30561 -0.581819 -0.0348645 138 
0.305136 -0.581677 -0.0341805 132 
0.30549 -0.581787 -0.0331625 137 
0.305991 -0.581941 -0.0320815 130 
0.306445 -0.582081 -0.0310175 127 
0.306705 -0.582162 -0.0300305 130 
0.306621 -0.582138 -0.0291835 131 
0.306833 -0.582205 -0.0282135 126 
0.307242 -0.582331 -0.0271585 123 
0.307258 -0.582338 -0.0262665 123 
0.307916 -0.58254 -0.0251025 121 
0.307932 -0.582547 -0.0242075 121 
0.307752 -0.582494 -0.0233955 118 
0.308512 -0.582727 -0.0221795 113 
0.309576 -0.583052 -0.0208285 116 
0.309595 -0.58306 -0.0199255 111 
0.309165 -0.582932 -0.0192155 111 
0.310284 -0.583274 -0.0178305 106 
0.309804 -0.58313 -0.0171415 111 
0.309324 -0.582986 -0.0164545 113 
0.309344 -0.582994 -0.0155465 106 
0.310669 -0.583399 -0.0140555 104 
0.310841 -0.583453 -0.0130735 104 
0.310864 -0.583462 -0.0121585 102 
0.310735 -0.583425 -0.0113105 110 
0.31101 -0.583511 -0.0102795 115 
0.310428 -0.583336 -0.00963649 114 
0.309948 -0.583193 -0.00894849 111 
0.310525 -0.58337 -0.00777549 109 
0.309995 -0.583211 -0.00711049 105 
0.31123 -0.583589 -0.00562549 128 
0.310952 -0.583506 -0.00484249 112 
0.310573 -0.583393 -0.00410749 115 
0.310245 -0.583296 -0.00334849 116 
0.270743 -0.573665 -0.385229 7 
0.00440376 -0.491094 -0.256267 6 
0.316524 -0.587861 -0.406154 10 
0.172854 -0.543324 -0.334915 8 
0.31421 -0.587148 -0.403159 13 
0.308838 -0.585485 -0.399618 11 
0.3132 -0.586839 -0.400822 8 
0.311376 -0.586276 -0.399021 10 
0.310981 -0.586156 -0.397916 11 
0.310739 -0.586083 -0.396886 14 
0.311052 -0.586182 -0.396123 11 
0.311771 -0.586407 -0.395552 12 
0.312036 -0.586491 -0.394765 12 
0.311489 -0.586324 -0.393596 11 
0.311147 -0.58622 -0.392525 15 
0.313851 -0.587061 -0.392876 14 
0.314734 -0.587336 -0.392371 16 
0.312702 -0.586709 -0.390519 18 
0.310542 -0.586041 -0.38862 14 
0.313338 -0.58691 -0.388993 14 
0.313554 -0.586979 -0.388182 18 
0.314999 -0.587429 -0.387927 13 
0.317074 -0.588075 -0.387951 13 
0.315848 -0.587697 -0.386487 13 
0.314578 -0.587305 -0.38501 15 
0.314286 -0.587217 -0.383973 16 
0.31318 -0.586876 -0.382579 17 
0.313246 -0.586899 -0.381706 22 
0.31119 -0.586263 -0.379905 15 
0.3146 -0.587323 -0.380491 17 
0.312836 -0.586778 -0.378826 22 
0.316839 -0.588021 -0.379651 17 
0.312718 -0.586745 -0.376979 20 
0.314206 -0.587209 -0.376716 16 
0.316217 -0.587835 -0.376672 19 
0.31567 -0.587667 -0.375538 22 
0.314207 -0.587216 -0.374023 22 
0.314123 -0.587192 -0.373092 19 
0.311065 -0.586246 -0.370925 17 
0.311586 -0.586409 -0.370252 19 
0.310056 -0.585937 -0.368735 20 
0.313945 -0.587145 -0.369442 21 
0.313054 -0.586871 -0.368187 19 
0.310367 -0.586039 -0.36621 23 
0.308949 -0.585602 -0.364756 25 
0.308181 -0.585365 -0.363569 24 
0.308252 -0.58539 -0.362721 29 
0.307292 -0.585094 -0.361464 28 
0.309185 -0.585683 -0.361338 24 
0.307192 -0.585067 -0.35968 26 
0.30746 -0.585152 -0.358913 27 
0.308614 -0.585512 -0.35849 27 
0.307508 -0.585171 -0.35719 29 
0.305535 -0.584561 -0.355563 29 
0.304931 -0.584376 -0.354466 27 
0.305973 -0.584701 -0.354001 30 
0.30397 -0.584082 -0.35238 35 
0.304622 -0.584286 -0.351765 31 
0.304504 -0.584251 -0.350861 31 
0.301046 -0.58318 -0.348719 31 
0.301642 -0.583367 -0.348088 34 
0.300534 -0.583026 -0.34683 32 
0.301604 -0.583359 -0.346372 31 
0.298854 -0.582508 -0.344524 35 
0.299305 -0.58265 -0.343843 30 
0.298586 -0.582429 -0.342742 31 
0.297871 -0.582209 -0.341645 34 
0.298087 -0.582278 -0.340882 39 
0.296773 -0.581872 -0.33958 38 
0.296758 -0.58187 -0.338739 41 
0.296744 -0.581867 -0.337899 37 
0.295854 -0.581593 -0.336757 38 
0.295703 -0.581548 -0.335873 47 
0.296057 -0.58166 -0.335163 38 
0.294533 -0.581189 -0.333815 43 
0.294886 -0.5813 -0.333107 45 
0.294008 -0.58103 -0.331985 43 
0.293997 -0.581028 -0.331156 49 
0.293758 -0.580956 -0.330254 48 
0.293159 -0.580772 -0.329233 51 
0.292742 -0.580645 -0.328276 50 
0.292372 -0.580532 -0.327336 51 
0.291868 -0.580377 -0.326355 54 
0.291635 -0.580307 -0.325464 56 
0.291761 -0.580348 -0.324688 59 
0.291574 -0.580292 -0.323815 57 
0.29045 -0.579945 -0.322646 62 
0.289998 -0.579807 -0.321694 64 
0.289903 -0.579779 -0.320855 64 
0.288879 -0.579463 -0.319731 68 
0.288609 -0.579381 -0.318842 64 
0.287813 -0.579136 -0.317795 62 
0.287676 -0.579095 -0.316951 64 
0.287191 -0.578946 -0.316004 60 
0.286882 -0.578852 -0.315111 68 
0.286138 -0.578623 -0.314092 69 
0.286179 -0.578638 -0.313308 70 
0.285396 -0.578397 -0.312283 67 
0.284531 -0.57813 -0.311237 70 
0.284186 -0.578025 -0.310346 73 
0.283884 -0.577933 -0.30947 72 
0.283626 -0.577855 -0.308607 76 
0.283669 -0.57787 -0.307831 80 
0.28337 -0.577779 -0.30696 82 
0.283541 -0.577834 -0.306221 80 
0.283756 -0.577903 -0.305494 76 
0.283202 -0.577732 -0.304556 78 
0.284187 -0.57804 -0.30404 85 
0.283589 -0.577856 -0.303092 86 
0.283763 -0.577912 -0.302355 90 
0.283979 -0.577981 -0.301628 87 
0.283298 -0.577772 -0.300665 83 
0.284071 -0.578013 -0.300085 85 
0.28386 -0.57795 -0.299246 85 
0.283778 -0.577926 -0.298443 97 
0.283484 -0.577837 -0.297587 98 
0.283915 -0.577972 -0.296916 95 
0.283536 -0.577856 -0.29604 99 
0.283669 -0.5779 -0.295294 100 
0.283675 -0.577903 -0.294517 103 
0.283681 -0.577907 -0.29374 102 
0.284285 -0.578096 -0.293109 107 
0.284121 -0.578047 -0.29229 111 
0.283871 -0.577972 -0.291453 121 
0.283708 -0.577923 -0.290637 115 
0.2841 -0.578046 -0.289953 111 
0.284364 -0.57813 -0.289239 113 
0.28433 -0.578121 -0.288454 120 
0.284338 -0.578126 -0.28768 118 
0.284689 -0.578237 -0.286985 117 
0.285342 -0.578441 -0.286356 112 
0.284452 -0.578167 -0.285381 124 
0.285104 -0.578371 -0.284751 121 
0.284857 -0.578296 -0.283922 123 
0.285382 -0.578461 -0.283262 120 
0.285436 -0.57848 -0.282499 119 
0.285148 -0.578392 -0.281663 119 
0.284946 -0.578331 -0.280846 123 
0.285215 -0.578416 -0.28013 126 
0.285099 -0.578382 -0.279334 128 
0.285583 -0.578535 -0.278661 126 
0.285554 -0.578527 -0.277883 123 
0.285525 -0.57852 -0.277105 126 
0.285496 -0.578513 -0.276328 127 
0.286499 -0.578826 -0.275755 131 
0.285868 -0.578632 -0.274859 128 
0.28597 -0.578665 -0.274108 129 
0.28663 -0.578873 -0.273464 135 
0.286776 -0.57892 -0.27272 135 
0.28718 -0.579047 -0.272024 136 
0.286809 -0.578933 -0.271183 145 
0.286783 -0.578927 -0.270408 140 
0.286542 -0.578854 -0.269593 138 
0.28712 -0.579036 -0.268928 139 
0.287095 -0.57903 -0.268153 134 
0.287286 -0.579091 -0.267417 135 
0.287608 -0.579193 -0.266703 143 
0.28793 -0.579295 -0.265989 143 
0.287647 -0.579209 -0.26517 143 
0.28797 -0.579311 -0.264455 144 
0.288598 -0.579508 -0.26379 147 
0.288012 -0.579327 -0.262923 149 
0.287904 -0.579296 -0.262136 151 
0.288749 -0.57956 -0.261504 154 
0.288945 -0.579623 -0.260765 154 
0.288577 -0.57951 -0.259937 153 
0.288513 -0.579492 -0.259159 151 
0.288928 -0.579623 -0.258454 152 
0.288952 -0.579632 -0.257688 153 
0.288629 -0.579534 -0.256872 155 
0.289044 -0.579665 -0.256165 157 
0.289156 -0.579701 -0.255413 154 
0.289182 -0.579711 -0.254649 158 
0.289949 -0.579951 -0.253989 155 
0.28967 -0.579866 -0.253182 161 
0.289958 -0.579958 -0.252453 161 
0.289724 -0.579887 -0.251653 161 
0.289621 -0.579857 -0.250872 159 
0.290741 -0.580207 -0.250252 165 
0.290289 -0.580068 -0.249424 165 
0.290012 -0.579984 -0.248621 170 
0.290085 -0.580008 -0.247863 170 
0.290727 -0.58021 -0.247175 166 
0.291108 -0.58033 -0.246454 164 
0.291139 -0.580341 -0.245689 167 
0.291039 -0.580312 -0.244909 168 
0.29129 -0.580392 -0.24417 168 
0.29119 -0.580363 -0.243391 169 
0.291003 -0.580306 -0.242603 170 
0.292047 -0.580633 -0.24195 167 
0.291816 -0.580563 -0.241157 165 
0.292114 -0.580657 -0.24042 165 
0.291841 -0.580574 -0.239624 165 
0.29148 -0.580464 -0.238819 162 
0.292131 -0.580668 -0.238118 167 
0.292519 -0.58079 -0.237388 167 
0.292291 -0.580721 -0.236598 168 
0.292813 -0.580885 -0.235879 171 
0.293071 -0.580967 -0.235135 171 
0.293065 -0.580967 -0.234365 170 
0.293324 -0.58105 -0.23362 173 
0.293363 -0.581064 -0.232854 171 
0.293048 -0.580967 -0.232059 170 
0.292999 -0.580954 -0.231287 172 
0.293437 -0.581092 -0.230555 175 
0.293301 -0.581051 -0.229776 170 
0.29343 -0.581093 -0.229018 174 
0.293826 -0.581219 -0.228279 174 
0.294491 -0.581427 -0.227559 178 
0.294266 -0.581359 -0.226774 178 
0.294888 -0.581554 -0.226047 177 
0.295289 -0.581681 -0.225304 181 
0.295422 -0.581724 -0.224542 181 
0.295422 -0.581726 -0.223771 184 
0.29587 -0.581867 -0.223028 182 
0.295826 -0.581855 -0.222253 187 
0.296006 -0.581913 -0.221493 185 
0.29556 -0.581776 -0.220696 187 
0.295965 -0.581904 -0.219948 181 
0.296192 -0.581976 -0.219188 181 
0.297546 -0.582399 -0.218483 181 
0.297731 -0.582458 -0.217718 190 
0.297418 -0.582363 -0.21693 191 
0.297423 -0.582366 -0.216156 188 
0.297609 -0.582426 -0.215391 184 
0.297569 -0.582415 -0.214615 183 
0.298163 -0.582602 -0.213864 185 
0.297807 -0.582493 -0.213077 185 
0.29804 -0.582568 -0.212311 182 
0.298093 -0.582586 -0.211538 188 
0.298328 -0.582661 -0.210771 181 
0.298427 -0.582693 -0.209999 184 
0.299528 -0.583038 -0.209253 183 
0.299629 -0.583071 -0.208478 181 
0.30037 -0.583303 -0.207718 191 
0.300335 -0.583294 -0.206939 184 
0.300438 -0.583328 -0.206162 189 
0.300403 -0.583319 -0.205383 187 
0.300553 -0.583367 -0.204607 185 
0.300749 -0.58343 -0.203831 190 
0.301129 -0.583551 -0.203056 195 
0.301465 -0.583657 -0.202279 190 
0.302495 -0.583979 -0.201506 189 
0.301632 -0.583712 -0.200719 191 
0.302617 -0.584021 -0.199942 189 
0.302772 -0.584071 -0.199159 193 
0.302788 -0.584078 -0.198376 190 
0.302991 -0.584143 -0.197593 190 
0.303426 -0.58428 -0.196807 188 
0.304751 -0.584694 -0.196014 191 
0.304863 -0.584731 -0.195226 191 
0.304087 -0.584491 -0.194448 187 
0.304667 -0.584674 -0.193655 186 
0.305203 -0.584842 -0.19286 184 
0.305317 -0.58488 -0.192071 182 
0.305856 -0.585049 -0.191273 187 
0.306066 -0.585116 -0.190479 187 
0.306418 -0.585228 -0.189682 188 
0.306914 -0.585384 -0.18888 189 
0.307364 -0.585526 -0.188076 191 
0.307673 -0.585624 -0.187275 189 
0.308364 -0.585841 -0.186462 191 
0.308437 -0.585866 -0.185665 192 
0.308224 -0.585801 -0.184877 188 
0.308919 -0.586019 -0.184058 186 
0.308755 -0.58597 -0.183269 183 
0.309885 -0.586324 -0.182428 187 
0.309193 -0.58611 -0.181659 187 
0.308982 -0.586047 -0.180872 187 
0.310115 -0.586401 -0.180024 185 
0.310097 -0.586397 -0.179226 186 
0.311528 -0.586845 -0.178357 188 
0.31151 -0.586841 -0.177556 187 
0.312416 -0.587125 -0.176706 191 
0.311963 -0.586986 -0.175928 191 
0.312433 -0.587134 -0.175098 186 
0.312613 -0.587192 -0.174284 195 
0.312647 -0.587204 -0.173477 192 
0.313121 -0.587354 -0.172643 193 
0.313205 -0.587382 -0.171832 192 
0.314123 -0.58767 -0.170964 195 
0.314258 -0.587714 -0.170147 195 
0.314689 -0.58785 -0.169308 197 
0.315072 -0.587971 -0.168471 196 
0.31521 -0.588016 -0.16765 195 
0.3152 -0.588014 -0.16684 192 
0.314944 -0.587937 -0.166049 197 
0.317365 -0.588693 -0.165044 201 
0.315371 -0.588073 -0.164393 195 
0.3171 -0.588614 -0.163435 196 
0.31585 -0.588227 -0.162727 199 
0.31624 -0.58835 -0.161879 198 
0.31708 -0.588613 -0.160989 196 
0.316776 -0.58852 -0.160201 190 
0.315678 -0.588181 -0.159489 192 
0.315971 -0.588274 -0.158647 188 
0.316912 -0.588569 -0.15774 190 
0.317308 -0.588694 -0.156884 196 
0.316756 -0.588524 -0.156122 199 
0.317053 -0.588619 -0.155275 199 
0.317551 -0.588776 -0.154404 202 
0.31735 -0.588715 -0.153607 202 
0.317 -0.588608 -0.152826 196 
0.316701 -0.588517 -0.152041 194 
0.316901 -0.588581 -0.1512 198 
0.317202 -0.588676 -0.150347 196 
0.316456 -0.588446 -0.149615 197 
0.316309 -0.588402 -0.148814 196 
0.315319 -0.588096 -0.148116 198 
0.315174 -0.588053 -0.147317 193 
0.315326 -0.588102 -0.146481 191 
0.315975 -0.588306 -0.14558 197 
0.315038 -0.588016 -0.144883 194 
0.314945 -0.587989 -0.144077 201 
0.314753 -0.587931 -0.143285 198 
0.31466 -0.587904 -0.14248 197 
0.31447 -0.587847 -0.141688 201 
0.314675 -0.587913 -0.140842 201 
0.314288 -0.587794 -0.140078 200 
0.314198 -0.587768 -0.139273 195 
0.31337 -0.587512 -0.138575 196 
0.312839 -0.587349 -0.137836 194 
0.31393 -0.58769 -0.136857 196 
0.312712 -0.587313 -0.136222 190 
0.312332 -0.587196 -0.135464 197 
0.313078 -0.587431 -0.134532 193 
0.312992 -0.587406 -0.133727 190 
0.311488 -0.586939 -0.133147 194 
0.31194 -0.587082 -0.132259 193 
0.311563 -0.586966 -0.131503 193 
0.311576 -0.586972 -0.130684 194 
0.311347 -0.586903 -0.129905 196 
0.311459 -0.58694 -0.129069 196 
0.311133 -0.58684 -0.128307 190 
0.311003 -0.586801 -0.127512 194 
0.310824 -0.586748 -0.126726 195 
0.310938 -0.586785 -0.125888 194 
0.311053 -0.586823 -0.125049 196 
0.310002 -0.586497 -0.12442 192 
0.310748 -0.586732 -0.123466 192 
0.310961 -0.5868 -0.122608 190 
0.310008 -0.586505 -0.121965 191 
0.30935 -0.586302 -0.121271 194 
0.30879 -0.586129 -0.12056 192 
0.30881 -0.586138 -0.119739 193 
0.308638 -0.586086 -0.118954 190 
0.308659 -0.586094 -0.118133 192 
0.308584 -0.586073 -0.117329 191 
0.30798 -0.585887 -0.116632 188 
0.308339 -0.586 -0.115741 194 
0.307881 -0.58586 -0.115016 193 
0.308241 -0.585974 -0.114123 192 
0.307687 -0.585803 -0.113419 190 
0.307423 -0.585723 -0.112655 192 
0.308025 -0.585912 -0.111709 190 
0.307185 -0.585652 -0.111068 190 
0.307114 -0.585632 -0.110263 195 
0.308294 -0.586002 -0.109186 192 
0.306544 -0.585458 -0.108749 196 
0.30681 -0.585543 -0.10787 193 
0.306311 -0.585389 -0.107161 191 
0.306481 -0.585445 -0.106302 189 
0.306509 -0.585455 -0.105475 191 
0.306203 -0.585362 -0.104723 189 
0.306375 -0.585417 -0.103862 191 
0.306165 -0.585354 -0.103088 189 
0.306386 -0.585425 -0.102213 191 
0.306177 -0.585361 -0.10144 192 
0.305968 -0.585298 -0.100666 187 
0.305904 -0.58528 -0.0998579 189 
0.305649 -0.585203 -0.099096 189 
0.305251 -0.585081 -0.0983696 189 
0.305474 -0.585152 -0.0974905 192 
0.305697 -0.585224 -0.0966095 192 
0.305205 -0.585072 -0.0959075 190 
0.305859 -0.585278 -0.0949155 192 
0.304558 -0.584874 -0.0944215 192 
0.305259 -0.585095 -0.0934145 187 
0.305055 -0.585033 -0.0926405 193 
0.304091 -0.584734 -0.0920655 188 
0.303983 -0.584703 -0.0912675 189 
0.303829 -0.584657 -0.0904825 189 
0.30396 -0.584699 -0.0896205 186 
0.303759 -0.584639 -0.0888475 185 
0.303653 -0.584608 -0.0880475 185 
0.303548 -0.584577 -0.0872485 185 
0.303537 -0.584576 -0.0864225 187 
0.303386 -0.58453 -0.0856355 188 
0.303187 -0.58447 -0.0848615 190 
0.302941 -0.584396 -0.0841015 191 
0.302318 -0.584203 -0.0834485 187 
0.301604 -0.583982 -0.0828245 186 
0.302396 -0.584232 -0.0817665 183 
0.301259 -0.583879 -0.0812675 184 
0.301017 -0.583805 -0.0805095 182 
0.300635 -0.583688 -0.0797925 174 
0.300534 -0.583659 -0.0789935 177 
0.300762 -0.583732 -0.0780955 183 
0.300288 -0.583586 -0.0774085 181 
0.300188 -0.583557 -0.0766085 172 
0.299762 -0.583426 -0.0759075 175 
0.299944 -0.583484 -0.0750215 177 
0.300173 -0.583558 -0.0741185 174 
0.300357 -0.583617 -0.0732295 173 
0.299791 -0.583443 -0.0725725 171 
0.300209 -0.583575 -0.0716075 170 
0.300863 -0.583781 -0.0705655 169 
0.30086 -0.583782 -0.0697295 169 
0.300717 -0.583739 -0.0689385 165 
0.300668 -0.583726 -0.0681165 166 
0.300902 -0.583801 -0.0672015 166 
0.300712 -0.583744 -0.0664245 165 
0.301041 -0.583848 -0.0654755 166 
0.301183 -0.583894 -0.0645875 167 
0.301135 -0.583882 -0.0637615 163 
0.301703 -0.584061 -0.0627275 164 
0.301326 -0.583945 -0.0620105 170 
0.301185 -0.583903 -0.0612135 167 
0.301802 -0.584098 -0.0601575 166 
0.301756 -0.584085 -0.0593265 161 
0.301096 -0.583881 -0.0587075 166 
0.302046 -0.58418 -0.0575295 167 
0.302145 -0.584213 -0.0566445 163 
0.301958 -0.584156 -0.0558605 160 
0.301819 -0.584115 -0.0550585 158 
0.301443 -0.584 -0.0543415 161 
0.301923 -0.584151 -0.0533175 156 
0.301832 -0.584125 -0.0524975 158 
0.301933 -0.584159 -0.0516075 158 
0.302176 -0.584237 -0.0506635 154 
0.301944 -0.584166 -0.0498935 150 
0.302714 -0.584408 -0.0487525 151 
0.302338 -0.584293 -0.0480335 148 
0.302776 -0.584432 -0.0470115 145 
0.303887 -0.584781 -0.0457325 145 
0.30327 -0.58459 -0.0451035 151 
0.303039 -0.58452 -0.0443285 146 
0.303239 -0.584585 -0.0433885 141 
0.303874 -0.584785 -0.0422805 136 
0.303883 -0.58479 -0.0414105 130 
0.303845 -0.58478 -0.0405585 127 
0.304387 -0.584951 -0.0394785 128 
0.304349 -0.584941 -0.0386235 128 
0.304651 -0.585037 -0.0376335 132 
0.304081 -0.584862 -0.0369885 138 
0.304286 -0.584928 -0.0360345 141 
0.305951 -0.585449 -0.0344925 140 
0.305671 -0.585364 -0.0337285 132 
0.30476 -0.585082 -0.0332215 130 
0.305259 -0.58524 -0.0321415 129 
0.304495 -0.585003 -0.0315775 127 
0.305385 -0.585283 -0.0303325 127 
0.306426 -0.58561 -0.0290205 121 
0.306049 -0.585495 -0.0282945 120 
0.307293 -0.585885 -0.0268905 114 
0.307259 -0.585877 -0.0260185 120 
0.306489 -0.585638 -0.0254575 114 
0.306948 -0.585783 -0.0243755 116 
0.306965 -0.585791 -0.0234795 117 
0.307574 -0.585983 -0.0223285 119 
0.307592 -0.585991 -0.0214285 120 
0.307413 -0.585937 -0.0206145 122 
0.308124 -0.586161 -0.0194105 119 
0.307995 -0.586123 -0.0185725 111 
0.307568 -0.585992 -0.0178645 111 
0.308929 -0.586419 -0.0163665 106 
0.30985 -0.586708 -0.0150565 114 
0.30927 -0.58653 -0.0144135 112 
0.309592 -0.586632 -0.0133665 115 
0.309513 -0.58661 -0.0124985 118 
0.308935 -0.586431 -0.0118565 117 
0.309458 -0.586597 -0.0107145 111 
0.310083 -0.586794 -0.00952149 114 
0.309253 -0.586537 -0.00899549 113 
0.309878 -0.586734 -0.0077985 114 
0.308599 -0.586337 -0.00748249 111 
0.308572 -0.586331 -0.00658749 129 
0.30975 -0.586701 -0.00512649 111 
0.309322 -0.586569 -0.00441549 108 
0.308645 -0.58636 -0.00382349 115 
0.311308 -0.589823 -0.405729 10 
0.308991 -0.589087 -0.403654 7 
0.311882 -0.59001 -0.404168 9 
0.310772 -0.589659 -0.402699 10 
0.314457 -0.590835 -0.403588 9 
0.307576 -0.588645 -0.399301 9 
0.310091 -0.589448 -0.399613 9 
0.309095 -0.589133 -0.398217 10 
0.312746 -0.590299 -0.399064 10 
0.310827 -0.589689 -0.397225 11 
0.305748 -0.588073 -0.393887 9 
0.30979 -0.589363 -0.394906 16 
0.311465 -0.589899 -0.394789 13 
0.311932 -0.59005 -0.394096 11 
0.311487 -0.58991 -0.392974 13 
0.314043 -0.590727 -0.393257 13 
0.310401 -0.589569 -0.390651 11 
0.313606 -0.590592 -0.391226 16 
0.312701 -0.590306 -0.389897 13 
0.30814 -0.588855 -0.3869 11 
0.313591 -0.590594 -0.388484 14 
0.310516 -0.589616 -0.38618 11 
0.31732 -0.591787 -0.388348 11 
0.312867 -0.59037 -0.385432 14 
0.312476 -0.590247 -0.384351 17 
0.313048 -0.590432 -0.383702 17 
0.313367 -0.590536 -0.382939 12 
0.312621 -0.5903 -0.381706 16 
0.31616 -0.59143 -0.382354 16 
0.312146 -0.590153 -0.379696 13 
0.311859 -0.590063 -0.378673 15 
0.313597 -0.590619 -0.378525 18 
0.31402 -0.590756 -0.377806 19 
0.310955 -0.589781 -0.375594 19 
0.312028 -0.590126 -0.375159 21 
0.313055 -0.590455 -0.374699 23 
0.313073 -0.590463 -0.37381 22 
0.31183 -0.590069 -0.372394 18 
0.310446 -0.58963 -0.370925 25 
0.310665 -0.589702 -0.370127 19 
0.311235 -0.589885 -0.369475 28 
0.311555 -0.58999 -0.368718 24 
0.310026 -0.589504 -0.367206 22 
0.309005 -0.589181 -0.365908 23 
0.311365 -0.589936 -0.36598 22 
0.309493 -0.589341 -0.364341 23 
0.307002 -0.588548 -0.362466 23 
