0.45345,0.0344342,0.155622,137
0.453859,0.0344144,0.156672,137
0.45427,0.0343946,0.157726,127
0.455363,0.0343452,0.159023,123
0.455494,0.0343375,0.159983,121
0.455796,0.0343223,0.161006,124
0.456385,0.0342947,0.162134,122
0.456632,0.0342819,0.163141,128
0.45574,0.0343185,0.163735,124
0.456787,0.0342711,0.165037,120
0.457898,0.0342208,0.166367,114
0.45815,0.0342078,0.167385,107
0.458461,0.0341923,0.168426,110
0.460455,0.0341037,0.170099,105
0.46042,0.0341031,0.171018,101
0.459863,0.0341252,0.17174,100
0.460937,0.0340765,0.173081,100
0.460904,0.0340758,0.174004,103
0.462102,0.0340217,0.175401,105
0.462953,0.0339827,0.176669,101
0.463394,0.0339614,0.177783,108
0.465026,0.0338885,0.179364,104
0.465234,0.0338773,0.180394,106
0.465324,0.0338712,0.181379,99
0.466492,0.0338184,0.182793,96
0.467004,0.033794,0.183951,96
0.467941,0.0337512,0.185283,92
0.468216,0.033737,0.186352,91
0.469282,0.0336886,0.187744,85
0.470353,0.0336399,0.189143,83
0.469291,0.0336838,0.189675,86
0.469631,0.0336669,0.19078,80
0.471198,0.0335966,0.192394,84
0.472221,0.03355,0.19379,83
0.47387,0.0334761,0.195452,87
0.473848,0.0334749,0.196421,84
0.474573,0.0334411,0.197706,76
0.476054,0.0333745,0.199316,87
0.475532,0.033395,0.200079,80
0.477211,0.0333198,0.201783,74
0.47675,0.0333376,0.202575,76
0.478123,0.0332757,0.204158,75
0.479314,0.0332216,0.205669,76
0.480962,0.0331477,0.207386,79
0.479217,0.0332213,0.207622,83
0.479648,0.0332003,0.208811,75
0.480401,0.0331653,0.210146,76
0.479873,0.033186,0.210914,82
0.482176,0.0330835,0.212947,106
0.482098,0.0330846,0.213922,82
0.482474,0.033066,0.215102,83
0.481232,0.0331177,0.215551,84
0.423303,0.0332089,-0.200757,9
0.155226,0.0464315,-0.0750377,8
0.421792,0.0332794,-0.198259,10
0.423989,0.033169,-0.198403,10
0.421919,0.0332691,-0.196544,10
0.424915,0.0331193,-0.197053,10
0.423334,0.0331953,-0.195428,8
0.42216,0.0332512,-0.193999,9
0.421191,0.0332971,-0.19267,12
0.419592,0.033374,-0.191058,16
0.420536,0.0333254,-0.19061,10
0.421828,0.0332596,-0.190318,14
0.42427,0.0331371,-0.190539,13
0.424435,0.033127,-0.189729,14
0.424103,0.0331413,-0.188697,8
0.421748,0.0332556,-0.186768,22
0.421962,0.0332431,-0.185986,11
0.427659,0.0329597,-0.187621,13
0.422687,0.0332033,-0.184554,14
0.423446,0.0331639,-0.184009,12
0.422822,0.0331927,-0.182862,15
0.42627,0.0330204,-0.183478,17
0.424145,0.0331234,-0.181683,16
0.425506,0.0330541,-0.181391,21
0.427177,0.0329696,-0.181225,16
0.426444,0.0330039,-0.180034,18
0.428374,0.0329065,-0.179971,21
0.425733,0.033035,-0.177982,16
0.429019,0.0328706,-0.17848,18
0.428937,0.0328727,-0.177566,20
0.430123,0.032812,-0.177177,20
0.426663,0.0329811,-0.174872,17
0.425637,0.0330299,-0.173578,22
0.427206,0.0329503,-0.173347,19
0.425979,0.0330091,-0.171977,23
0.42755,0.0329294,-0.171742,20
0.427421,0.0329338,-0.170818,20
0.427193,0.0329431,-0.169857,21
0.428974,0.032853,-0.169695,18
0.428594,0.0328699,-0.168672,20
0.428365,0.0328792,-0.167712,22
0.426089,0.0329899,-0.165952,22
0.42786,0.0329003,-0.165777,25
0.428586,0.0328624,-0.165191,25
0.426759,0.0329509,-0.16362,27
0.428133,0.0328809,-0.163283,28
0.427357,0.0329173,-0.162122,26
0.427482,0.0329092,-0.161307,23
0.427308,0.0329159,-0.160379,29
0.426737,0.0329423,-0.159303,30
0.426465,0.0329538,-0.158343,26
0.426989,0.0329259,-0.157679,23
0.428464,0.0328509,-0.157365,20
0.427441,0.0328996,-0.156129,19
0.427518,0.0328938,-0.1553,18
0.427796,0.0328781,-0.154543,23
0.424507,0.0330392,-0.1525,25
0.427205,0.0329036,-0.152618,27
0.426439,0.0329396,-0.151491,29
0.426667,0.0329264,-0.150719,26
0.425116,0.0330013,-0.14932,31
0.42554,0.0329784,-0.148621,29
0.42641,0.0329333,-0.148076,27
0.424913,0.0330057,-0.146708,36
0.424551,0.0330217,-0.145738,32
0.424289,0.0330328,-0.144804,33
0.423589,0.0330657,-0.143723,38
0.423865,0.03305,-0.142975,30
0.422924,0.0330948,-0.141818,32
0.42223,0.0331274,-0.140748,35
0.424452,0.0330152,-0.140651,41
0.422975,0.0330866,-0.139323,35
0.424275,0.0330202,-0.138915,39
0.422995,0.0330818,-0.137658,35
0.423759,0.0330421,-0.137072,36
0.421711,0.0331418,-0.135575,33
0.421265,0.0331621,-0.134601,40
0.420294,0.0332084,-0.133462,37
0.420618,0.0331905,-0.132738,43
0.418843,0.0332768,-0.131352,45
0.420022,0.0332164,-0.130899,47
0.420346,0.0331984,-0.130175,53
0.419383,0.0332444,-0.129053,42
0.420183,0.0332028,-0.128478,49
0.419649,0.0332274,-0.127492,49
0.419831,0.0332166,-0.126726,54
0.421208,0.0331463,-0.12632,53
0.420291,0.03319,-0.125223,53
0.419711,0.033217,-0.124231,56
0.419324,0.0332344,-0.123298,55
0.419792,0.0332092,-0.122618,59
0.419785,0.0332077,-0.121799,54
0.420255,0.0331825,-0.121118,63
0.420011,0.0331928,-0.120231,60
0.420148,0.0331842,-0.119454,64
0.420047,0.0331873,-0.11861,57
0.42009,0.0331834,-0.117807,55
0.42037,0.0331676,-0.117071,65
0.420461,0.0331612,-0.116282,65
0.420172,0.0331738,-0.115388,67
0.420406,0.0331603,-0.11464,64
0.419976,0.0331799,-0.11371,71
0.420734,0.0331403,-0.113104,76
0.420541,0.0331481,-0.11224,75
0.420159,0.0331653,-0.111327,69
0.420965,0.0331233,-0.11073,66
0.420393,0.0331499,-0.10977,65
0.42082,0.0331268,-0.109072,62
0.420582,0.0331369,-0.108201,64
0.421248,0.0331019,-0.107563,62
0.421344,0.0330953,-0.106778,69
0.421965,0.0330625,-0.106127,69
0.421774,0.0330702,-0.10527,71
0.421156,0.0330992,-0.104307,77
0.422016,0.0330545,-0.103713,74
0.421445,0.0330811,-0.102765,75
0.422307,0.0330363,-0.102169,74
0.422358,0.033032,-0.101374,78
0.422936,0.0330013,-0.100705,82
0.42246,0.0330232,-0.0997846,93
0.422655,0.0330117,-0.0990246,89
0.423187,0.0329833,-0.0983427,92
0.423816,0.0329501,-0.097682,91
0.422861,0.0329959,-0.0966558,90
0.423394,0.0329675,-0.0959724,93
0.423784,0.0329463,-0.0952552,91
0.424272,0.0329201,-0.0945588,85
0.424954,0.0328843,-0.0939042,92
0.424334,0.0329134,-0.0929611,98
0.424052,0.0329256,-0.0920948,99
0.424783,0.0328874,-0.0914487,101
0.42455,0.0328972,-0.0905939,102
0.424848,0.0328805,-0.0898532,97
0.425582,0.032842,-0.0892036,94
0.425834,0.0328276,-0.0884511,93
0.42565,0.032835,-0.0876082,98
0.426145,0.0328085,-0.0869053,99
0.425865,0.0328206,-0.0860439,96
0.426361,0.032794,-0.0853399,101
0.426324,0.0327941,-0.0845284,104
0.426191,0.0327989,-0.0836985,102
0.427224,0.0327455,-0.0830972,102
0.426994,0.0327552,-0.0822483,104
0.427397,0.0327332,-0.0815219,108
0.427459,0.0327283,-0.0807298,110
0.427571,0.0327209,-0.0799473,107
0.427927,0.0327013,-0.0792101,109
0.428529,0.0326694,-0.0785172,111
0.42786,0.032701,-0.0775912,114
0.42817,0.0326837,-0.0768443,120
0.428284,0.0326762,-0.0760619,124
0.428643,0.0326564,-0.0753227,131
0.428563,0.0326586,-0.0745058,123
0.429022,0.0326339,-0.0737826,121
0.429089,0.0326287,-0.0729914,119
0.429894,0.0325866,-0.0723247,124
0.430062,0.0325764,-0.0715489,129
0.429934,0.032581,-0.0707243,130
0.430447,0.0325535,-0.070005,134
0.430073,0.0325704,-0.0691413,137
0.430538,0.0325453,-0.068413,134
0.430955,0.0325227,-0.0676756,136
0.430878,0.0325247,-0.0668604,138
0.431346,0.0324995,-0.0661294,133
0.43127,0.0325014,-0.0653146,134
0.43169,0.0324786,-0.0645747,133
0.431665,0.0324781,-0.0637677,135
0.431888,0.0324651,-0.0629974,138
0.432112,0.0324521,-0.0622267,139
0.431741,0.0324688,-0.0613708,140
0.432164,0.0324458,-0.0606283,143
0.432588,0.0324228,-0.0598846,145
0.432566,0.0324221,-0.0590786,145
0.432246,0.0324363,-0.0582329,147
0.432423,0.0324256,-0.0574548,145
0.432352,0.0324273,-0.0566439,149
0.432332,0.0324265,-0.0558401,151
0.433208,0.0323809,-0.0551507,153
0.433138,0.0323825,-0.0543398,157
0.43307,0.0323842,-0.0535296,158
0.433151,0.0323783,-0.0527381,161
0.433382,0.0323649,-0.0519646,157
0.433215,0.0323714,-0.0511436,162
0.433697,0.0323455,-0.0503987,159
0.434281,0.0323144,-0.049664,163
0.434465,0.0323033,-0.0488825,159
0.4344,0.0323048,-0.048073,160
0.434335,0.0323062,-0.0472641,160
0.434671,0.0322876,-0.0464985,165
0.434557,0.0322915,-0.0456846,163
0.435851,0.0322248,-0.0450165,154
0.435234,0.0322539,-0.0441505,161
0.435171,0.0322552,-0.0433421,164
0.435361,0.0322439,-0.0425587,163
0.436458,0.0321871,-0.0418616,164
0.436397,0.0321883,-0.0410521,159
0.436387,0.032187,-0.0402478,158
0.435822,0.0322135,-0.0393938,159
0.436317,0.0321869,-0.0386355,163
0.436561,0.0321728,-0.0378539,162
0.436402,0.032179,-0.0370376,167
0.436849,0.0321547,-0.0362721,165
0.436842,0.0321533,-0.0354685,162
0.43785,0.0321009,-0.0347452,167
0.436931,0.0321452,-0.03387,163
0.437788,0.0321003,-0.0331317,166
0.437631,0.0321064,-0.0323162,162
0.43844,0.0320639,-0.0315705,165
0.438691,0.0320495,-0.0307831,165
0.438688,0.0320479,-0.0299777,166
0.438839,0.0320385,-0.0291826,171
0.439348,0.0320111,-0.0284101,168
0.441092,0.0319216,-0.0277126,171
0.440217,0.0319638,-0.0268508,170
0.439857,0.03198,-0.0260225,169
0.440268,0.0319576,-0.0252394,173
0.440269,0.0319557,-0.0244323,171
0.440887,0.0319228,-0.0236581,172
0.441456,0.0318923,-0.0228792,172
0.441562,0.0318852,-0.0220756,173
0.441565,0.0318832,-0.0212668,177
0.441827,0.0318682,-0.0204698,176
0.441935,0.031861,-0.0196653,177
0.441681,0.0318719,-0.0188454,170
0.442308,0.0318386,-0.0180616,175
0.442314,0.0318364,-0.0172521,178
0.442891,0.0318055,-0.0164632,179
0.442847,0.031806,-0.015651,179
0.443322,0.0317802,-0.0148559,176
0.443644,0.0317622,-0.0140544,179
0.444279,0.0317284,-0.0132608,174
0.443923,0.0317445,-0.0124382,177
0.444351,0.0317211,-0.0116367,177
0.444729,0.0317003,-0.0108324,176
0.445317,0.0316688,-0.0100313,179
0.445329,0.0316663,-0.00921689,179
0.44571,0.0316453,-0.00840895,179
0.445776,0.0316402,-0.00759466,184
0.44579,0.0316376,-0.00677943,177
0.445805,0.031635,-0.00596419,180
0.446031,0.0316218,-0.00515109,179
0.445888,0.0316271,-0.00433408,179
0.446591,0.0315899,-0.00352313,178
0.44772,0.0315312,-0.0027116,186
0.447898,0.0315204,-0.00189319,185
0.448288,0.0314988,-0.00107434,187
0.448201,0.0315014,-0.000254448,184
0.448381,0.0314905,0.000565853,181
0.448081,0.0315037,0.00138464,182
0.448902,0.0314605,0.00220954,178
0.449726,0.0314171,0.00303752,184
0.450393,0.0313817,0.003867,180
0.45004,0.0313976,0.00468675,177
0.449956,0.0313999,0.00550896,181
0.450034,0.0313942,0.00633343,178
0.450113,0.0313883,0.00715826,176
0.450676,0.0313581,0.00799283,179
0.450487,0.0313657,0.00881355,175
0.450999,0.031338,0.00964982,183
0.451081,0.0313321,0.0104773,177
0.451757,0.0312961,0.0113212,178
0.452003,0.0312818,0.0121552,178
0.453337,0.0312126,0.0130235,180
0.452443,0.0312559,0.0138246,179
0.452909,0.0312305,0.0146691,175
0.453758,0.0311857,0.0155293,180
0.453627,0.0311905,0.0163555,179
0.453715,0.0311842,0.01719,180
0.453694,0.0311833,0.0180204,180
0.454057,0.0311632,0.0188676,175
0.45442,0.0311429,0.0197163,176
0.454566,0.0311337,0.0205561,180
0.454438,0.0311383,0.0213832,184
0.455134,0.0311012,0.0222519,183
0.455558,0.031078,0.023109,187
0.455927,0.0310574,0.0239648,187
0.456354,0.031034,0.0248254,191
0.457059,0.0309965,0.0257039,187
0.457322,0.0309813,0.0265586,189
0.457142,0.0309885,0.027387,189
0.457406,0.0309732,0.0282433,189
0.459011,0.0308902,0.0291889,186
0.458888,0.0308946,0.0300237,187
0.458877,0.0308932,0.0308661,189
0.459988,0.0308351,0.0317888,187
0.460372,0.0308138,0.0326625,187
0.460476,0.0308066,0.0335167,191
0.460074,0.030825,0.0343326,186
0.459168,0.0308689,0.0351075,186
0.460285,0.0308106,0.0360425,184
0.460166,0.0308147,0.0368799,188
0.460837,0.0307788,0.0377837,185
0.460325,0.0308028,0.0385881,183
0.460715,0.0307811,0.0394704,185
0.460768,0.0307765,0.0403241,186
0.460371,0.0307947,0.0411367,186
0.460481,0.0307872,0.0419958,186
0.460706,0.0307739,0.0428664,187
0.4611,0.030752,0.0437547,192
0.461044,0.030753,0.0446,191
0.460649,0.0307711,0.045411,192
0.461329,0.0307347,0.0463316,192
0.460765,0.0307613,0.0471245,190
0.460824,0.0307564,0.0479821,187
0.460263,0.0307829,0.0487727,182
0.460888,0.0307493,0.0496928,187
0.460327,0.0307758,0.0504822,182
0.460502,0.030765,0.0513537,182
0.460508,0.0307628,0.0522067,180
0.460401,0.0307663,0.0530467,177
0.459957,0.0307868,0.0538461,182
0.460134,0.0307759,0.0547199,186
0.460255,0.0307679,0.0555877,185
0.460773,0.0307397,0.0565061,189
0.461123,0.0307201,0.0574054,187
0.46068,0.0307406,0.0582038,191
0.460805,0.0307323,0.0590753,192
0.460533,0.0307441,0.059895,194
0.460716,0.030733,0.0607752,192
0.460785,0.0307275,0.061641,193
0.459444,0.0307936,0.0623117,188
0.460191,0.0307537,0.0632715,191
0.460715,0.0307252,0.0642025,192
0.459996,0.0307598,0.0649564,193
0.460351,0.0307398,0.0658652,193
0.458678,0.0308228,0.066475,192
0.459426,0.0307829,0.0674424,184
0.459669,0.0307686,0.0683363,185
0.458394,0.0308313,0.0689978,180
0.458077,0.0308455,0.0698041,181
0.458321,0.0308312,0.0706981,187
0.457781,0.0308567,0.0714683,187
0.457913,0.030848,0.0723455,188
0.457711,0.0308564,0.0731689,188
0.457565,0.0308618,0.0740013,190
0.457308,0.0308729,0.074815,192
0.457163,0.0308783,0.0756471,191
0.457243,0.0308724,0.0765175,194
0.457211,0.030872,0.0773693,194
0.456734,0.0308943,0.0781436,190
0.454926,0.0309842,0.0786817,194
0.454509,0.0310035,0.0794616,195
0.454314,0.0310114,0.0802804,194
0.454341,0.0310082,0.0811392,202
0.453651,0.0310413,0.0818668,197
0.452909,0.031077,0.0825824,201
0.454037,0.0310178,0.0836472,196
0.451378,0.0311509,0.0839979,194
0.45157,0.0311393,0.0848855,194
0.451109,0.0311608,0.0856477,196
0.450866,0.0311712,0.0864515,197
0.451005,0.0311622,0.0873302,198
0.451254,0.0311476,0.0882318,200
0.450414,0.0311884,0.0889158,198
0.449469,0.0312345,0.0895758,198
0.448799,0.0312667,0.0902888,192
0.448292,0.0312906,0.0910337,194
0.448432,0.0312815,0.0919124,193
0.448304,0.0312861,0.0927354,190
0.447853,0.0313071,0.09349,191
0.447941,0.0313007,0.0943589,195
0.446153,0.0313898,0.0948225,194
0.445921,0.0313997,0.0956197,190
0.44537,0.0314258,0.0963462,189
0.445192,0.0314329,0.0971542,186
0.445015,0.03144,0.0979621,189
0.444308,0.031474,0.0986502,182
0.444239,0.0314757,0.0994813,180
0.443747,0.0314988,0.100216,178
0.443943,0.0314869,0.101108,179
0.443241,0.0315207,0.101792,181
0.443596,0.0315007,0.102723,184
0.442843,0.0315372,0.103392,185
0.442303,0.0315628,0.10411,185
0.441817,0.0315856,0.10484,176
0.441594,0.031595,0.105633,172
0.441477,0.0315991,0.106451,171
0.44115,0.0316138,0.107217,170
0.441244,0.0316071,0.108088,168
0.441023,0.0316164,0.10888,164
0.441327,0.031599,0.109805,162
0.44137,0.0315949,0.110666,165
0.441938,0.0315641,0.111662,164
0.442035,0.0315572,0.112538,165
0.442026,0.0315557,0.113389,161
0.441597,0.0315757,0.114129,166
0.442485,0.0315285,0.115217,161
0.443272,0.0314864,0.116282,163
0.443001,0.0314983,0.117067,163
0.443154,0.0314886,0.117966,166
0.443149,0.0314869,0.118823,166
0.442456,0.0315203,0.119491,166
0.444043,0.0314374,0.120789,166
0.442976,0.0314898,0.121354,171
0.444516,0.0314094,0.122646,171
0.444246,0.0314212,0.123434,172
0.444618,0.0314002,0.124405,175
0.443816,0.0314392,0.125041,171
0.444615,0.0313965,0.126136,170
0.444935,0.0313782,0.127096,168
0.445364,0.0313543,0.12809,167
0.445257,0.0313578,0.128929,162
0.445526,0.0313421,0.129879,158
0.444991,0.0313675,0.130591,156
0.445314,0.031349,0.131559,156
0.446178,0.0313029,0.132693,155
0.445857,0.0313173,0.13347,151
0.446292,0.0312931,0.134479,152
0.44662,0.0312744,0.135456,153
0.446625,0.0312722,0.136336,159
0.446792,0.0312616,0.137267,154
0.448157,0.0311899,0.138575,151
0.447563,0.0312182,0.139271,153
0.448497,0.0311686,0.14045,155
0.448723,0.031155,0.141408,153
0.448676,0.0311554,0.142279,153
0.449397,0.0311166,0.1434,153
0.44946,0.0311113,0.14431,151
0.450185,0.0310722,0.145438,151
0.450526,0.0310528,0.146443,148
0.450482,0.031053,0.147322,151
0.451379,0.0310051,0.148516,156
0.450891,0.031028,0.14925,149
0.451125,0.0310141,0.150226,148
0.45186,0.0309744,0.151373,142
0.45243,0.0309432,0.152469,142
0.453003,0.0309119,0.153568,135
0.452738,0.0309234,0.154381,134
0.452977,0.0309091,0.155368,127
0.453384,0.0308862,0.156417,128
0.453569,0.0308747,0.157389,129
0.454543,0.0308228,0.158642,123
0.45456,0.0308199,0.15956,127
0.454691,0.0308111,0.160518,123
0.456469,0.030718,0.162072,122
0.455237,0.030779,0.162543,128
0.456337,0.0307207,0.16386,123
0.457557,0.0306561,0.165226,117
0.457349,0.0306646,0.166071,113
0.458289,0.0306144,0.167342,110
0.458197,0.0306171,0.168233,105
0.458104,0.0306197,0.169124,100
0.458415,0.0306017,0.170168,102
0.460466,0.0304945,0.171872,103
0.4602,0.030506,0.172704,109
0.460807,0.0304728,0.17387,110
0.461768,0.0304214,0.175175,105
0.462441,0.0303848,0.176373,108
0.463057,0.0303511,0.177553,106
0.463321,0.0303355,0.178599,103
0.463586,0.0303197,0.179648,110
0.464385,0.0302766,0.180909,108
0.465785,0.0302027,0.182413,100
0.466056,0.0301867,0.183472,95
0.466687,0.0301521,0.184679,90
0.466899,0.0301391,0.18572,90
0.468501,0.0300548,0.187326,87
0.468899,0.0300322,0.188449,95
0.469237,0.0300126,0.18955,89
0.468848,0.0300304,0.190354,90
0.469979,0.0299702,0.191787,93
0.471239,0.0299033,0.193278,87
0.471584,0.0298834,0.194394,84
0.473413,0.0297874,0.196135,81
0.473391,0.0297863,0.197103,81
0.473742,0.0297661,0.19823,80
0.474032,0.029749,0.199334,76
0.474322,0.0297318,0.20044,79
0.47574,0.0296568,0.202034,79
0.476475,0.0296168,0.203339,78
0.476645,0.0296058,0.204403,78
0.477447,0.0295624,0.205744,74
0.47762,0.0295513,0.206814,81
0.478047,0.0295271,0.207997,87
0.478284,0.0295126,0.2091,86
0.477888,0.0295308,0.209922,87
0.479912,0.0294245,0.211826,110
0.479642,0.0294361,0.212708,89
0.479053,0.0294641,0.213447,86
0.479742,0.0294264,0.214764,85
0.425902,0.0297489,-0.201877,10
0.328442,0.0353207,-0.15489,10
0.426178,0.029729,-0.200212,12
0.419699,0.0300975,-0.196271,9
0.419666,0.0300975,-0.195373,11
0.418514,0.0301614,-0.193956,16
0.423333,0.0298837,-0.195313,8
0.42519,0.0297754,-0.195283,9
0.422967,0.0299006,-0.193372,12
0.423031,0.0298949,-0.192517,12
0.425484,0.0297526,-0.19275,11
0.419923,0.0300689,-0.189342,14
0.428688,0.0295652,-0.192421,10
0.422011,0.0299454,-0.18853,14
0.422915,0.0298917,-0.188055,11
0.421555,0.0299675,-0.186572,15
0.426329,0.0296922,-0.18781,12
0.425097,0.0297607,-0.186383,17
0.421022,0.0299921,-0.183714,12
0.42251,0.0299049,-0.183492,10
0.421989,0.0299328,-0.182392,16
0.42477,0.0297715,-0.182723,16
0.423256,0.0298563,-0.181194,14
0.423966,0.0298136,-0.180625,19
0.424628,0.0297737,-0.180034,18
0.425542,0.0297194,-0.179547,19
0.424668,0.0297675,-0.178303,19
0.425035,0.0297445,-0.177585,15
0.427149,0.0296213,-0.177596,17
0.42582,0.0296955,-0.176167,18
0.428142,0.0295604,-0.176256,18
0.424474,0.0297688,-0.173869,17
0.428133,0.029557,-0.1745,17
0.425855,0.0296856,-0.172696,14
0.425182,0.0297223,-0.171554,23
0.427044,0.0296135,-0.171439,15
0.426169,0.0296617,-0.170217,20
0.426043,0.029667,-0.169299,24
0.426912,0.0296152,-0.168778,20
0.424752,0.0297371,-0.167056,22
0.426311,0.0296458,-0.166807,18
0.426782,0.0296167,-0.166127,20
0.426259,0.0296448,-0.165058,15
0.425788,0.0296699,-0.164012,22
0.427503,0.0295695,-0.163812,24
0.426631,0.0296176,-0.162614,28
0.425764,0.0296655,-0.161421,23
0.427478,0.0295651,-0.161212,21
0.425025,0.029704,-0.159425,27
0.423922,0.0297654,-0.158155,18
0.426413,0.0296204,-0.158232,21
0.426043,0.0296397,-0.157237,18
0.425972,0.0296419,-0.156355,26
0.425111,0.0296894,-0.155184,24
0.422888,0.0298152,-0.15352,30
0.425118,0.0296851,-0.153482,27
0.423237,0.0297912,-0.151952,29
0.424635,0.029709,-0.151607,28
0.424028,0.029742,-0.150542,31
0.422354,0.0298363,-0.149101,27
0.423307,0.0297796,-0.148595,25
0.421207,0.0298984,-0.147014,31
0.421961,0.0298531,-0.146438,31
0.422138,0.0298411,-0.14566,27
0.42519,0.0296637,-0.145873,28
0.422201,0.0298336,-0.144003,32
0.421028,0.0298992,-0.142765,40
0.420676,0.0299175,-0.141811,37
0.419657,0.0299743,-0.140634,30
0.421127,0.0298878,-0.140295,32
0.419343,0.0299886,-0.138868,38
0.421675,0.0298525,-0.138811,32
0.418936,0.0300082,-0.137077,28
0.419303,0.0299852,-0.13637,33
0.419529,0.0299704,-0.135617,43
0.418614,0.0300211,-0.134495,37
0.41761,0.030077,-0.133348,40
0.418355,0.0300323,-0.132764,41
0.417447,0.0300827,-0.131654,46
0.418144,0.0300407,-0.131054,43
0.418939,0.0299932,-0.130482,46
0.417653,0.0300653,-0.12926,51
0.417127,0.0300937,-0.128279,50
0.417494,0.0300707,-0.127575,53
0.418854,0.0299906,-0.127173,45
0.417995,0.0300382,-0.126094,53
0.417846,0.0300449,-0.125233,54
0.418262,0.0300191,-0.124542,53
0.417314,0.0300719,-0.123444,53
0.417777,0.0300434,-0.122768,56
0.417442,0.0300608,-0.121856,57
0.416827,0.0300944,-0.120864,65
0.418041,0.0300227,-0.120405,61
0.417566,0.0300482,-0.119456,63
0.417843,0.0300304,-0.118725,61
0.418261,0.0300045,-0.118033,64
0.41774,0.0300327,-0.117075,60
0.418347,0.0299959,-0.116436,57
0.418814,0.0299671,-0.115756,67
0.419756,0.029911,-0.115205,65
0.418761,0.0299665,-0.114121,66
0.417677,0.0300272,-0.113018,66
0.418614,0.0299713,-0.112464,66
0.418707,0.0299642,-0.111682,67
0.420074,0.0298835,-0.111239,67
0.418892,0.0299498,-0.110117,72
0.419221,0.029929,-0.109397,68
0.419645,0.0299027,-0.108701,70
0.419221,0.0299254,-0.107785,69
0.41974,0.0298936,-0.107113,73
0.420545,0.0298454,-0.106512,78
0.420593,0.0298408,-0.105718,73
0.420689,0.0298334,-0.104936,77
0.420643,0.0298343,-0.104118,81
0.42074,0.0298269,-0.103337,81
0.420884,0.0298167,-0.102568,81
0.419988,0.0298666,-0.101545,82
0.420701,0.0298237,-0.100915,89
0.421178,0.0297943,-0.100226,89
0.421182,0.0297922,-0.099423,86
0.421804,0.0297545,-0.0987663,87
0.421381,0.0297771,-0.0978638,95
0.421623,0.0297613,-0.0971175,92
0.421534,0.0297647,-0.0962946,93
0.421302,0.0297762,-0.0954403,94
0.422689,0.0296943,-0.0949525,93
0.422934,0.0296784,-0.0942045,103
0.422559,0.0296982,-0.0933184,104
0.422423,0.0297042,-0.0924869,107
0.422288,0.0297102,-0.0916566,105
0.422821,0.0296777,-0.0909716,101
0.422639,0.0296864,-0.0901319,105
0.423173,0.0296537,-0.0894455,108
0.423373,0.0296403,-0.0886873,107
0.423862,0.0296103,-0.0879889,103
0.424352,0.0295801,-0.0872894,105
0.423883,0.0296054,-0.0863921,101
0.423798,0.0296085,-0.0855751,106
0.423905,0.0296005,-0.0847974,108
0.424445,0.0295675,-0.0841058,108
0.425516,0.0295038,-0.0835174,102
0.424903,0.0295374,-0.0825964,106
0.425542,0.0294987,-0.0819205,99
0.425074,0.0295239,-0.0810306,108
0.42504,0.0295241,-0.0802251,101
0.426164,0.0294573,-0.0796375,108
0.426227,0.0294518,-0.0788491,110
0.426339,0.0294435,-0.0780698,107
0.426258,0.0294464,-0.0772554,114
0.426662,0.0294212,-0.0765289,122
0.426001,0.0294576,-0.0756118,124
0.426502,0.0294269,-0.0749023,127
0.426907,0.0294016,-0.0741746,128
0.427653,0.0293566,-0.0735046,129
0.427283,0.0293762,-0.0726418,128
0.427399,0.0293677,-0.0718628,126
0.428197,0.0293197,-0.0711975,131
0.428559,0.029297,-0.0704575,129
0.428726,0.0292855,-0.0696849,130
0.428112,0.0293192,-0.0687862,130
0.428719,0.0292823,-0.0680846,129
0.429524,0.0292339,-0.0674122,136
0.429988,0.0292052,-0.0666842,136
0.429324,0.0292419,-0.0657815,135
0.429886,0.0292075,-0.0650678,135
0.429763,0.0292128,-0.0642495,137
0.429787,0.0292096,-0.0634539,135
0.42991,0.0292007,-0.062673,136
0.430968,0.0291376,-0.0620269,135
0.430698,0.0291514,-0.061188,141
0.431365,0.0291109,-0.0604822,135
0.430407,0.0291647,-0.0595488,140
0.430975,0.0291299,-0.0588282,146
0.431447,0.0291007,-0.0580927,145
0.431772,0.0290801,-0.0573362,143
0.431554,0.029091,-0.0565076,145
0.431583,0.0290875,-0.0557121,151
0.43186,0.0290696,-0.0549484,159
0.431841,0.0290689,-0.0541467,161
0.43202,0.0290567,-0.05337,157
0.432051,0.0290531,-0.0525749,161
0.431836,0.0290638,-0.0517504,161
0.432909,0.0289997,-0.051079,162
0.432942,0.028996,-0.0502831,160
0.433373,0.0289692,-0.0495328,157
0.433557,0.0289567,-0.0487534,162
0.433542,0.0289558,-0.0479516,161
0.433826,0.0289375,-0.0471826,165
0.434011,0.0289249,-0.0464023,166
0.433848,0.0289326,-0.045585,165
0.434234,0.0289084,-0.0448251,162
0.434022,0.0289189,-0.0440035,163
0.434209,0.0289062,-0.0432227,163
0.434098,0.0289109,-0.0424122,164
0.434137,0.0289068,-0.0416168,162
0.434326,0.028894,-0.0408355,164
0.435368,0.0288317,-0.0401321,163
0.435609,0.0288159,-0.039353,167
0.435851,0.0288,-0.0385733,167
0.435944,0.0287929,-0.0377799,167
0.435785,0.0288003,-0.0369652,166
0.435727,0.0288018,-0.0361597,167
0.435972,0.0287858,-0.035379,163
0.436167,0.0287727,-0.0345936,166
0.437373,0.0287008,-0.0338856,167
0.436508,0.0287492,-0.0330176,170
0.436705,0.0287359,-0.0322309,170
0.438017,0.0286579,-0.0315233,168
0.437051,0.0287122,-0.0306524,169
0.437251,0.0286988,-0.0298642,167
0.437501,0.0286825,-0.0290788,171
0.437196,0.0286984,-0.0282571,166
0.438564,0.0286171,-0.0275406,170
0.438919,0.0285946,-0.0267582,169
0.439021,0.0285868,-0.0259598,170
0.43897,0.028588,-0.0251525,170
0.439328,0.0285653,-0.0243679,174
0.439126,0.0285753,-0.0235524,169
0.439689,0.0285407,-0.022777,173
0.44005,0.0285179,-0.0219896,172
0.439951,0.0285219,-0.0211792,175
0.440313,0.028499,-0.0203902,171
0.441552,0.0284251,-0.0196383,174
0.441608,0.02842,-0.0188325,175
0.441872,0.0284029,-0.0180348,184
0.442033,0.0283917,-0.0172324,181
0.442091,0.0283864,-0.0164257,176
0.442357,0.0283691,-0.0156261,180
0.442416,0.0283638,-0.0148188,181
0.442684,0.0283465,-0.0140177,181
0.442952,0.028329,-0.0132158,177
0.44395,0.0282691,-0.0124326,179
0.444012,0.0282636,-0.0116223,184
0.443087,0.0283157,-0.0107888,181
0.443878,0.0282678,-0.00999558,183
0.444255,0.028244,-0.00919135,178
0.444477,0.0282293,-0.00838302,179
0.444752,0.0282114,-0.00757475,184
0.445394,0.0281722,-0.00677063,184
0.445461,0.0281664,-0.00595719,185
0.445267,0.0281759,-0.00514085,182
0.445597,0.0281548,-0.00432966,180
0.446087,0.0281245,-0.0035183,184
0.445841,0.028137,-0.00270169,183
0.446332,0.0281065,-0.00188809,184
0.447301,0.0280482,-0.00107314,188
0.446686,0.0280822,-0.000255966,184
0.446389,0.0280977,0.000559797,183
0.447837,0.0280114,0.00138246,185
0.448017,0.0279991,0.00220235,186
0.448092,0.0279929,0.00302206,184
0.448008,0.0279959,0.00384046,179
0.447977,0.0279958,0.00465923,177
0.447895,0.0279988,0.0054772,177
0.449571,0.0278993,0.0063225,177
0.448794,0.0279426,0.00713103,176
0.450049,0.0278676,0.00797615,180
0.449915,0.0278736,0.00879643,181
0.449941,0.0278702,0.00962001,181
0.45013,0.0278574,0.0104478,182
0.450749,0.0278194,0.0112879,182
0.450616,0.0278253,0.0121088,183
0.451184,0.0277903,0.0129507,178
0.451106,0.0277929,0.0137738,180
0.452868,0.0276883,0.0146598,184
0.451546,0.0277635,0.0154411,174
0.451848,0.027744,0.0162792,180
0.45226,0.0277181,0.0171229,173
0.45224,0.0277175,0.0179502,174
0.452762,0.0276851,0.0188012,175
0.452688,0.0276875,0.0196272,176
0.453376,0.0276455,0.020489,175
0.453794,0.0276192,0.0213403,180
0.454323,0.0275865,0.0221988,182
0.454416,0.0275792,0.0230365,181
0.455002,0.0275431,0.0239016,182
0.455261,0.0275261,0.0247506,181
0.455136,0.0275315,0.0255782,184
0.456113,0.0274726,0.0264719,188
0.455658,0.0274972,0.0272806,190
0.456196,0.0274639,0.0281512,182
0.457124,0.0274078,0.0290496,186
0.457113,0.0274066,0.0298881,187
0.457212,0.0273988,0.0307344,184
0.458035,0.0273489,0.031633,189
0.45797,0.0273508,0.0324697,186
0.458407,0.0273234,0.0333441,185
0.457842,0.0273545,0.0341431,186
0.458168,0.0273335,0.0350106,189
0.458384,0.027319,0.0358706,188
0.458322,0.0273207,0.0367087,188
0.460388,0.027198,0.0377265,186
0.459709,0.0272358,0.0385153,185
0.459986,0.0272177,0.039386,189
0.459253,0.0272586,0.0401671,185
0.459867,0.0272208,0.0410695,186
0.460484,0.0271829,0.0419746,184
0.459134,0.0272598,0.0426943,187
0.458966,0.0272678,0.0435243,189
0.460707,0.0271641,0.0445438,191
0.460538,0.027172,0.0453767,192
0.460032,0.0271996,0.0461744,189
0.459922,0.0272042,0.047012,187
0.460543,0.0271659,0.0479278,189
0.460265,0.0271803,0.0487482,188
0.460381,0.0271716,0.0496116,184
0.460273,0.027176,0.0504504,189
0.459603,0.0272132,0.0512249,182
0.460059,0.0271847,0.0521281,181
0.459615,0.0272087,0.052927,184
0.460354,0.0271635,0.0538664,182
0.460249,0.0271677,0.0547061,181
0.459863,0.0271884,0.055511,182
0.459816,0.0271892,0.0563573,186
0.459994,0.0271769,0.0572325,186
0.460286,0.0271578,0.0581234,186
0.458724,0.0272474,0.0587723,184
0.458679,0.0272481,0.0596178,189
0.459364,0.027206,0.060562,186
0.458816,0.0272362,0.0613403,188
0.458437,0.0272565,0.0621404,187
0.458283,0.0272636,0.062971,190
0.458186,0.0272674,0.0638095,190
0.457978,0.0272776,0.064632,193
0.457937,0.0272781,0.0654787,191
0.457898,0.0272785,0.0663257,192
0.458027,0.027269,0.0671982,189
0.457597,0.0272922,0.0679867,195
0.457895,0.0272729,0.0688859,196
0.457746,0.0272796,0.069717,198
0.457877,0.02727,0.0705922,199
0.457562,0.0272866,0.071397,193
0.456691,0.0273357,0.0721113,196
0.456101,0.0273684,0.0728686,195
0.45757,0.0272803,0.0739644,196
0.456366,0.0273489,0.0746195,197
0.457504,0.0272803,0.075666,199
0.455248,0.0274107,0.0761375,200
0.45483,0.0274333,0.0769183,200
0.45502,0.0274202,0.0778042,201
0.454823,0.0274298,0.0786232,202
0.454738,0.0274328,0.0794616,200
0.454433,0.0274488,0.0802605,200
0.45292,0.0275356,0.0808385,196
0.452181,0.0275771,0.0815538,197
0.45199,0.0275864,0.0823686,201
0.451472,0.0276149,0.0831218,200
0.451228,0.0276273,0.0839255,195
0.451093,0.0276333,0.0847497,200
0.451176,0.0276264,0.0856161,196
0.451043,0.0276324,0.0864409,197
0.449609,0.0277146,0.0870088,200
0.448991,0.027749,0.0877346,199
0.448644,0.0277674,0.088513,199
0.448622,0.0277668,0.0893564,195
0.448384,0.0277789,0.0901562,191
0.447986,0.0278003,0.0909224,196
0.447965,0.0277997,0.0917663,196
0.446605,0.0278776,0.0923284,191
0.447334,0.0278329,0.0933301,193
0.446886,0.0278573,0.0940825,186
0.446226,0.0278941,0.0947879,191
0.445196,0.0279527,0.0954104,186
0.444594,0.0279862,0.0961239,186
0.4441,0.0280133,0.0968595,185
0.443819,0.0280279,0.0976415,189
0.443116,0.0280673,0.0983277,183
0.44331,0.028054,0.0992163,184
0.44261,0.0280932,0.0999004,180
0.442752,0.028083,0.100778,180
0.442685,0.028085,0.101607,178
0.442145,0.0281149,0.102326,180
0.441921,0.0281261,0.103118,182
0.441488,0.0281496,0.103859,182
0.441213,0.0281639,0.104638,178
0.441096,0.0281689,0.105454,174
0.440666,0.0281923,0.106194,170
0.441595,0.0281357,0.107269,173
0.441269,0.028153,0.108036,172
0.441258,0.0281517,0.10888,169
0.4413,0.0281473,0.109739,169
0.440662,0.0281829,0.110425,169
0.441437,0.0281354,0.111473,165
0.441848,0.0281093,0.112429,164
0.441735,0.0281141,0.113251,157
0.442042,0.028094,0.114184,159
0.442508,0.0280647,0.115161,167
0.442238,0.0280786,0.115944,166
0.4426,0.0280554,0.116896,167
0.442331,0.0280693,0.117679,163
0.442747,0.0280428,0.118649,168
0.443749,0.027982,0.119782,176
0.442527,0.028052,0.120305,174
0.442575,0.0280472,0.121177,175
0.442836,0.0280299,0.12211,173
0.442833,0.0280281,0.122969,174
0.443891,0.0279638,0.124132,166
0.44357,0.0279808,0.124904,170
0.444207,0.0279413,0.125951,167
0.443674,0.0279708,0.126662,161
0.443993,0.02795,0.127621,162
0.444793,0.0279009,0.128724,159
0.445008,0.0278863,0.129656,164
0.445063,0.0278811,0.130543,161
0.445118,0.0278759,0.13143,157
0.445549,0.0278485,0.132433,157
0.446036,0.0278178,0.133454,159
0.446255,0.0278029,0.134396,157
0.446043,0.0278134,0.135207,161
0.446208,0.0278017,0.136135,158
0.446807,0.0277644,0.137199,158
0.446975,0.0277525,0.138131,157
0.447632,0.0277118,0.139219,152
0.4484,0.0276645,0.140346,157
0.44808,0.0276813,0.141129,151
0.44929,0.027608,0.142403,149
0.448477,0.0276539,0.143028,152
0.449691,0.0275803,0.14431,147
0.45014,0.0275518,0.145348,148
0.45004,0.0275557,0.146207,156
0.450933,0.027501,0.147396,153
0.450888,0.0275016,0.148276,152
0.451343,0.0274727,0.149324,148
0.451188,0.0274798,0.150169,147
0.451867,0.0274377,0.151298,144
0.452995,0.0273691,0.152584,144
0.452394,0.0274025,0.15328,138
0.453415,0.0273402,0.154536,138
0.452814,0.0273737,0.155232,138
0.452941,0.0273641,0.156181,141
0.453797,0.0273115,0.157389,133
0.453645,0.0273184,0.158243,128
0.453999,0.0272955,0.159278,129
0.454298,0.0272758,0.160296,117
0.455503,0.0272025,0.161642,119
0.455805,0.0271826,0.162667,124
0.456165,0.0271592,0.163715,126
0.456128,0.0271593,0.164619,124
0.458035,0.0270446,0.16624,115
0.457254,0.0270887,0.166874,116
0.458365,0.0270209,0.168211,109
0.458733,0.0269971,0.169275,105
0.458066,0.0270344,0.169951,105
0.458262,0.0270208,0.170952,103
0.458631,0.0269968,0.172021,105
0.460625,0.0268768,0.173714,105
0.460767,0.0268663,0.174703,107
0.460385,0.0268867,0.175491,104
0.461286,0.0268314,0.176778,106
0.462309,0.0267687,0.178116,105
0.46269,0.0267441,0.179207,104
0.463721,0.026681,0.180558,106
0.46452,0.0266315,0.181822,106
0.465324,0.0265819,0.183091,91
0.46619,0.0265284,0.18439,94
0.465029,0.026595,0.184876,96
0.465717,0.0265521,0.186108,97
0.466348,0.0265126,0.18732,94
0.468307,0.0263945,0.189079,87
0.468645,0.0263723,0.19018,93
0.469044,0.0263465,0.191309,86
0.469202,0.026335,0.19234,79
0.470579,0.0262513,0.193882,83
0.470617,0.0262469,0.194868,87
0.471698,0.0261807,0.196296,86
0.472785,0.0261141,0.197731,86
0.47264,0.0261205,0.198648,80
0.473609,0.0260608,0.200041,78
0.474334,0.0260157,0.201335,75
0.474626,0.0259961,0.202445,73
0.474794,0.025984,0.203504,71
0.475276,0.0259532,0.204701,79
0.475821,0.0259186,0.205929,81
0.476369,0.0258839,0.207162,82
0.477109,0.0258379,0.208483,85
0.477788,0.0257953,0.209781,81
0.476635,0.0258614,0.210264,97
0.476999,0.0258376,0.211424,74
0.477237,0.0258213,0.21253,74
0.477412,0.0258086,0.21361,78
0.153136,0.0441707,-0.0741236,8
0.194505,0.0414757,-0.0924154,7
0.422361,0.0266436,-0.198306,8
0.42641,0.0263781,-0.199322,9
0.42318,0.0265864,-0.196914,12
0.422897,0.0266028,-0.195894,10
0.420945,0.0267279,-0.194102,10
0.418673,0.0268737,-0.192172,11
0.422547,0.0266196,-0.193077,11
0.426291,0.0263738,-0.193907,11
0.423368,0.0265621,-0.191685,12
0.421808,0.0266617,-0.190095,15
0.42261,0.0266075,-0.189578,10
0.425401,0.0264237,-0.189953,9
0.42717,0.0263065,-0.189859,12
0.424886,0.0264532,-0.187955,14
0.423072,0.0265694,-0.18627,12
0.42304,0.0265695,-0.185379,18
0.430729,0.0260666,-0.187877,14
0.423915,0.0265086,-0.184009,14
0.425072,0.0264312,-0.183636,9
0.427488,0.0262718,-0.183803,15
0.427104,0.0262948,-0.182756,11
0.422808,0.0265728,-0.180034,14
0.425544,0.0263925,-0.18033,16
0.425514,0.0263925,-0.179442,17
0.424542,0.0264539,-0.178157,15
0.427499,0.0262591,-0.178528,12
0.425126,0.0264118,-0.176659,17
0.424208,0.0264697,-0.175405,17
0.424722,0.0264342,-0.174749,16
0.424694,0.0264341,-0.173869,13
0.422163,0.0265972,-0.171963,23
0.425578,0.0263725,-0.172494,13
0.42471,0.0264272,-0.171273,18
0.422866,0.0265455,-0.169663,20
0.425496,0.026372,-0.169858,18
0.42399,0.0264682,-0.168391,14
0.423768,0.0264808,-0.16744,20
0.424185,0.0264517,-0.166744,14
0.42362,0.0264866,-0.165661,22
0.422472,0.0265596,-0.164353,20
0.423522,0.0264891,-0.163906,23
0.424774,0.0264055,-0.163534,17
0.423964,0.0264564,-0.162363,26
0.423109,0.0265102,-0.161179,24
0.422404,0.0265543,-0.160056,25
0.424728,0.0264007,-0.160086,21
0.42202,0.0265755,-0.158208,20
0.421563,0.0266035,-0.157187,24
0.421252,0.0266219,-0.156223,24
0.422053,0.0265676,-0.155674,31
0.422664,0.0265258,-0.155052,24
0.421964,0.0265696,-0.153948,28
0.422671,0.0265215,-0.15336,20
0.424357,0.0264095,-0.153126,24
0.421471,0.0265961,-0.151234,26
0.421211,0.0266112,-0.150299,33
0.420232,0.0266732,-0.149108,29
0.419497,0.0267194,-0.148008,31
0.422025,0.0265523,-0.148064,41
0.420707,0.0266365,-0.146761,34
0.419637,0.0267045,-0.14555,35
0.420626,0.026638,-0.145058,32
0.420035,0.0266747,-0.144018,35
0.418591,0.0267672,-0.142689,37
0.418387,0.0267787,-0.141789,38
0.41823,0.0267871,-0.140906,35
0.419736,0.0266867,-0.140586,38
0.416788,0.0268776,-0.138767,33
0.420807,0.026613,-0.139282,30
0.418555,0.0267584,-0.137705,31
0.417221,0.0268438,-0.136439,31
0.419336,0.0267036,-0.136308,30
0.418707,0.0267428,-0.135277,37
0.414247,0.0270327,-0.133011,44
0.4147,0.0270012,-0.132342,39
0.415387,0.0269544,-0.131746,44
0.415937,0.0269166,-0.131104,47
0.416534,0.0268757,-0.130476,50
0.417134,0.0268346,-0.129847,51
0.416236,0.0268915,-0.12875,51
0.415714,0.0269238,-0.127773,45
0.417529,0.0268032,-0.127518,50
0.417099,0.0268295,-0.12657,57
0.416249,0.0268833,-0.125497,54
0.416382,0.0268727,-0.124724,58
0.416655,0.026853,-0.123994,57
0.416976,0.0268302,-0.123277,65
0.416782,0.026841,-0.122408,61
0.416636,0.0268488,-0.121554,61
0.415792,0.0269022,-0.120497,61
0.416066,0.0268824,-0.119769,59
0.416527,0.0268504,-0.119093,67
0.416755,0.0268336,-0.11835,61
0.416658,0.0268382,-0.117514,69
0.417307,0.0267938,-0.11689,64
0.417257,0.0267953,-0.116068,72
0.417721,0.026763,-0.11539,74
0.417765,0.0267583,-0.114594,76
0.417435,0.0267782,-0.113697,76
0.418041,0.0267366,-0.113056,76
0.417618,0.0267625,-0.112135,70
0.418037,0.0267332,-0.111442,73
0.418458,0.0267038,-0.110749,70
0.417801,0.0267451,-0.10977,77
0.418597,0.0266911,-0.109175,78
0.418315,0.0267077,-0.108297,80
0.418034,0.0267243,-0.107421,79
0.418597,0.0266856,-0.106763,85
0.418457,0.026693,-0.105924,107
0.419021,0.0266541,-0.105265,107
0.420059,0.0265843,-0.104722,101
0.420108,0.0265793,-0.10393,87
0.41978,0.026599,-0.103045,82
0.419594,0.0266093,-0.102197,93
0.419503,0.0266135,-0.101373,87
0.419318,0.0266238,-0.100528,89
0.420358,0.0265538,-0.0999765,87
0.420929,0.0265145,-0.0993105,85
0.420792,0.0265217,-0.098476,88
0.420466,0.0265413,-0.0975986,96
0.420802,0.0265174,-0.0968761,100
0.420147,0.0265586,-0.0959254,103
0.420483,0.0265347,-0.0952033,104
0.420772,0.0265139,-0.09447,100
0.421394,0.0264713,-0.0938104,108
0.421543,0.0264597,-0.0930441,112
0.421646,0.0264512,-0.0922673,113
0.42118,0.0264799,-0.0913668,105
0.421946,0.0264278,-0.090735,106
0.422098,0.0264161,-0.0899688,103
0.422059,0.0264168,-0.0891623,112
0.422639,0.0263769,-0.0884865,110
0.422506,0.0263838,-0.0876603,110
0.422898,0.0263563,-0.0869434,107
0.422861,0.0263569,-0.0861379,106
0.423731,0.026298,-0.0855168,107
0.423742,0.0262954,-0.0847205,109
0.422848,0.0263524,-0.0837443,111
0.423146,0.026331,-0.0830069,109
0.423732,0.0262907,-0.082325,114
0.423459,0.0263068,-0.0814753,116
0.423806,0.0262822,-0.080746,116
0.423916,0.0262732,-0.0799707,115
0.424361,0.0262421,-0.0792583,114
0.424568,0.0262267,-0.0785003,117
0.424535,0.0262271,-0.077698,124
0.425031,0.0261927,-0.0769923,125
0.42476,0.0262087,-0.0761471,132
0.424633,0.0262153,-0.0753291,124
0.425081,0.026184,-0.0746134,126
0.426013,0.0261209,-0.0739807,128
0.425838,0.0261306,-0.073154,132
0.425761,0.0261339,-0.0723449,136
0.4266,0.0260769,-0.0716911,129
0.425511,0.0261467,-0.0707129,134
0.426494,0.0260803,-0.0700811,138
0.426515,0.0260771,-0.0692889,139
0.426536,0.026074,-0.0684971,142
0.426944,0.0260453,-0.0677672,136
0.427256,0.026023,-0.0670211,138
0.427811,0.0259846,-0.066312,139
0.428369,0.0259461,-0.0656015,144
0.429075,0.0258979,-0.0649118,144
0.428757,0.025917,-0.0640663,144
0.428927,0.025904,-0.0632947,142
0.428611,0.025923,-0.0624516,151
0.428393,0.0259356,-0.0616242,141
0.429638,0.0258518,-0.0610063,150
0.42942,0.0258644,-0.0601785,146
0.429544,0.0258544,-0.0593993,146
0.429816,0.0258347,-0.0586401,140
0.429746,0.0258375,-0.0578341,144
0.430117,0.0258113,-0.0570874,149
0.430195,0.0258044,-0.0563011,147
0.430322,0.0257942,-0.0555212,154
0.430646,0.025771,-0.0547663,155
0.430627,0.0257705,-0.0539674,161
0.430756,0.0257602,-0.0531871,154
0.430984,0.0257434,-0.0524187,156
0.431311,0.02572,-0.0516616,160
0.431442,0.0257096,-0.0508804,160
0.431672,0.0256926,-0.0501106,164
0.431607,0.0256951,-0.0493064,160
0.431937,0.0256716,-0.0485471,157
0.432317,0.0256447,-0.0477925,161
0.432897,0.0256047,-0.0470583,162
0.432536,0.0256267,-0.0462218,167
0.433663,0.0255506,-0.0455431,170
0.4337,0.0255463,-0.044748,165
0.432695,0.0256108,-0.0438475,159
0.433278,0.0255706,-0.0431089,158
0.433863,0.0255302,-0.0423685,158
0.433653,0.0255422,-0.0415501,159
0.433941,0.0255214,-0.0407794,164
0.434031,0.0255137,-0.0399896,160
0.434121,0.0255059,-0.0391998,166
0.434113,0.0255047,-0.0384011,168
0.434753,0.0254607,-0.0376587,171
0.435847,0.0253867,-0.0369525,166
0.434139,0.0254975,-0.0360109,165
0.434681,0.02546,-0.0352575,161
0.435475,0.0254058,-0.0345223,167
0.435269,0.0254176,-0.0337072,167
0.435264,0.0254161,-0.0329081,169
0.43556,0.0253948,-0.0321313,167
0.435456,0.0253999,-0.031325,168
0.436507,0.0253287,-0.0305997,174
0.436554,0.0253238,-0.0298027,173
0.437511,0.0252588,-0.0290655,174
0.438218,0.0252103,-0.028309,171
0.438572,0.0251852,-0.027528,173
0.438927,0.0251599,-0.0267459,177
0.438571,0.0251816,-0.0259211,180
0.438723,0.0251697,-0.0251266,174
0.438521,0.0251813,-0.0243121,176
0.439133,0.025139,-0.0235417,173
0.439186,0.0251337,-0.0227405,179
0.438984,0.0251452,-0.0219268,180
0.439752,0.0250927,-0.0211598,177
0.439297,0.0251209,-0.0203344,181
0.439709,0.0250919,-0.0195487,178
0.440021,0.0250695,-0.0187574,177
0.440077,0.0250639,-0.0179548,178
0.44039,0.0250414,-0.0171619,177
0.44091,0.0250053,-0.0163754,179
0.441637,0.0249554,-0.0155941,180
0.441336,0.0249735,-0.0147769,174
0.441344,0.0249711,-0.0139703,174
0.441971,0.0249279,-0.0131815,181
0.441981,0.0249254,-0.0123739,178
0.442146,0.0249127,-0.0115702,178
0.44226,0.0249033,-0.0107648,180
0.442478,0.0248871,-0.00996119,177
0.44337,0.0248262,-0.00917001,181
0.443279,0.0248304,-0.00835818,183
0.443189,0.0248346,-0.00754674,184
0.444451,0.0247493,-0.00675456,190
0.444988,0.024712,-0.00594895,189
0.445107,0.0247022,-0.00513709,187
0.4446,0.0247339,-0.00431955,188
0.444721,0.0247241,-0.00350801,188
0.445052,0.0247004,-0.00269701,185
0.445488,0.0246697,-0.0018851,189
0.445401,0.0246736,-0.00107106,185
0.44542,0.0246705,-0.000257245,183
0.446122,0.0246222,0.000558508,184
0.446195,0.0246156,0.001374,186
0.44611,0.0246193,0.00218876,186
0.447344,0.0245358,0.00301416,185
0.447155,0.0245465,0.00382972,178
0.447759,0.0245047,0.00465414,176
0.447995,0.0244872,0.00547573,180
0.448072,0.0244803,0.00629574,177
0.448202,0.0244698,0.00711703,183
0.448546,0.0244452,0.00794299,180
0.449371,0.0243887,0.00878051,179
0.449025,0.0244098,0.00959407,178
0.449052,0.0244061,0.0104157,180
0.448973,0.0244095,0.0112347,180
0.449749,0.0243563,0.012078,183
0.449404,0.0243772,0.0128901,177
0.450558,0.024299,0.0137494,181
0.45075,0.0242844,0.0145803,180
0.450674,0.0242876,0.0154022,179
0.450652,0.0242872,0.016226,177
0.451438,0.0242333,0.017082,178
0.451148,0.0242506,0.0178962,176
0.451721,0.0242108,0.018747,175
0.451324,0.0242352,0.019556,172
0.451845,0.0241988,0.020407,175
0.452909,0.0241264,0.0212868,178
0.453871,0.0240608,0.0221654,181
0.453908,0.0240564,0.022999,183
0.454547,0.0240122,0.0238657,185
0.454587,0.0240077,0.024701,184
0.4549,0.0239851,0.0255526,184
0.454995,0.0239769,0.0263924,183
0.455256,0.0239577,0.027243,184
0.455463,0.0239421,0.0280913,180
0.456606,0.0238644,0.0290022,181
0.45654,0.0238669,0.0298356,182
0.456418,0.0238731,0.0306651,184
0.457182,0.0238206,0.0315576,188
0.456564,0.0238596,0.0323519,180
0.455728,0.0239132,0.0331276,181
0.456602,0.0238533,0.0340321,182
0.457424,0.0237969,0.0349361,183
0.457251,0.0238065,0.0357629,188
0.457466,0.0237903,0.0366214,184
0.457627,0.0237777,0.0374763,187
0.457788,0.0237651,0.0383321,188
0.459289,0.0236637,0.0393069,189
0.458337,0.0237249,0.0400664,190
0.458222,0.0237306,0.0408998,189
0.458498,0.0237104,0.0417696,186
0.45794,0.0237455,0.0425608,186
0.458328,0.0237178,0.0434426,188
0.458328,0.023716,0.0442874,187
0.457827,0.0237473,0.0450818,191
0.45939,0.0236416,0.0460876,189
0.458275,0.0237137,0.046818,186
0.458222,0.0237154,0.0476581,188
0.458113,0.0237207,0.0484923,190
0.458618,0.0236852,0.0493944,188
0.458121,0.0237163,0.0501857,187
0.458348,0.0236993,0.0510585,183
0.457964,0.0237229,0.0518612,182
0.457858,0.023728,0.0526957,184
0.457976,0.0237183,0.053557,186
0.457705,0.0237343,0.0543716,184
0.457324,0.0237577,0.0551719,181
0.457778,0.0237257,0.056076,185
0.457397,0.023749,0.0568758,182
0.457908,0.0237132,0.0577897,182
0.45803,0.0237032,0.0586549,188
0.458264,0.0236857,0.0595359,191
0.457997,0.0237015,0.0603504,188
0.457508,0.0237321,0.0611338,188
0.457577,0.0237256,0.0619932,193
0.456868,0.0237708,0.0627437,188
0.457605,0.0237199,0.0636981,188
0.457453,0.0237281,0.0645273,190
0.457636,0.023714,0.0654052,195
0.457652,0.023711,0.0662595,191
0.457279,0.0237339,0.0670558,198
0.456241,0.0238009,0.0677501,197
0.457648,0.0237054,0.0688171,198
0.456444,0.0237836,0.0694829,195
0.455687,0.023832,0.0702152,199
0.456593,0.0237698,0.0712104,193
0.456336,0.023785,0.0720216,199
0.455527,0.0238369,0.072742,194
0.455382,0.0238446,0.0735696,198
0.455791,0.0238155,0.0744897,202
0.455426,0.0238378,0.0752809,201
0.454732,0.0238821,0.0760148,197
0.454535,0.0238932,0.0768326,199
0.454835,0.0238714,0.0777367,199
0.453814,0.0239374,0.0784092,202
0.452689,0.0240103,0.0790596,194
0.452768,0.0240031,0.0799237,196
0.451976,0.0240539,0.0806294,195
0.451403,0.0240901,0.0813731,194
0.45143,0.0240864,0.0822267,194
0.450481,0.0241477,0.0828973,195
0.449697,0.0241979,0.0835962,195
0.450916,0.0241149,0.0846768,197
0.448838,0.0242513,0.0851237,191
0.44833,0.0242833,0.0858703,194
0.448359,0.0242794,0.0867216,195
0.448388,0.0242755,0.0875736,197
0.448258,0.0242823,0.088394,198
0.447967,0.0242998,0.0891817,195
0.447944,0.0242994,0.090024,196
0.447708,0.0243132,0.0908224,194
0.446086,0.0244193,0.0913307,188
0.445905,0.0244294,0.0921375,194
0.445778,0.024436,0.0929555,196
0.445546,0.0244495,0.0937508,195
0.445208,0.0244701,0.094523,190
0.444132,0.02454,0.0951328,188
0.443955,0.0245498,0.0959375,187
0.444148,0.0245351,0.0968243,188
0.444131,0.0245343,0.0976652,187
0.44264,0.0246317,0.0981733,187
0.442571,0.0246344,0.0990004,179
0.443501,0.0245706,0.100058,180
0.442802,0.0246153,0.100741,184
0.441948,0.0246703,0.101386,186
0.441463,0.0247007,0.102116,181
0.441344,0.0247067,0.102931,184
0.441226,0.0247127,0.103746,181
0.441003,0.0247256,0.104537,183
0.440834,0.024735,0.10534,181
0.440822,0.0247339,0.106181,178
0.440445,0.0247571,0.106933,176
0.440277,0.0247664,0.107736,173
0.441048,0.0247131,0.108775,172
0.440776,0.0247293,0.109554,176
0.441027,0.0247107,0.110465,171
0.441331,0.0246885,0.111392,163
0.441583,0.0246697,0.112307,163
0.441261,0.0246893,0.113074,159
0.441409,0.0246774,0.113964,161
0.441926,0.024641,0.114952,167
0.441762,0.0246501,0.115761,163
0.442333,0.02461,0.116769,169
0.442274,0.024612,0.117608,173
0.442216,0.024614,0.118448,171
0.442263,0.0246089,0.119318,169
0.442786,0.024572,0.120319,163
0.442729,0.0245739,0.121162,167
0.442884,0.0245616,0.122065,167
0.443145,0.0245422,0.122999,171
0.442878,0.0245581,0.123785,164
0.443352,0.0245245,0.124782,168
0.443403,0.0245191,0.12566,161
0.444412,0.0244498,0.126817,160
0.444412,0.0244478,0.127683,159
0.444465,0.0244423,0.128566,161
0.444785,0.0244189,0.12953,158
0.444733,0.0244205,0.130383,161
0.444681,0.024422,0.131238,165
0.445325,0.024377,0.132303,159
0.445649,0.0243533,0.133274,162
0.446244,0.0243116,0.13433,158
0.446517,0.0242914,0.13529,157
0.446467,0.0242927,0.136152,157
0.44631,0.0243013,0.13698,159
0.446746,0.0242701,0.137995,160
0.447293,0.0242315,0.139048,155
0.447679,0.0242038,0.140052,154
0.44872,0.0241321,0.141268,155
0.448782,0.024126,0.142174,149
0.449446,0.0240796,0.143276,151
0.448689,0.0241282,0.143917,149
0.449958,0.0240413,0.145222,150
0.449912,0.0240423,0.146098,149
0.449922,0.0240397,0.146993,155
0.449933,0.0240369,0.147889,151
0.450715,0.0239826,0.149045,148
0.452,0.0238946,0.150376,144
0.451292,0.0239399,0.151034,138
0.45197,0.0238925,0.152164,137
0.452596,0.0238486,0.15328,142
0.452777,0.0238344,0.154245,139
0.453686,0.0237715,0.155466,135
0.452862,0.0238246,0.156083,133
0.453605,0.0237729,0.15725,135
0.453285,0.0237922,0.158045,128
0.454481,0.0237101,0.159379,125
0.453823,0.0237521,0.160054,121
0.454685,0.0236923,0.161275,120
0.454703,0.023689,0.162195,128
0.455005,0.0236668,0.163219,127
0.455194,0.0236521,0.164203,121
0.45595,0.0235993,0.165399,116
0.456653,0.0235501,0.166578,112
0.457074,0.0235199,0.167656,104
0.458528,0.0234204,0.169124,102
0.458034,0.0234514,0.169865,101
0.45846,0.0234208,0.170952,99
0.459232,0.0233669,0.172175,109
0.459372,0.0233554,0.173159,108
0.460615,0.0232701,0.174569,105
0.461631,0.0231998,0.175897,106
0.460958,0.0232428,0.176574,103
0.46081,0.0232506,0.177453,106
0.461479,0.0232036,0.178655,105
0.462562,0.0231289,0.180023,107
0.463297,0.0230775,0.181258,102
0.464272,0.02301,0.182593,95
0.465073,0.0229541,0.183864,92
0.465939,0.0228939,0.185165,91
0.465196,0.0229416,0.185818,88
0.465944,0.0228892,0.187076,92
0.466516,0.0228488,0.188266,94
0.46745,0.0227839,0.189608,94
0.468087,0.022739,0.190833,91
0.468909,0.0226817,0.192138,91
0.469917,0.0226119,0.193525,89
0.469529,0.0226357,0.19433,86
0.470114,0.0225942,0.195547,84
0.471867,0.0224745,0.197261,79
0.471109,0.0225231,0.197913,79
0.47121,0.0225141,0.198932,81
